# .PCD v0.7 - Point Cloud Data file format
VERSION 0.7
FIELDS x y z
SIZE 4 4 4
TYPE F F F
COUNT 1 1 1
WIDTH 1512
HEIGHT 1
VIEWPOINT 0 0 0 1 0 0 0
POINTS 1512
DATA ascii
0.076399997 0.0019 0.89399999
0.078100003 0.0020000001 0.89600003
0.079800002 0.0020000001 0.898
0.081500001 0.0020000001 0.89899999
0.082999997 0.0020000001 0.89899999
0.084600002 0.0020000001 0.89899999
0.086099997 0.0020000001 0.89899999
0.087800004 0.0020000001 0.89999998
0.089400001 0.0020000001 0.90100002
0.090999998 0.0020000001 0.90100002
0.092600003 0.0020000001 0.90100002
0.093900003 0.0020000001 0.89899999
0.095200002 0.0020000001 0.89600003
0.0964 0.0019 0.89300001
0.0977 0.0019 0.89099997
0.099100001 0.0019 0.88999999
0.1005 0.0019 0.88800001
0.102 0.0019 0.88800001
0.1037 0.0019 0.889
0.1052 0.0019 0.889
0.1067 0.0019 0.889
0.1084 0.0019 0.88999999
0.1101 0.0019 0.89099997
0.1117 0.0019 0.89200002
0.1133 0.0019 0.89200002
0.1148 0.0019 0.89200002
0.1165 0.0019 0.89300001
0.1181 0.0019 0.89300001
0.1196 0.0019 0.89300001
0.1211 0.0019 0.89300001
0.1227 0.0019 0.89300001
0.1242 0.0019 0.89300001
0.1258 0.0019 0.89300001
0.12729999 0.0019 0.89300001
0.12899999 0.0019 0.89399999
0.131 0.0020000001 0.89700001
0.1327 0.0020000001 0.898
0.1344 0.0020000001 0.89899999
0.1358 0.0020000001 0.898
0.1372 0.0020000001 0.89700001
0.1389 0.0020000001 0.898
0.1402 0.0020000001 0.89600003
0.1416 0.0020000001 0.89499998
0.14300001 0.0019 0.89399999
0.1445 0.0019 0.89399999
0.1462 0.0020000001 0.89499998
0.148 0.0020000001 0.89600003
0.15000001 0.0020000001 0.89899999
0.1533 0.0020000001 0.89999998
0.1549 0.0020000001 0.89999998
0.1564 0.0020000001 0.89999998
0.1576 0.0020000001 0.898
0.15880001 0.0020000001 0.89600003
0.1602 0.0020000001 0.89499998
0.16159999 0.0019 0.89399999
0.1631 0.0019 0.89399999
0.1649 0.0020000001 0.89499998
0.1666 0.0020000001 0.89600003
0.1681 0.0020000001 0.89600003
0.1699 0.0020000001 0.89700001
0.1714 0.0020000001 0.89700001
0.1734 0.0020000001 0.89899999
0.1751 0.0020000001 0.89999998
0.17649999 0.0020000001 0.89899999
0.1781 0.0020000001 0.89899999
0.1798 0.0020000001 0.89999998
0.1814 0.0020000001 0.89999998
0.1829 0.0020000001 0.89999998
0.18449999 0.0020000001 0.89999998
0.18629999 0.0020000001 0.90100002
0.18799999 0.0020000001 0.90200001
0.18979999 0.0020000001 0.903
0.19140001 0.0020000001 0.903
0.54250002 0.0035999999 1.645
-0.39300001 0.0034 0.87300003
-0.391 0.0034 0.87199998
-0.38859999 0.0034 0.87
-0.3662 0.0035000001 0.88499999
-0.34810001 0.0035000001 0.88200003
-0.34619999 0.0034 0.88099998
-0.34470001 0.0034 0.88099998
-0.3439 0.0035000001 0.88300002
-0.34240001 0.0035000001 0.88300002
-0.33970001 0.0035000001 0.884
-0.32859999 0.0035000001 0.88700002
-0.32620001 0.0035000001 0.889
-0.3048 0.0035000001 0.88499999
-0.30360001 0.0035000001 0.88599998
-0.3028 0.0035000001 0.88800001
-0.30160001 0.0035000001 0.889
-0.2947 0.0035000001 0.88700002
-0.29170001 0.0035000001 0.88700002
-0.28979999 0.0035000001 0.88599998
-0.28740001 0.0035000001 0.88800001
-0.28549999 0.0035000001 0.88700002
-0.28400001 0.0035000001 0.88700002
-0.28279999 0.0035000001 0.88800001
-0.28119999 0.0035000001 0.88800001
-0.28029999 0.0035000001 0.88999999
-0.27880001 0.0035000001 0.88999999
-0.2701 0.0035000001 0.88700002
-0.26710001 0.0035000001 0.88700002
-0.26550001 0.0035000001 0.88700002
-0.26429999 0.0035000001 0.88800001
-0.26300001 0.0035000001 0.889
-0.26120001 0.0035000001 0.88800001
-0.2597 0.0035000001 0.88800001
-0.25780001 0.0035000001 0.88700002
-0.25420001 0.0035000001 0.88499999
-0.2527 0.0035000001 0.88499999
-0.2511 0.0035000001 0.88499999
-0.2502 0.0035000001 0.88700002
-0.24860001 0.0035000001 0.88700002
-0.2471 0.0035000001 0.88700002
-0.2458 0.0035000001 0.88800001
-0.24429999 0.0035000001 0.88800001
-0.23729999 0.0035000001 0.88499999
-0.23549999 0.0035000001 0.884
-0.234 0.0035000001 0.884
-0.2307 0.0035000001 0.88300002
-0.2289 0.0035000001 0.88200003
-0.2271 0.0034 0.88099998
-0.22579999 0.0035000001 0.88200003
-0.2243 0.0035000001 0.88200003
-0.2228 0.0035000001 0.88200003
-0.22149999 0.0035000001 0.88300002
-0.2199 0.0035000001 0.88300002
-0.21870001 0.0035000001 0.884
-0.21709999 0.0035000001 0.884
-0.2156 0.0035000001 0.884
-0.2141 0.0035000001 0.884
-0.21250001 0.0035000001 0.884
-0.211 0.0035000001 0.884
-0.20919999 0.0035000001 0.88300002
-0.2075 0.0035000001 0.88200003
-0.2062 0.0035000001 0.88300002
-0.2044 0.0035000001 0.88200003
-0.20290001 0.0035000001 0.88200003
-0.20110001 0.0034 0.88099998
-0.1996 0.0034 0.88099998
-0.19850001 0.0035000001 0.88300002
-0.197 0.0035000001 0.88300002
-0.1952 0.0035000001 0.88200003
-0.1937 0.0035000001 0.88200003
-0.19149999 0.0034 0.87900001
-0.16850001 0.0031999999 0.82599998
-0.16670001 0.0031999999 0.824
-0.1653 0.0031999999 0.824
-0.1638 0.0031999999 0.824
-0.1622 0.0031999999 0.82300001
-0.1608 0.0031999999 0.82300001
-0.1594 0.0031999999 0.82300001
-0.1585 0.0031999999 0.82599998
-0.1573 0.0031999999 0.82700002
-0.156 0.0031999999 0.82800001
-0.1548 0.0031999999 0.829
-0.15350001 0.0031999999 0.82999998
-0.1523 0.0033 0.83099997
-0.1508 0.0033 0.83099997
-0.1496 0.0033 0.83200002
-0.1479 0.0033 0.83099997
-0.14650001 0.0033 0.83099997
-0.1451 0.0033 0.83099997
-0.1435 0.0031999999 0.82999998
-0.14219999 0.0033 0.83099997
-0.1406 0.0031999999 0.82999998
-0.1391 0.0031999999 0.82999998
-0.1375 0.0031999999 0.829
-0.13609999 0.0031999999 0.829
-0.1347 0.0031999999 0.829
-0.1331 0.0031999999 0.82800001
-0.13160001 0.0031999999 0.82800001
-0.1302 0.0031999999 0.82800001
-0.1286 0.0031999999 0.82700002
-0.12720001 0.0031999999 0.82700002
-0.1256 0.0031999999 0.82599998
-0.1243 0.0031999999 0.82700002
-0.123 0.0031999999 0.82800001
-0.1217 0.0031999999 0.829
-0.1201 0.0031999999 0.82800001
-0.1189 0.0031999999 0.829
-0.1176 0.0031999999 0.82999998
-0.1161 0.0031999999 0.82999998
-0.1147 0.0031999999 0.82999998
-0.1089 0.0031999999 0.82999998
-0.1075 0.0031999999 0.82999998
-0.106 0.0031999999 0.82999998
-0.1046 0.0031999999 0.82999998
-0.1032 0.0031999999 0.82999998
-0.1017 0.0031999999 0.82999998
-0.098999999 0.0033 0.83099997
-0.097499996 0.0033 0.83099997
-0.096100003 0.0033 0.83099997
-0.094499998 0.0031999999 0.82999998
-0.093099996 0.0031999999 0.82999998
-0.091600001 0.0031999999 0.829
-0.090099998 0.0031999999 0.829
-0.088500001 0.0031999999 0.82700002
-0.086999997 0.0031999999 0.82700002
-0.085699998 0.0031999999 0.82800001
-0.084299996 0.0031999999 0.82800001
-0.082800001 0.0031999999 0.82800001
-0.081500001 0.0031999999 0.829
-0.0801 0.0031999999 0.829
-0.078599997 0.0031999999 0.829
-0.077299997 0.0031999999 0.82999998
-0.075800002 0.0031999999 0.82999998
-0.0744 0.0031999999 0.82999998
-0.072899997 0.0031999999 0.829
-0.071400002 0.0031999999 0.829
-0.07 0.0031999999 0.829
-0.068599999 0.0031999999 0.829
-0.067100003 0.0031999999 0.829
-0.065700002 0.0031999999 0.829
-0.064300001 0.0031999999 0.829
-0.062799998 0.0031999999 0.829
-0.061500002 0.0031999999 0.82999998
-0.059999999 0.0031999999 0.82999998
-0.051399998 0.0031999999 0.82999998
-0.050000001 0.0033 0.83099997
-0.048599999 0.0033 0.83200002
-0.047200002 0.0033 0.83200002
-0.045699999 0.0033 0.83099997
-0.044199999 0.0033 0.83099997
-0.042800002 0.0033 0.83099997
-0.041299999 0.0031999999 0.829
-0.039700001 0.0031999999 0.82599998
-0.0383 0.0031999999 0.82599998
-0.034299999 0.0033 0.83399999
-0.033 0.0033 0.83700001
-0.031500001 0.0033 0.838
-0.030099999 0.0033 0.83899999
-0.0287 0.0033 0.83899999
-0.0272 0.0033 0.83899999
-0.025800001 0.0033 0.83899999
-0.0243 0.0033 0.838
-0.0228 0.0033 0.838
-0.021400001 0.0033 0.838
-0.0199 0.0033 0.838
-0.0185 0.0033 0.83899999
-0.017000001 0.0033 0.83899999
-0.0141 0.0033 0.83700001
-0.0126 0.0033 0.83499998
-0.0097000003 0.0033 0.83099997
-0.0082 0.0033 0.83099997
0.0051000002 0.0035000001 0.88999999
0.0066 0.0035000001 0.89300001
0.0082 0.0035000001 0.89700001
0.0098000001 0.0035000001 0.89899999
0.0114 0.0035000001 0.90100002
0.0129 0.0035000001 0.90100002
0.0145 0.0035000001 0.90100002
0.0176 0.0035000001 0.90200001
0.019200001 0.0035000001 0.90100002
0.0207 0.0035000001 0.90100002
0.022299999 0.0035000001 0.89999998
0.023800001 0.0035000001 0.898
0.0253 0.0035000001 0.89600003
0.026699999 0.0035000001 0.89300001
0.0283 0.0035000001 0.89300001
0.0298 0.0035000001 0.89200002
0.031300001 0.0035000001 0.89200002
0.032900002 0.0035000001 0.89300001
0.034600001 0.0035000001 0.89499998
0.0361 0.0035000001 0.89600003
0.037799999 0.0035000001 0.898
0.0394 0.0035000001 0.89899999
0.040899999 0.0035000001 0.898
0.042300001 0.0035000001 0.89499998
0.043699998 0.0035000001 0.89099997
0.0451 0.0035000001 0.88800001
0.066600002 0.0035000001 0.88800001
0.068099998 0.0035000001 0.88800001
0.069700003 0.0035000001 0.88800001
0.071199998 0.0035000001 0.88800001
0.072899997 0.0035000001 0.88999999
0.074600004 0.0035000001 0.89099997
0.076300003 0.0035000001 0.89300001
0.078000002 0.0035000001 0.89499998
0.079800002 0.0035000001 0.898
0.081500001 0.0035000001 0.89899999
0.083099999 0.0035000001 0.89999998
0.084700003 0.0035000001 0.89999998
0.086199999 0.0035000001 0.89999998
0.087899998 0.0035000001 0.90100002
0.089400001 0.0035000001 0.90100002
0.0911 0.0035000001 0.90200001
0.092600003 0.0035000001 0.90100002
0.093999997 0.0035000001 0.89999998
0.095299996 0.0035000001 0.89700001
0.0964 0.0035000001 0.89300001
0.0977 0.0035000001 0.89099997
0.099100001 0.0035000001 0.88999999
0.1005 0.0035000001 0.88800001
0.102 0.0035000001 0.88800001
0.1037 0.0035000001 0.889
0.1052 0.0035000001 0.889
0.1069 0.0035000001 0.88999999
0.1084 0.0035000001 0.88999999
0.1101 0.0035000001 0.89099997
0.1119 0.0035000001 0.89300001
0.1134 0.0035000001 0.89300001
0.115 0.0035000001 0.89300001
0.1165 0.0035000001 0.89300001
0.1181 0.0035000001 0.89300001
0.1196 0.0035000001 0.89300001
0.1211 0.0035000001 0.89300001
0.1226 0.0035000001 0.89200002
0.124 0.0035000001 0.89099997
0.12549999 0.0035000001 0.89099997
0.12710001 0.0035000001 0.89099997
0.1287 0.0035000001 0.89200002
0.13070001 0.0035000001 0.89499998
0.13259999 0.0035000001 0.89700001
0.13410001 0.0035000001 0.89700001
0.1357 0.0035000001 0.89700001
0.1372 0.0035000001 0.89700001
0.1388 0.0035000001 0.89700001
0.1402 0.0035000001 0.89600003
0.1417 0.0035000001 0.89600003
0.14300001 0.0035000001 0.89399999
0.1445 0.0035000001 0.89399999
0.1462 0.0035000001 0.89499998
0.1478 0.0035000001 0.89499998
0.1531 0.0035000001 0.89899999
0.1549 0.0035000001 0.89999998
0.15620001 0.0035000001 0.89899999
0.1576 0.0035000001 0.898
0.15880001 0.0035000001 0.89600003
0.1602 0.0035000001 0.89499998
0.16159999 0.0035000001 0.89399999
0.1631 0.0035000001 0.89399999
0.1649 0.0035000001 0.89499998
0.1666 0.0035000001 0.89600003
0.16850001 0.0035000001 0.898
0.17030001 0.0035000001 0.89899999
0.1716 0.0035000001 0.898
0.1736 0.0035000001 0.89999998
0.1751 0.0035000001 0.89999998
0.1767 0.0035000001 0.89999998
0.17829999 0.0035000001 0.89999998
0.1798 0.0035000001 0.89999998
0.1814 0.0035000001 0.89999998
0.1831 0.0035000001 0.90100002
0.1847 0.0035000001 0.90100002
0.18629999 0.0035000001 0.90100002
0.1882 0.0035000001 0.903
0.18979999 0.0035000001 0.903
0.19159999 0.0035000001 0.90399998
0.19310001 0.0035000001 0.90399998
-0.40360001 0.0049000001 0.87300003
-0.39340001 0.0049000001 0.87400001
-0.37369999 0.0049999999 0.88099998
-0.3673 0.0049999999 0.884
-0.34959999 0.0049999999 0.88200003
-0.34850001 0.0049999999 0.88300002
-0.3466 0.0049999999 0.88200003
-0.34470001 0.0049999999 0.88099998
-0.34349999 0.0049999999 0.88200003
-0.34200001 0.0049999999 0.88200003
-0.34079999 0.0049999999 0.88300002
-0.32929999 0.0049999999 0.88499999
-0.32780001 0.0049999999 0.88499999
-0.3263 0.0049999999 0.88499999
-0.32550001 0.0049999999 0.88700002
-0.32319999 0.0049999999 0.88499999
-0.30599999 0.0049999999 0.884
-0.30329999 0.0049999999 0.88499999
-0.3028 0.0049999999 0.88800001
-0.3012 0.0049999999 0.88800001
-0.29969999 0.0049999999 0.88800001
-0.28979999 0.0049999999 0.88599998
-0.28830001 0.0049999999 0.88599998
-0.287 0.0049999999 0.88700002
-0.28549999 0.0049999999 0.88700002
-0.28400001 0.0049999999 0.88700002
-0.28240001 0.0049999999 0.88700002
-0.28029999 0.0049999999 0.88999999
-0.27880001 0.0049999999 0.88999999
-0.27720001 0.0049999999 0.88999999
-0.2735 0.0049999999 0.88800001
-0.26460001 0.0049999999 0.889
-0.25600001 0.0049999999 0.88599998
-0.2545 0.0049999999 0.88599998
-0.25319999 0.0049999999 0.88700002
-0.25170001 0.0049999999 0.88700002
-0.2489 0.0049999999 0.88800001
-0.2458 0.0049999999 0.88800001
-0.24429999 0.0049999999 0.88800001
-0.24089999 0.0049999999 0.88700002
-0.23909999 0.0049999999 0.88599998
-0.23549999 0.0049999999 0.884
-0.234 0.0049999999 0.884
-0.2325 0.0049999999 0.884
-0.2309 0.0049999999 0.884
-0.22939999 0.0049999999 0.884
-0.22759999 0.0049999999 0.88300002
-0.2261 0.0049999999 0.88300002
-0.22480001 0.0049999999 0.884
-0.2233 0.0049999999 0.884
-0.2217 0.0049999999 0.884
-0.2202 0.0049999999 0.884
-0.21870001 0.0049999999 0.884
-0.21709999 0.0049999999 0.884
-0.2156 0.0049999999 0.884
-0.2141 0.0049999999 0.884
-0.211 0.0049999999 0.884
-0.20919999 0.0049999999 0.88300002
-0.2075 0.0049999999 0.88200003
-0.2062 0.0049999999 0.88300002
-0.2044 0.0049999999 0.88200003
-0.2027 0.0049999999 0.88099998
-0.20110001 0.0049999999 0.88099998
-0.19939999 0.0049999999 0.88
-0.1981 0.0049999999 0.88099998
-0.19679999 0.0049999999 0.88200003
-0.1928 0.0049999999 0.87800002
-0.19069999 0.0049000001 0.875
-0.16869999 0.0046999999 0.82700002
-0.16689999 0.0046999999 0.82499999
-0.1653 0.0046999999 0.824
-0.1636 0.0046000001 0.82300001
-0.1622 0.0046000001 0.82300001
-0.161 0.0046999999 0.824
-0.15970001 0.0046999999 0.82499999
-0.1587 0.0046999999 0.82700002
-0.1575 0.0046999999 0.82800001
-0.15620001 0.0046999999 0.829
-0.155 0.0046999999 0.82999998
-0.1523 0.0046999999 0.83099997
-0.1508 0.0046999999 0.83099997
-0.1494 0.0046999999 0.83099997
-0.1479 0.0046999999 0.83099997
-0.14650001 0.0046999999 0.83099997
-0.14489999 0.0046999999 0.82999998
-0.1435 0.0046999999 0.82999998
-0.14219999 0.0046999999 0.83099997
-0.1407 0.0046999999 0.83099997
-0.1391 0.0046999999 0.82999998
-0.13770001 0.0046999999 0.82999998
-0.13609999 0.0046999999 0.829
-0.1347 0.0046999999 0.829
-0.1332 0.0046999999 0.829
-0.13160001 0.0046999999 0.82800001
-0.1303 0.0046999999 0.829
-0.12890001 0.0046999999 0.829
-0.1275 0.0046999999 0.829
-0.126 0.0046999999 0.829
-0.1246 0.0046999999 0.829
-0.1232 0.0046999999 0.829
-0.1219 0.0046999999 0.82999998
-0.1203 0.0046999999 0.829
-0.119 0.0046999999 0.82999998
-0.1177 0.0046999999 0.83099997
-0.1163 0.0046999999 0.83099997
-0.1134 0.0046999999 0.83099997
-0.1119 0.0046999999 0.83099997
-0.1106 0.0046999999 0.83200002
-0.1091 0.0046999999 0.83099997
-0.1075 0.0046999999 0.82999998
-0.1062 0.0046999999 0.83099997
-0.1047 0.0046999999 0.83099997
-0.1033 0.0046999999 0.83099997
-0.1019 0.0046999999 0.83099997
-0.098999999 0.0046999999 0.83099997
-0.097499996 0.0046999999 0.83099997
-0.096000001 0.0046999999 0.82999998
-0.094499998 0.0046999999 0.82999998
-0.093099996 0.0046999999 0.82999998
-0.091600001 0.0046999999 0.829
-0.090099998 0.0046999999 0.829
-0.088699996 0.0046999999 0.829
-0.087200001 0.0046999999 0.829
-0.0858 0.0046999999 0.829
-0.084399998 0.0046999999 0.829
-0.082900003 0.0046999999 0.829
-0.081500001 0.0046999999 0.829
-0.0801 0.0046999999 0.829
-0.078599997 0.0046999999 0.829
-0.077200003 0.0046999999 0.829
-0.0757 0.0046999999 0.829
-0.074299999 0.0046999999 0.829
-0.072899997 0.0046999999 0.829
-0.071400002 0.0046999999 0.829
-0.069899999 0.0046999999 0.82800001
-0.068499997 0.0046999999 0.82800001
-0.067100003 0.0046999999 0.829
-0.062700003 0.0046999999 0.82800001
-0.0614 0.0046999999 0.829
-0.059900001 0.0046999999 0.829
-0.055500001 0.0046999999 0.82700002
-0.054099999 0.0046999999 0.82800001
-0.0528 0.0046999999 0.829
-0.0513 0.0046999999 0.829
-0.049899999 0.0046999999 0.82999998
-0.048599999 0.0046999999 0.83200002
-0.047200002 0.0046999999 0.83200002
-0.045699999 0.0046999999 0.83200002
-0.044199999 0.0046999999 0.83099997
-0.042800002 0.0046999999 0.83099997
-0.041299999 0.0046999999 0.829
-0.039700001 0.0046999999 0.82599998
-0.038199998 0.0046999999 0.82499999
-0.037 0.0046999999 0.829
-0.034299999 0.0046999999 0.83399999
-0.032900002 0.0046999999 0.83600003
-0.031599998 0.0046999999 0.83899999
-0.030200001 0.0046999999 0.83999997
-0.0287 0.0046999999 0.84100002
-0.0273 0.0046999999 0.83999997
-0.025800001 0.0046999999 0.83999997
-0.0243 0.0046999999 0.83999997
-0.0229 0.0046999999 0.83999997
-0.021400001 0.0046999999 0.83999997
-0.02 0.0046999999 0.83999997
-0.0185 0.0046999999 0.83999997
-0.017100001 0.0046999999 0.83999997
-0.0156 0.0046999999 0.838
-0.0141 0.0046999999 0.838
-0.0126 0.0046999999 0.83600003
-0.0112 0.0046999999 0.83399999
0.00039999999 0.0049999999 0.88800001
0.0020000001 0.0049999999 0.889
0.0035000001 0.0049999999 0.88999999
0.0051000002 0.0049999999 0.89099997
0.0066 0.0049999999 0.89399999
0.0082 0.0051000002 0.898
0.0098000001 0.0051000002 0.89999998
0.0114 0.0051000002 0.90100002
0.0129 0.0051000002 0.90200001
0.0145 0.0051000002 0.90200001
0.016100001 0.0051000002 0.90200001
0.0176 0.0051000002 0.90100002
0.019200001 0.0051000002 0.90100002
0.0207 0.0051000002 0.89999998
0.0222 0.0051000002 0.89899999
0.023800001 0.0051000002 0.89700001
0.0252 0.0051000002 0.89499998
0.026699999 0.0049999999 0.89300001
0.0283 0.0049999999 0.89200002
0.0298 0.0049999999 0.89099997
0.031300001 0.0049999999 0.89099997
0.032900002 0.0049999999 0.89200002
0.034499999 0.0049999999 0.89399999
0.0361 0.0051000002 0.89499998
0.037700001 0.0051000002 0.89700001
0.039500002 0.0051000002 0.90100002
0.041000001 0.0051000002 0.90100002
0.0425 0.0051000002 0.89899999
0.0438 0.0049999999 0.89300001
0.065099999 0.0049999999 0.88800001
0.066600002 0.0049999999 0.88800001
0.068099998 0.0049999999 0.88800001
0.069600001 0.0049999999 0.88700002
0.071199998 0.0049999999 0.88800001
0.072899997 0.0049999999 0.88999999
0.074600004 0.0049999999 0.89099997
0.076200001 0.0049999999 0.89200002
0.077699997 0.0049999999 0.89200002
0.079599999 0.0051000002 0.89600003
0.0814 0.0051000002 0.898
0.082999997 0.0051000002 0.89899999
0.084600002 0.0051000002 0.89899999
0.086199999 0.0051000002 0.89999998
0.087800004 0.0051000002 0.89999998
0.089400001 0.0051000002 0.90100002
0.090999998 0.0051000002 0.90100002
0.092500001 0.0051000002 0.89999998
0.093900003 0.0051000002 0.89899999
0.095200002 0.0051000002 0.89600003
0.0964 0.0049999999 0.89300001
0.0977 0.0049999999 0.89099997
0.099100001 0.0049999999 0.88999999
0.1007 0.0049999999 0.88999999
0.1021 0.0049999999 0.889
0.1038 0.0049999999 0.88999999
0.1053 0.0049999999 0.88999999
0.1069 0.0049999999 0.88999999
0.1084 0.0049999999 0.88999999
0.1101 0.0049999999 0.89099997
0.1119 0.0049999999 0.89300001
0.1134 0.0049999999 0.89300001
0.115 0.0049999999 0.89300001
0.1165 0.0049999999 0.89300001
0.1181 0.0049999999 0.89300001
0.1196 0.0049999999 0.89300001
0.1211 0.0049999999 0.89300001
0.1224 0.0049999999 0.89099997
0.124 0.0049999999 0.89099997
0.12540001 0.0049999999 0.88999999
0.1268 0.0049999999 0.889
0.1285 0.0049999999 0.88999999
0.1303 0.0049999999 0.89200002
0.1323 0.0051000002 0.89499998
0.1338 0.0051000002 0.89499998
0.1354 0.0051000002 0.89499998
0.1371 0.0051000002 0.89600003
0.1388 0.0051000002 0.89700001
0.14049999 0.0051000002 0.898
0.1417 0.0051000002 0.89600003
0.14309999 0.0051000002 0.89499998
0.1445 0.0049999999 0.89399999
0.1462 0.0051000002 0.89499998
0.1514 0.0051000002 0.898
0.153 0.0051000002 0.898
0.1547 0.0051000002 0.89899999
0.1561 0.0051000002 0.898
0.1576 0.0051000002 0.898
0.15899999 0.0051000002 0.89700001
0.1602 0.0051000002 0.89499998
0.1617 0.0051000002 0.89499998
0.16329999 0.0051000002 0.89499998
0.16500001 0.0051000002 0.89600003
0.167 0.0051000002 0.898
0.1689 0.0051000002 0.89999998
0.1706 0.0051000002 0.90100002
0.17200001 0.0051000002 0.89999998
0.17380001 0.0051000002 0.90100002
0.1753 0.0051000002 0.90100002
0.1769 0.0051000002 0.90100002
0.17829999 0.0051000002 0.89999998
0.1796 0.0051000002 0.89899999
0.18099999 0.0051000002 0.898
0.1841 0.0051000002 0.898
0.1856 0.0051000002 0.898
0.18780001 0.0051000002 0.90100002
0.19 0.0051000002 0.90399998
0.1918 0.0051000002 0.90499997
0.1929 0.0051000002 0.903
-0.40360001 0.0063999998 0.87300003
-0.39539999 0.0065000001 0.875
-0.37560001 0.0065000001 0.88200003
-0.3741 0.0065000001 0.88200003
-0.34889999 0.0065000001 0.884
-0.3466 0.0065000001 0.88200003
-0.345 0.0065000001 0.88200003
-0.34349999 0.0065000001 0.88200003
-0.34200001 0.0065000001 0.88200003
-0.34079999 0.0065000001 0.88300002
-0.33469999 0.0065000001 0.88700002
-0.33320001 0.0065000001 0.88700002
-0.33129999 0.0065000001 0.88599998
-0.32969999 0.0065000001 0.88599998
-0.32820001 0.0065000001 0.88599998
-0.32659999 0.0065000001 0.88599998
-0.32550001 0.0065000001 0.88700002
-0.32359999 0.0065000001 0.88599998
-0.30289999 0.0065000001 0.884
-0.30090001 0.0065000001 0.88700002
-0.2978 0.0065000001 0.88700002
-0.2951 0.0066 0.88800001
-0.29010001 0.0065000001 0.88700002
-0.28830001 0.0065000001 0.88599998
-0.287 0.0065000001 0.88700002
-0.28549999 0.0065000001 0.88700002
-0.28400001 0.0065000001 0.88700002
-0.28119999 0.0066 0.88800001
-0.28029999 0.0066 0.88999999
-0.2791 0.0066 0.89099997
-0.27720001 0.0066 0.88999999
-0.2674 0.0066 0.88800001
-0.26609999 0.0066 0.889
-0.2649 0.0066 0.88999999
-0.2633 0.0066 0.88999999
-0.26179999 0.0066 0.88999999
-0.26030001 0.0066 0.88999999
-0.2581 0.0066 0.88800001
-0.2563 0.0065000001 0.88700002
-0.255 0.0066 0.88800001
-0.25350001 0.0066 0.88800001
-0.252 0.0066 0.88800001
-0.25040001 0.0066 0.88800001
-0.2427 0.0066 0.88800001
-0.23729999 0.0065000001 0.88499999
-0.2358 0.0065000001 0.88499999
-0.234 0.0065000001 0.884
-0.2325 0.0065000001 0.884
-0.2309 0.0065000001 0.884
-0.22939999 0.0065000001 0.884
-0.2263 0.0065000001 0.884
-0.22499999 0.0065000001 0.88499999
-0.2235 0.0065000001 0.88499999
-0.222 0.0065000001 0.88499999
-0.22040001 0.0065000001 0.88499999
-0.2189 0.0065000001 0.88499999
-0.2174 0.0065000001 0.88499999
-0.2158 0.0065000001 0.88499999
-0.2128 0.0065000001 0.88499999
-0.211 0.0065000001 0.884
-0.20900001 0.0065000001 0.88200003
-0.2075 0.0065000001 0.88200003
-0.2059 0.0065000001 0.88200003
-0.2042 0.0065000001 0.88099998
-0.2024 0.0065000001 0.88
-0.2007 0.0065000001 0.87900001
-0.1991 0.0065000001 0.87900001
-0.1978 0.0065000001 0.88
-0.1965 0.0065000001 0.88099998
-0.1708 0.0060999999 0.82999998
-0.16869999 0.0060999999 0.82700002
-0.1671 0.0060999999 0.82599998
-0.1655 0.0060999999 0.82499999
-0.1638 0.0060999999 0.824
-0.16240001 0.0060999999 0.824
-0.161 0.0060999999 0.824
-0.15970001 0.0060999999 0.82499999
-0.1587 0.0060999999 0.82700002
-0.1576 0.0060999999 0.829
-0.1564 0.0060999999 0.82999998
-0.1551 0.0060999999 0.83099997
-0.1539 0.0060999999 0.83200002
-0.1524 0.0060999999 0.83200002
-0.15099999 0.0060999999 0.83200002
-0.1496 0.0060999999 0.83200002
-0.1479 0.0060999999 0.83099997
-0.14650001 0.0060999999 0.83099997
-0.14489999 0.0060999999 0.82999998
-0.1435 0.0060999999 0.82999998
-0.14219999 0.0060999999 0.83099997
-0.1406 0.0060999999 0.82999998
-0.1391 0.0060999999 0.82999998
-0.13770001 0.0060999999 0.82999998
-0.1363 0.0060999999 0.82999998
-0.1348 0.0060999999 0.82999998
-0.13339999 0.0060999999 0.82999998
-0.1319 0.0060999999 0.82999998
-0.1305 0.0060999999 0.82999998
-0.12909999 0.0060999999 0.82999998
-0.1276 0.0060999999 0.82999998
-0.12620001 0.0060999999 0.82999998
-0.1247 0.0060999999 0.82999998
-0.1233 0.0060999999 0.82999998
-0.122 0.0060999999 0.83099997
-0.1204 0.0060999999 0.82999998
-0.1191 0.0060999999 0.83099997
-0.1177 0.0060999999 0.83099997
-0.1106 0.0060999999 0.83200002
-0.1091 0.0060999999 0.83099997
-0.1076 0.0060999999 0.83099997
-0.106 0.0060999999 0.82999998
-0.1046 0.0060999999 0.82999998
-0.1032 0.0060999999 0.82999998
-0.1017 0.0060999999 0.82999998
-0.1002 0.0060999999 0.829
-0.098700002 0.0060999999 0.829
-0.0973 0.0060999999 0.829
-0.095899999 0.0060999999 0.829
-0.094400004 0.0060999999 0.829
-0.093000002 0.0060999999 0.829
-0.091600001 0.0060999999 0.829
-0.090099998 0.0060999999 0.829
-0.088699996 0.0060999999 0.829
-0.087200001 0.0060999999 0.829
-0.085900001 0.0060999999 0.82999998
-0.084399998 0.0060999999 0.829
-0.082900003 0.0060999999 0.829
-0.081500001 0.0060999999 0.829
-0.0801 0.0060999999 0.829
-0.078599997 0.0060999999 0.829
-0.077100001 0.0060999999 0.82800001
-0.0757 0.0060999999 0.82800001
-0.074299999 0.0060999999 0.829
-0.072899997 0.0060999999 0.829
-0.071400002 0.0060999999 0.829
-0.07 0.0060999999 0.829
-0.068599999 0.0060999999 0.82999998
-0.0614 0.0060999999 0.829
-0.059900001 0.0060999999 0.829
-0.055500001 0.0060999999 0.82700002
-0.054099999 0.0060999999 0.82700002
-0.0528 0.0060999999 0.829
-0.0513 0.0060999999 0.829
-0.049899999 0.0060999999 0.82999998
-0.048599999 0.0060999999 0.83099997
-0.0471 0.0060999999 0.83099997
-0.045699999 0.0060999999 0.83099997
-0.044199999 0.0060999999 0.83099997
-0.042800002 0.0060999999 0.82999998
-0.041299999 0.0060999999 0.829
-0.039700001 0.0060999999 0.82599998
-0.0383 0.0060999999 0.82599998
-0.036899999 0.0060999999 0.82800001
-0.035599999 0.0060999999 0.83099997
-0.034200002 0.0060999999 0.833
-0.032900002 0.0062000002 0.83600003
-0.031599998 0.0062000002 0.83899999
-0.030200001 0.0062000002 0.84100002
-0.0287 0.0062000002 0.84100002
-0.0273 0.0062000002 0.84100002
-0.025800001 0.0062000002 0.83999997
-0.0243 0.0062000002 0.83999997
-0.0229 0.0062000002 0.83999997
-0.021400001 0.0062000002 0.83899999
-0.02 0.0062000002 0.83899999
-0.0185 0.0062000002 0.83899999
-0.017000001 0.0062000002 0.83899999
-0.0156 0.0062000002 0.838
-0.0141 0.0062000002 0.838
-0.0126 0.0062000002 0.83600003
-0.0112 0.0062000002 0.83399999
-0.0027000001 0.0066 0.88999999
-0.0011 0.0066 0.88999999
0.00039999999 0.0066 0.889
0.0020000001 0.0066 0.88999999
0.0035000001 0.0066 0.89099997
0.0051000002 0.0066 0.89300001
0.0066 0.0066 0.89700001
0.0082 0.0066 0.89999998
0.0098000001 0.0066 0.89999998
0.0114 0.0066 0.90100002
0.0129 0.0066 0.90100002
0.0145 0.0066 0.90100002
0.016000001 0.0066 0.90100002
0.0176 0.0066 0.90100002
0.019200001 0.0066 0.89999998
0.0207 0.0066 0.898
0.0222 0.0066 0.89600003
0.023700001 0.0066 0.89499998
0.0252 0.0066 0.89300001
0.026699999 0.0066 0.89200002
0.028200001 0.0066 0.89099997
0.0297 0.0066 0.88999999
0.031300001 0.0066 0.89099997
0.032900002 0.0066 0.89300001
0.034600001 0.0066 0.89600003
0.036200002 0.0066 0.89700001
0.037900001 0.0066 0.90100002
0.0396 0.0066999998 0.90499997
0.060899999 0.0066 0.89399999
0.063699998 0.0066 0.89099997
0.065200001 0.0066 0.88999999
0.066699997 0.0066 0.889
0.068099998 0.0066 0.88800001
0.069700003 0.0066 0.88800001
0.071199998 0.0066 0.88800001
0.072899997 0.0066 0.88999999
0.074600004 0.0066 0.89099997
0.076200001 0.0066 0.89200002
0.0779 0.0066 0.89399999
0.079599999 0.0066 0.89600003
0.0814 0.0066 0.898
0.082999997 0.0066 0.89899999
0.084600002 0.0066 0.89899999
0.086199999 0.0066 0.89999998
0.087800004 0.0066 0.89999998
0.089299999 0.0066 0.89999998
0.090999998 0.0066 0.90100002
0.095200002 0.0066 0.89600003
0.0995 0.0066 0.89300001
0.1008 0.0066 0.89099997
0.1023 0.0066 0.89099997
0.1039 0.0066 0.89099997
0.1054 0.0066 0.89099997
0.107 0.0066 0.89099997
0.1085 0.0066 0.89099997
0.1102 0.0066 0.89200002
0.1119 0.0066 0.89300001
0.1135 0.0066 0.89399999
0.115 0.0066 0.89300001
0.1166 0.0066 0.89399999
0.1182 0.0066 0.89399999
0.1195 0.0066 0.89200002
0.1209 0.0066 0.89099997
0.1223 0.0066 0.88999999
0.1238 0.0066 0.88999999
0.1252 0.0066 0.889
0.1266 0.0066 0.88800001
0.12819999 0.0066 0.88800001
0.13 0.0066 0.88999999
0.1318 0.0066 0.89200002
0.13349999 0.0066 0.89300001
0.1354 0.0066 0.89499998
0.1371 0.0066 0.89600003
0.1389 0.0066 0.898
0.14049999 0.0066 0.898
0.14210001 0.0066 0.898
0.1433 0.0066 0.89600003
0.14470001 0.0066 0.89499998
0.1462 0.0066 0.89499998
0.15109999 0.0066 0.89600003
0.15260001 0.0066 0.89600003
0.15449999 0.0066 0.898
0.1561 0.0066 0.898
0.1574 0.0066 0.89700001
0.15899999 0.0066 0.89700001
0.1604 0.0066 0.89600003
0.1619 0.0066 0.89600003
0.1637 0.0066 0.89700001
0.1654 0.0066 0.898
0.1673 0.0066 0.89999998
0.1691 0.0066 0.90100002
0.171 0.0066999998 0.903
0.1726 0.0066999998 0.903
0.1742 0.0066999998 0.903
0.17569999 0.0066999998 0.903
0.1771 0.0066999998 0.90200001
0.17839999 0.0066 0.90100002
0.1798 0.0066 0.89999998
0.18520001 0.0066 0.89600003
0.18700001 0.0066 0.89700001
0.1894 0.0066 0.90100002
0.1912 0.0066999998 0.90200001
-0.39300001 0.0080000004 0.87300003
-0.3752 0.0080000004 0.88099998
-0.37369999 0.0080000004 0.88099998
-0.34740001 0.0081000002 0.884
-0.34580001 0.0081000002 0.884
-0.3443 0.0081000002 0.884
-0.34279999 0.0081000002 0.884
-0.34119999 0.0081000002 0.884
-0.33970001 0.0081000002 0.884
-0.3378 0.0080000004 0.88300002
-0.33320001 0.0081000002 0.88700002
-0.33160001 0.0081000002 0.88700002
-0.3301 0.0081000002 0.88700002
-0.32890001 0.0081000002 0.88800001
-0.3274 0.0081000002 0.88800001
-0.3258 0.0081000002 0.88800001
-0.32390001 0.0081000002 0.88700002
-0.32280001 0.0081000002 0.88800001
-0.32229999 0.0081000002 0.89099997
-0.30599999 0.0081000002 0.884
-0.30450001 0.0081000002 0.884
-0.29170001 0.0081000002 0.88700002
-0.29010001 0.0081000002 0.88700002
-0.2886 0.0081000002 0.88700002
-0.28740001 0.0081000002 0.88800001
-0.28549999 0.0081000002 0.88700002
-0.28400001 0.0081000002 0.88700002
-0.28279999 0.0081000002 0.88800001
-0.28119999 0.0081000002 0.88800001
-0.28060001 0.0081000002 0.89099997
-0.2791 0.0081000002 0.89099997
-0.2775 0.0081000002 0.89099997
-0.27410001 0.0081000002 0.88999999
-0.27039999 0.0081000002 0.88800001
-0.26609999 0.0081000002 0.889
-0.2649 0.0081000002 0.88999999
-0.2633 0.0081000002 0.88999999
-0.26179999 0.0081000002 0.88999999
-0.25999999 0.0081000002 0.889
-0.2581 0.0081000002 0.88800001
-0.2563 0.0081000002 0.88700002
-0.255 0.0081000002 0.88800001
-0.25350001 0.0081000002 0.88800001
-0.252 0.0081000002 0.88800001
-0.25040001 0.0081000002 0.88800001
-0.2476 0.0081000002 0.889
-0.24429999 0.0081000002 0.88800001
-0.2427 0.0081000002 0.88800001
-0.24089999 0.0081000002 0.88700002
-0.23909999 0.0081000002 0.88599998
-0.23729999 0.0081000002 0.88499999
-0.2358 0.0081000002 0.88499999
-0.234 0.0081000002 0.884
-0.2325 0.0081000002 0.884
-0.23119999 0.0081000002 0.88499999
-0.2296 0.0081000002 0.88499999
-0.2279 0.0081000002 0.884
-0.22660001 0.0081000002 0.88499999
-0.22499999 0.0081000002 0.88499999
-0.2238 0.0081000002 0.88599998
-0.22220001 0.0081000002 0.88599998
-0.2207 0.0081000002 0.88599998
-0.2189 0.0081000002 0.88499999
-0.2174 0.0081000002 0.88499999
-0.2158 0.0081000002 0.88499999
-0.2128 0.0081000002 0.88499999
-0.21080001 0.0080000004 0.88300002
-0.20900001 0.0080000004 0.88200003
-0.207 0.0080000004 0.88
-0.20550001 0.0080000004 0.88
-0.20389999 0.0080000004 0.88
-0.2022 0.0080000004 0.87900001
-0.20039999 0.0080000004 0.87800002
-0.1989 0.0080000004 0.87800002
-0.1726 0.0076000001 0.83200002
-0.1708 0.0076000001 0.82999998
-0.16869999 0.0074999998 0.82700002
-0.1671 0.0074999998 0.82599998
-0.1657 0.0074999998 0.82599998
-0.1638 0.0074999998 0.824
-0.1622 0.0074999998 0.82300001
-0.1608 0.0074999998 0.82300001
-0.1596 0.0074999998 0.824
-0.1585 0.0074999998 0.82599998
-0.1573 0.0074999998 0.82700002
-0.15620001 0.0076000001 0.829
-0.155 0.0076000001 0.82999998
-0.15369999 0.0076000001 0.83099997
-0.1524 0.0076000001 0.83200002
-0.15099999 0.0076000001 0.83200002
-0.1496 0.0076000001 0.83200002
-0.1479 0.0076000001 0.83099997
-0.14650001 0.0076000001 0.83099997
-0.1451 0.0076000001 0.83099997
-0.1436 0.0076000001 0.83099997
-0.142 0.0076000001 0.82999998
-0.1407 0.0076000001 0.83099997
-0.1391 0.0076000001 0.82999998
-0.13770001 0.0076000001 0.82999998
-0.1363 0.0076000001 0.82999998
-0.1348 0.0076000001 0.82999998
-0.13339999 0.0076000001 0.82999998
-0.1319 0.0076000001 0.82999998
-0.1305 0.0076000001 0.82999998
-0.12909999 0.0076000001 0.82999998
-0.1276 0.0076000001 0.82999998
-0.12620001 0.0076000001 0.82999998
-0.1249 0.0076000001 0.83099997
-0.1235 0.0076000001 0.83099997
-0.1222 0.0076000001 0.83200002
-0.1207 0.0076000001 0.83200002
-0.1194 0.0076000001 0.833
-0.1181 0.0076000001 0.83399999
-0.1151 0.0076000001 0.833
-0.1137 0.0076000001 0.833
-0.1121 0.0076000001 0.83200002
-0.1106 0.0076000001 0.83200002
-0.1089 0.0076000001 0.82999998
-0.1074 0.0076000001 0.829
-0.1059 0.0076000001 0.829
-0.1045 0.0076000001 0.829
-0.103 0.0076000001 0.829
-0.1016 0.0076000001 0.829
-0.1002 0.0076000001 0.829
-0.098700002 0.0076000001 0.829
-0.095899999 0.0076000001 0.829
-0.094400004 0.0076000001 0.829
-0.093000002 0.0076000001 0.829
-0.091600001 0.0076000001 0.829
-0.090099998 0.0076000001 0.829
-0.088799998 0.0076000001 0.82999998
-0.087300003 0.0076000001 0.82999998
-0.086000003 0.0076000001 0.83099997
-0.0845 0.0076000001 0.82999998
-0.082999997 0.0076000001 0.82999998
-0.081600003 0.0076000001 0.82999998
-0.0801 0.0076000001 0.829
-0.078400001 0.0074999998 0.82700002
-0.077 0.0074999998 0.82700002
-0.075599998 0.0074999998 0.82700002
-0.074199997 0.0074999998 0.82800001
-0.071500003 0.0076000001 0.82999998
-0.059900001 0.0076000001 0.829
-0.055599999 0.0076000001 0.829
-0.054200001 0.0076000001 0.829
-0.0528 0.0076000001 0.829
-0.0513 0.0076000001 0.829
-0.049899999 0.0076000001 0.82999998
-0.048599999 0.0076000001 0.83099997
-0.0471 0.0076000001 0.83099997
-0.045600001 0.0076000001 0.82999998
-0.044199999 0.0076000001 0.82999998
-0.0427 0.0076000001 0.829
-0.041299999 0.0076000001 0.829
-0.039700001 0.0074999998 0.82700002
-0.0383 0.0074999998 0.82700002
-0.036899999 0.0074999998 0.82800001
-0.034200002 0.0076000001 0.833
-0.033 0.0076000001 0.83700001
-0.031599998 0.0076000001 0.83899999
-0.030200001 0.0077 0.84100002
-0.0288 0.0077 0.84200001
-0.0273 0.0077 0.84100002
-0.025800001 0.0077 0.83999997
-0.0243 0.0077 0.83999997
-0.0229 0.0077 0.83999997
-0.021400001 0.0076000001 0.83899999
-0.02 0.0076000001 0.83899999
-0.0185 0.0076000001 0.83899999
-0.017000001 0.0076000001 0.838
-0.0156 0.0076000001 0.838
-0.0141 0.0076000001 0.838
-0.0112 0.0076000001 0.83499998
-0.0041999999 0.0081000002 0.89399999
-0.0027000001 0.0081000002 0.89200002
-0.0011 0.0081000002 0.89099997
0.00039999999 0.0081000002 0.89099997
0.0020000001 0.0081000002 0.89200002
0.0035000001 0.0081000002 0.89300001
0.0051000002 0.0082 0.89499998
0.0066999998 0.0082 0.898
0.0082 0.0082 0.89999998
0.0098000001 0.0082 0.89999998
0.0114 0.0082 0.89999998
0.0129 0.0082 0.89999998
0.0145 0.0082 0.89999998
0.016000001 0.0082 0.89999998
0.0176 0.0082 0.89999998
0.019200001 0.0082 0.89999998
0.0207 0.0082 0.898
0.0221 0.0082 0.89499998
0.023600001 0.0081000002 0.89300001
0.0252 0.0081000002 0.89300001
0.026699999 0.0081000002 0.89099997
0.028200001 0.0081000002 0.889
0.0297 0.0081000002 0.88800001
0.031300001 0.0081000002 0.88999999
0.032900002 0.0081000002 0.89099997
0.034600001 0.0082 0.89499998
0.036200002 0.0082 0.898
0.037999999 0.0082 0.903
0.039700001 0.0082999999 0.90700001
0.056000002 0.0081000002 0.89099997
0.057700001 0.0081000002 0.89300001
0.0592 0.0081000002 0.89300001
0.060800001 0.0081000002 0.89300001
0.062199999 0.0081000002 0.89099997
0.063699998 0.0081000002 0.89099997
0.065300003 0.0081000002 0.89099997
0.066799998 0.0081000002 0.88999999
0.068300001 0.0081000002 0.88999999
0.069700003 0.0081000002 0.88800001
0.0713 0.0081000002 0.889
0.072899997 0.0081000002 0.88999999
0.074500002 0.0081000002 0.88999999
0.076099999 0.0081000002 0.89099997
0.077699997 0.0081000002 0.89200002
0.079400003 0.0081000002 0.89300001
0.081 0.0081000002 0.89399999
0.082699999 0.0082 0.89600003
0.084399998 0.0082 0.89700001
0.086000003 0.0082 0.898
0.087700002 0.0082 0.89899999
0.089299999 0.0082 0.89999998
0.090899996 0.0082 0.89999998
0.092500001 0.0082 0.89999998
0.093999997 0.0082 0.89999998
0.095399998 0.0082 0.898
0.097900003 0.0081000002 0.89300001
0.099600002 0.0081000002 0.89399999
0.101 0.0081000002 0.89300001
0.1025 0.0081000002 0.89200002
0.104 0.0081000002 0.89200002
0.1056 0.0081000002 0.89200002
0.1071 0.0081000002 0.89200002
0.1088 0.0081000002 0.89300001
0.1103 0.0081000002 0.89300001
0.112 0.0081000002 0.89399999
0.1135 0.0081000002 0.89399999
0.115 0.0081000002 0.89300001
0.1165 0.0081000002 0.89300001
0.1181 0.0081000002 0.89300001
0.1193 0.0081000002 0.89099997
0.1209 0.0081000002 0.89099997
0.1223 0.0081000002 0.88999999
0.1252 0.0081000002 0.889
0.1266 0.0081000002 0.88800001
0.12819999 0.0081000002 0.88800001
0.13 0.0081000002 0.88999999
0.1318 0.0081000002 0.89200002
0.13349999 0.0081000002 0.89300001
0.1354 0.0082 0.89499998
0.1371 0.0082 0.89600003
0.1389 0.0082 0.898
0.1407 0.0082 0.89899999
0.14210001 0.0082 0.898
0.1436 0.0082 0.898
0.14480001 0.0082 0.89600003
0.1464 0.0082 0.89600003
0.15109999 0.0082 0.89600003
0.15260001 0.0082 0.89600003
0.1543 0.0082 0.89700001
0.1559 0.0082 0.89700001
0.1574 0.0082 0.89700001
0.15899999 0.0082 0.89700001
0.16060001 0.0082 0.89700001
0.16230001 0.0082 0.898
0.164 0.0082 0.89899999
0.16580001 0.0082 0.89999998
0.1675 0.0082 0.90100002
0.16949999 0.0082 0.903
0.17120001 0.0082 0.90399998
0.17299999 0.0082 0.90499997
0.1745 0.0082 0.90499997
0.1761 0.0082 0.90499997
0.1777 0.0082 0.90499997
0.1788 0.0082 0.903
0.18000001 0.0082 0.90100002
0.185 0.0082 0.89499998
0.1864 0.0081000002 0.89399999
0.18870001 0.0082 0.898
0.19069999 0.0082 0.89999998
-0.4122 0.0094999997 0.87199998
-0.39300001 0.0094999997 0.87300003
-0.391 0.0094999997 0.87199998
-0.37709999 0.0096000005 0.88200003
-0.37560001 0.0096000005 0.88200003
-0.3741 0.0096000005 0.88200003
-0.35080001 0.0096000005 0.88499999
-0.3493 0.0096000005 0.88499999
-0.34740001 0.0096000005 0.884
-0.3443 0.0096000005 0.884
-0.34279999 0.0096000005 0.884
-0.33970001 0.0096000005 0.884
-0.3382 0.0096000005 0.884
-0.3362 0.0096000005 0.88700002
-0.33469999 0.0096000005 0.88700002
-0.3335 0.0096000005 0.88800001
-0.33160001 0.0096000005 0.88700002
-0.33050001 0.0096000005 0.88800001
-0.32890001 0.0096000005 0.88800001
-0.3274 0.0096000005 0.88800001
-0.3258 0.0096000005 0.88800001
-0.32390001 0.0096000005 0.88700002
-0.3224 0.0096000005 0.88700002
-0.32089999 0.0096000005 0.88700002
-0.3193 0.0096000005 0.88700002
-0.3075 0.0096000005 0.884
-0.30559999 0.0096000005 0.88300002
-0.28830001 0.0096000005 0.88599998
-0.28670001 0.0096000005 0.88599998
-0.28549999 0.0096000005 0.88700002
-0.28369999 0.0096000005 0.88599998
-0.28240001 0.0096000005 0.88700002
-0.2809 0.0096000005 0.88700002
-0.28029999 0.0097000003 0.88999999
-0.27880001 0.0097000003 0.88999999
-0.27720001 0.0097000003 0.88999999
-0.2757 0.0097000003 0.88999999
-0.2735 0.0096000005 0.88800001
-0.26859999 0.0096000005 0.88700002
-0.2658 0.0096000005 0.88800001
-0.26429999 0.0096000005 0.88800001
-0.26269999 0.0096000005 0.88800001
-0.26120001 0.0096000005 0.88800001
-0.2597 0.0096000005 0.88800001
-0.2581 0.0096000005 0.88800001
-0.25659999 0.0096000005 0.88800001
-0.255 0.0096000005 0.88800001
-0.2538 0.0096000005 0.889
-0.25229999 0.0096000005 0.889
-0.2492 0.0096000005 0.889
-0.2458 0.0096000005 0.88800001
-0.24429999 0.0096000005 0.88800001
-0.24250001 0.0096000005 0.88700002
-0.24089999 0.0096000005 0.88700002
-0.23909999 0.0096000005 0.88599998
-0.23729999 0.0096000005 0.88499999
-0.2342 0.0096000005 0.88499999
-0.23270001 0.0096000005 0.88499999
-0.2314 0.0096000005 0.88599998
-0.23019999 0.0096000005 0.88700002
-0.22679999 0.0096000005 0.88599998
-0.2253 0.0096000005 0.88599998
-0.2225 0.0096000005 0.88700002
-0.2207 0.0096000005 0.88599998
-0.2192 0.0096000005 0.88599998
-0.2174 0.0096000005 0.88499999
-0.2158 0.0096000005 0.88499999
-0.2128 0.0096000005 0.88499999
-0.211 0.0096000005 0.884
-0.20900001 0.0096000005 0.88200003
-0.20720001 0.0096000005 0.88099998
-0.2057 0.0096000005 0.88099998
-0.2044 0.0096000005 0.88200003
-0.20290001 0.0096000005 0.88200003
-0.20110001 0.0096000005 0.88099998
-0.17219999 0.0089999996 0.82999998
-0.1708 0.0089999996 0.82999998
-0.1689 0.0089999996 0.82800001
-0.1673 0.0089999996 0.82700002
-0.1655 0.0088999998 0.82499999
-0.1636 0.0088999998 0.82300001
-0.1618 0.0088999998 0.82099998
-0.16060001 0.0088999998 0.82200003
-0.1592 0.0088999998 0.82200003
-0.15809999 0.0088999998 0.824
-0.156 0.0089999996 0.82800001
-0.155 0.0089999996 0.82999998
-0.1524 0.0089999996 0.83200002
-0.15099999 0.0089999996 0.83200002
-0.1496 0.0089999996 0.83200002
-0.1481 0.0089999996 0.83200002
-0.14650001 0.0089999996 0.83099997
-0.1451 0.0089999996 0.83099997
-0.1435 0.0089999996 0.82999998
-0.142 0.0089999996 0.82999998
-0.1407 0.0089999996 0.83099997
-0.1391 0.0089999996 0.82999998
-0.13789999 0.0089999996 0.83099997
-0.1364 0.0089999996 0.83099997
-0.13500001 0.0089999996 0.83099997
-0.13349999 0.0089999996 0.83099997
-0.1321 0.0089999996 0.83099997
-0.13070001 0.0089999996 0.83099997
-0.1292 0.0089999996 0.83099997
-0.1278 0.0089999996 0.83099997
-0.12630001 0.0089999996 0.83099997
-0.1251 0.0089999996 0.83200002
-0.1236 0.0089999996 0.83200002
-0.1223 0.0089999996 0.833
-0.1209 0.0089999996 0.833
-0.1196 0.0089999996 0.83399999
-0.1181 0.0089999996 0.83399999
-0.1167 0.0089999996 0.83399999
-0.1137 0.0089999996 0.833
-0.1121 0.0089999996 0.83200002
-0.1105 0.0089999996 0.83099997
-0.1089 0.0089999996 0.82999998
-0.1074 0.0089999996 0.829
-0.1059 0.0089999996 0.829
-0.1045 0.0089999996 0.829
-0.1029 0.0089999996 0.82800001
-0.1016 0.0089999996 0.829
-0.1002 0.0089999996 0.829
-0.0973 0.0089999996 0.829
-0.095899999 0.0089999996 0.829
-0.094400004 0.0089999996 0.829
-0.093000002 0.0089999996 0.829
-0.091600001 0.0089999996 0.829
-0.090099998 0.0089999996 0.829
-0.088799998 0.0089999996 0.82999998
-0.087300003 0.0089999996 0.82999998
-0.086000003 0.0089999996 0.83099997
-0.0845 0.0089999996 0.82999998
-0.082900003 0.0089999996 0.829
-0.0814 0.0089999996 0.82800001
-0.079800002 0.0089999996 0.82599998
-0.078199998 0.0088999998 0.82499999
-0.076700002 0.0088999998 0.824
-0.075400002 0.0088999998 0.82499999
-0.074000001 0.0089999996 0.82599998
-0.072899997 0.0089999996 0.829
-0.071599998 0.0089999996 0.83099997
-0.0557 0.0089999996 0.82999998
-0.054299999 0.0089999996 0.82999998
-0.0528 0.0089999996 0.82999998
-0.051399998 0.0089999996 0.82999998
-0.049899999 0.0089999996 0.82999998
-0.048500001 0.0089999996 0.82999998
-0.0471 0.0089999996 0.83099997
-0.045600001 0.0089999996 0.82999998
-0.044199999 0.0089999996 0.82999998
-0.042800002 0.0089999996 0.82999998
-0.041299999 0.0089999996 0.829
-0.039799999 0.0089999996 0.82800001
-0.037 0.0089999996 0.82999998
-0.035599999 0.0089999996 0.83200002
-0.034299999 0.0089999996 0.83399999
-0.033 0.0091000004 0.83700001
-0.031599998 0.0091000004 0.83999997
-0.030200001 0.0091000004 0.84100002
-0.0288 0.0091000004 0.84299999
-0.0273 0.0091000004 0.84200001
-0.025800001 0.0091000004 0.84100002
-0.0243 0.0091000004 0.83999997
-0.0229 0.0091000004 0.83999997
-0.021400001 0.0091000004 0.83899999
-0.02 0.0091000004 0.83899999
-0.0185 0.0091000004 0.838
-0.017000001 0.0091000004 0.838
-0.0156 0.0091000004 0.83700001
-0.0141 0.0091000004 0.83700001
-0.0126 0.0091000004 0.83499998
-0.0041999999 0.0097000003 0.89600003
-0.0027000001 0.0097000003 0.89499998
-0.0011 0.0097000003 0.89300001
0.00039999999 0.0097000003 0.89300001
0.0020000001 0.0097000003 0.89399999
0.0035000001 0.0097000003 0.89499998
0.0051000002 0.0097000003 0.89700001
0.0066999998 0.0097000003 0.89899999
0.0082 0.0098000001 0.89999998
0.0098000001 0.0098000001 0.89999998
0.0113 0.0097000003 0.89899999
0.0129 0.0098000001 0.89999998
0.0145 0.0097000003 0.89899999
0.016000001 0.0097000003 0.89899999
0.0176 0.0097000003 0.898
0.019099999 0.0097000003 0.898
0.0206 0.0097000003 0.89499998
0.0221 0.0097000003 0.89300001
0.023600001 0.0097000003 0.89099997
0.0251 0.0097000003 0.89099997
0.0266 0.0097000003 0.88999999
0.028200001 0.0096000005 0.889
0.0297 0.0096000005 0.88800001
0.031300001 0.0097000003 0.89099997
0.033 0.0097000003 0.89499998
0.034699999 0.0098000001 0.89999998
0.036400001 0.0098000001 0.903
0.038199998 0.0098000001 0.90700001
0.039799999 0.0098000001 0.90799999
0.0414 0.0098000001 0.90799999
0.0429 0.0098000001 0.90700001
0.054499999 0.0097000003 0.89099997
0.056000002 0.0097000003 0.89099997
0.057599999 0.0097000003 0.89200002
0.0592 0.0097000003 0.89300001
0.060800001 0.0097000003 0.89300001
0.0623 0.0097000003 0.89300001
0.0638 0.0097000003 0.89200002
0.065300003 0.0097000003 0.89099997
0.066799998 0.0097000003 0.89099997
0.068300001 0.0097000003 0.88999999
0.069799997 0.0097000003 0.88999999
0.071400002 0.0097000003 0.88999999
0.072999999 0.0097000003 0.89099997
0.074600004 0.0097000003 0.89099997
0.076200001 0.0097000003 0.89200002
0.077699997 0.0097000003 0.89200002
0.0792 0.0097000003 0.89099997
0.080799997 0.0097000003 0.89200002
0.082500003 0.0097000003 0.89300001
0.084200002 0.0097000003 0.89499998
0.0858 0.0097000003 0.89600003
0.089199997 0.0097000003 0.89899999
0.090899996 0.0098000001 0.89999998
0.092500001 0.0098000001 0.89999998
0.093999997 0.0098000001 0.89999998
0.095399998 0.0097000003 0.898
0.096600004 0.0097000003 0.89499998
0.097900003 0.0097000003 0.89300001
0.099699996 0.0097000003 0.89499998
0.1013 0.0097000003 0.89499998
0.1026 0.0097000003 0.89300001
0.1041 0.0097000003 0.89300001
0.1058 0.0097000003 0.89399999
0.1073 0.0097000003 0.89399999
0.109 0.0097000003 0.89499998
0.1106 0.0097000003 0.89499998
0.1121 0.0097000003 0.89499998
0.1137 0.0097000003 0.89499998
0.1151 0.0097000003 0.89399999
0.1166 0.0097000003 0.89399999
0.1181 0.0097000003 0.89300001
0.1193 0.0097000003 0.89099997
0.1207 0.0097000003 0.88999999
0.1223 0.0097000003 0.88999999
0.1238 0.0097000003 0.88999999
0.12540001 0.0097000003 0.88999999
0.1269 0.0097000003 0.88999999
0.1285 0.0097000003 0.88999999
0.1301 0.0097000003 0.89099997
0.132 0.0097000003 0.89300001
0.1337 0.0097000003 0.89399999
0.1354 0.0097000003 0.89499998
0.1372 0.0097000003 0.89700001
0.1389 0.0097000003 0.898
0.1408 0.0098000001 0.89999998
0.1424 0.0098000001 0.89999998
0.1436 0.0097000003 0.898
0.1452 0.0097000003 0.898
0.14659999 0.0097000003 0.89700001
0.15260001 0.0097000003 0.89600003
0.1542 0.0097000003 0.89600003
0.1557 0.0097000003 0.89600003
0.1574 0.0097000003 0.89700001
0.1592 0.0097000003 0.898
0.16069999 0.0097000003 0.898
0.1627 0.0098000001 0.89999998
0.16419999 0.0098000001 0.89999998
0.16580001 0.0098000001 0.89999998
0.16769999 0.0098000001 0.90200001
0.1696 0.0098000001 0.90399998
0.1714 0.0098000001 0.90499997
0.1732 0.0098000001 0.90600002
0.17470001 0.0098000001 0.90600002
0.1763 0.0098000001 0.90600002
0.1779 0.0098000001 0.90600002
0.17900001 0.0098000001 0.90399998
0.1814 0.0098000001 0.89999998
0.1837 0.0097000003 0.89600003
0.1848 0.0097000003 0.89399999
0.1859 0.0097000003 0.89200002
0.1881 0.0097000003 0.89499998
0.1901 0.0097000003 0.89700001
-0.4156 0.011 0.87599999
-0.39300001 0.011 0.87300003
-0.391 0.011 0.87199998
-0.38240001 0.011 0.87300003
-0.3752 0.0111 0.88099998
-0.3741 0.0111 0.88200003
-0.366 0.0111 0.88099998
-0.36449999 0.0111 0.88099998
-0.35229999 0.0111 0.88099998
-0.34889999 0.0111 0.884
-0.347 0.0111 0.88300002
-0.34279999 0.0111 0.884
-0.3335 0.0112 0.88800001
-0.33160001 0.0112 0.88700002
-0.3301 0.0112 0.88700002
-0.32890001 0.0112 0.88800001
-0.3274 0.0112 0.88800001
-0.32550001 0.0112 0.88700002
-0.32359999 0.0111 0.88599998
-0.32170001 0.0111 0.88499999
-0.32010001 0.0111 0.88499999
-0.31819999 0.0111 0.884
-0.31670001 0.0111 0.884
-0.2852 0.0111 0.88599998
-0.28369999 0.0111 0.88599998
-0.28029999 0.0112 0.88999999
-0.27880001 0.0112 0.88999999
-0.26429999 0.0112 0.88800001
-0.26300001 0.0112 0.889
-0.26120001 0.0112 0.88800001
-0.2597 0.0112 0.88800001
-0.2581 0.0112 0.88800001
-0.25659999 0.0112 0.88800001
-0.25529999 0.0112 0.889
-0.2538 0.0112 0.889
-0.25099999 0.0112 0.88999999
-0.2492 0.0112 0.889
-0.2476 0.0112 0.889
-0.2458 0.0112 0.88800001
-0.24429999 0.0112 0.88800001
-0.24250001 0.0112 0.88700002
-0.24089999 0.0112 0.88700002
-0.23909999 0.0111 0.88599998
