# .PCD v0.7 - Point Cloud Data file format
VERSION 0.7
FIELDS x y z
SIZE 4 4 4
TYPE F F F
COUNT 1 1 1
WIDTH 1513
HEIGHT 1
VIEWPOINT 0 0 0 1 0 0 0
POINTS 1513
DATA ascii
-0.1727 -0.040600002 0.87599999
-0.17039999 -0.040399998 0.87199998
-0.15549999 -0.038600001 0.833
-0.15350001 -0.0385 0.82999998
-0.1517 -0.038400002 0.82800001
-0.15009999 -0.0383 0.82700002
-0.1487 -0.0383 0.82700002
-0.1472 -0.0383 0.82700002
-0.14579999 -0.0383 0.82700002
-0.1444 -0.0383 0.82700002
-0.1433 -0.038400002 0.829
-0.142 -0.0385 0.82999998
-0.1406 -0.0385 0.82999998
-0.1388 -0.038400002 0.82800001
-0.1372 -0.0383 0.82700002
-0.1358 -0.0383 0.82700002
-0.13429999 -0.0383 0.82700002
-0.1329 -0.0383 0.82700002
-0.1311 -0.038199998 0.82499999
-0.12970001 -0.038199998 0.82499999
-0.1286 -0.0383 0.82700002
-0.12720001 -0.0383 0.82700002
-0.1257 -0.0383 0.82700002
-0.1244 -0.038400002 0.82800001
-0.1229 -0.0383 0.82700002
-0.1214 -0.0383 0.82700002
-0.1197 -0.038199998 0.82499999
-0.118 -0.0381 0.82300001
-0.1161 -0.037999999 0.81999999
-0.1144 -0.037900001 0.81800002
-0.1127 -0.037799999 0.81599998
-0.1111 -0.037700001 0.81400001
-0.1096 -0.037700001 0.81400001
-0.1082 -0.037700001 0.81400001
-0.1054 -0.037700001 0.81400001
-0.1041 -0.037799999 0.815
-0.1018 -0.037999999 0.81900001
-0.1005 -0.037999999 0.81999999
-0.099399999 -0.0381 0.82300001
-0.098300003 -0.038199998 0.82499999
-0.096900001 -0.0383 0.82599998
-0.095600002 -0.0383 0.82700002
-0.0942 -0.0383 0.82700002
-0.092799999 -0.0383 0.82700002
-0.091300003 -0.0383 0.82700002
-0.0898 -0.0383 0.82599998
-0.088299997 -0.038199998 0.82499999
-0.086800002 -0.038199998 0.82499999
-0.0854 -0.038199998 0.82499999
-0.084100001 -0.0383 0.82599998
-0.082699999 -0.0383 0.82700002
-0.081500001 -0.038400002 0.829
-0.080200002 -0.0385 0.82999998
-0.060199998 -0.038600001 0.83200002
-0.058899999 -0.038699999 0.83399999
-0.057399999 -0.038699999 0.83399999
-0.056000002 -0.038699999 0.83399999
-0.055300001 -0.0403 0.86900002
-0.054000001 -0.040399998 0.87199998
-0.052700002 -0.040600002 0.87599999
-0.0515 -0.040800001 0.88099998
-0.0502 -0.041099999 0.88599998
-0.048999999 -0.041299999 0.89200002
-0.046399999 -0.0418 0.90100002
-0.043200001 -0.041700002 0.89899999
-0.041499998 -0.0416 0.89700001
-0.039900001 -0.041499998 0.89499998
-0.0383 -0.0414 0.89300001
-0.036600001 -0.041299999 0.89099997
-0.035 -0.041200001 0.88999999
-0.033500001 -0.041200001 0.88999999
-0.032000002 -0.041200001 0.88999999
-0.030400001 -0.041200001 0.889
-0.0288 -0.041200001 0.88800001
-0.0273 -0.041200001 0.88800001
-0.025699999 -0.041200001 0.88800001
-0.0242 -0.041200001 0.88800001
-0.022600001 -0.041099999 0.88700002
-0.0211 -0.041099999 0.88700002
-0.0196 -0.041099999 0.88700002
-0.017999999 -0.041200001 0.88800001
-0.0165 -0.041200001 0.88999999
-0.015 -0.041299999 0.89099997
-0.0135 -0.041299999 0.89099997
-0.0119 -0.041299999 0.89200002
-0.0104 -0.0414 0.89300001
-0.0088999998 -0.0414 0.89300001
-0.0073000002 -0.041299999 0.89200002
-0.0057000001 -0.041299999 0.89099997
-0.0041999999 -0.041299999 0.89099997
-0.0027000001 -0.041299999 0.89200002
-0.0011 -0.0414 0.89399999
0.00039999999 -0.041499998 0.89600003
0.0020000001 -0.0416 0.898
0.0035000001 -0.0416 0.898
0.0051000002 -0.0416 0.898
0.0066 -0.0416 0.89700001
0.0082 -0.041499998 0.89600003
0.0097000003 -0.041499998 0.89499998
0.0113 -0.0414 0.89399999
0.0128 -0.0414 0.89300001
0.0144 -0.0414 0.89300001
0.015900001 -0.0414 0.89300001
0.0175 -0.0414 0.89399999
0.018999999 -0.041499998 0.89499998
0.020500001 -0.0414 0.89300001
0.0221 -0.041299999 0.89200002
0.023600001 -0.041299999 0.89099997
0.0251 -0.041200001 0.88999999
0.0266 -0.041200001 0.88999999
0.028200001 -0.041200001 0.88999999
0.0297 -0.041200001 0.88999999
0.031300001 -0.041299999 0.89099997
0.032900002 -0.041299999 0.89099997
0.034400001 -0.041299999 0.89200002
0.035999998 -0.0414 0.89300001
0.037599999 -0.0414 0.89300001
0.0392 -0.0414 0.89399999
0.0407 -0.0414 0.89399999
0.042300001 -0.041499998 0.89499998
0.043900002 -0.041499998 0.89499998
0.045400001 -0.041499998 0.89499998
0.0469 -0.0414 0.89399999
0.048500001 -0.0414 0.89399999
0.050000001 -0.0414 0.89399999
0.0515 -0.0414 0.89300001
0.053100001 -0.0414 0.89300001
0.0546 -0.0414 0.89300001
0.0561 -0.041299999 0.89200002
0.057599999 -0.041299999 0.89200002
0.0592 -0.041299999 0.89200002
0.060699999 -0.041299999 0.89099997
0.0623 -0.041299999 0.89200002
0.063900001 -0.0414 0.89300001
0.0656 -0.041499998 0.89499998
0.067199998 -0.041499998 0.89600003
0.068800002 -0.041499998 0.89600003
0.070299998 -0.041499998 0.89600003
0.071800001 -0.041499998 0.89499998
0.073299997 -0.0414 0.89399999
0.074699998 -0.0414 0.89300001
0.076399997 -0.0414 0.89399999
0.0779 -0.0414 0.89399999
0.079300001 -0.041299999 0.89200002
0.080899999 -0.0414 0.89300001
0.082500003 -0.0414 0.89300001
0.083999999 -0.0414 0.89300001
0.085600004 -0.0414 0.89300001
0.087099999 -0.0414 0.89300001
0.088699996 -0.0414 0.89399999
0.090499997 -0.041499998 0.89600003
0.092100002 -0.041499998 0.89600003
0.093699999 -0.0416 0.89700001
0.095299996 -0.0416 0.89700001
0.098300003 -0.041499998 0.89600003
0.099699996 -0.041499998 0.89499998
0.1011 -0.0414 0.89399999
0.1026 -0.0414 0.89300001
0.1041 -0.0414 0.89300001
0.1057 -0.0414 0.89300001
0.1072 -0.0414 0.89300001
0.1088 -0.0414 0.89300001
0.1103 -0.0414 0.89300001
0.1119 -0.0414 0.89300001
0.1133 -0.041299999 0.89200002
0.1148 -0.041299999 0.89200002
0.1162 -0.041299999 0.89099997
0.1178 -0.041299999 0.89099997
0.1193 -0.041299999 0.89099997
0.1209 -0.041299999 0.89099997
0.1224 -0.041299999 0.89099997
0.124 -0.041299999 0.89099997
0.12549999 -0.041299999 0.89099997
0.12710001 -0.041299999 0.89099997
0.1286 -0.041299999 0.89099997
0.1301 -0.041299999 0.89099997
0.132 -0.0414 0.89300001
0.13349999 -0.0414 0.89300001
0.13510001 -0.0414 0.89300001
0.1366 -0.0414 0.89300001
0.138 -0.041299999 0.89200002
0.13940001 -0.041299999 0.89099997
0.1408 -0.041200001 0.88999999
0.142 -0.041200001 0.88800001
0.1434 -0.041099999 0.88700002
0.14489999 -0.041099999 0.88700002
0.14820001 -0.041200001 0.88800001
0.1499 -0.041200001 0.889
0.1516 -0.041200001 0.88999999
0.1533 -0.041299999 0.89099997
0.155 -0.041299999 0.89200002
0.1567 -0.0414 0.89300001
0.1583 -0.0414 0.89300001
0.15970001 -0.041299999 0.89200002
0.161 -0.041299999 0.89099997
0.1626 -0.041299999 0.89099997
0.16410001 -0.041299999 0.89099997
0.1657 -0.041299999 0.89099997
0.1672 -0.041299999 0.89099997
0.16869999 -0.041299999 0.89099997
0.1726 -0.041499998 0.89499998
0.1745 -0.0416 0.89700001
0.17649999 -0.041700002 0.89899999
0.17839999 -0.0418 0.90100002
0.1804 -0.041900001 0.903
0.1824 -0.041900001 0.90499997
0.18440001 -0.041999999 0.90700001
0.1865 -0.042199999 0.91000003
0.1885 -0.042300001 0.912
0.18970001 -0.042199999 0.91000003
-0.3858 -0.038699999 0.86699998
-0.38510001 -0.038800001 0.86900002
-0.38409999 -0.038800001 0.87
-0.38170001 -0.038699999 0.86799997
-0.3802 -0.038699999 0.86799997
-0.35319999 -0.038899999 0.87199998
-0.35170001 -0.038899999 0.87199998
-0.34580001 -0.039299998 0.88
-0.345 -0.0394 0.88200003
-0.34349999 -0.0394 0.88200003
-0.33700001 -0.039299998 0.88099998
-0.33469999 -0.0392 0.87900001
-0.24089999 -0.0396 0.88700002
-0.2291 -0.0394 0.88300002
-0.2279 -0.0394 0.884
-0.22660001 -0.039500002 0.88499999
-0.22480001 -0.0394 0.884
-0.2233 -0.0394 0.884
-0.2217 -0.0394 0.884
-0.2202 -0.0394 0.884
-0.21709999 -0.0394 0.884
-0.2158 -0.039500002 0.88499999
-0.2146 -0.039500002 0.88599998
-0.2128 -0.039500002 0.88499999
-0.2112 -0.039500002 0.88499999
-0.2077 -0.0394 0.88300002
-0.2059 -0.0394 0.88200003
-0.2042 -0.039299998 0.88099998
-0.2022 -0.0392 0.87900001
-0.20039999 -0.0392 0.87800002
-0.19850001 -0.039099999 0.87599999
-0.19670001 -0.039000001 0.875
-0.1952 -0.039000001 0.875
-0.1944 -0.0392 0.87800002
-0.1935 -0.039299998 0.88099998
-0.19149999 -0.039500002 0.88599998
-0.19 -0.039500002 0.88599998
-0.1882 -0.039500002 0.88499999
-0.1867 -0.039500002 0.88499999
-0.18520001 -0.039500002 0.88499999
-0.18359999 -0.039500002 0.88499999
-0.18189999 -0.0394 0.884
-0.1802 -0.0394 0.88300002
-0.17820001 -0.039299998 0.88099998
-0.1763 -0.0392 0.87900001
-0.1742 -0.039099999 0.87599999
-0.17209999 -0.038899999 0.87300003
-0.1698 -0.038800001 0.86900002
-0.15549999 -0.0372 0.833
-0.15350001 -0.037 0.82999998
-0.15189999 -0.037 0.829
-0.1503 -0.036899999 0.82800001
-0.1488 -0.036899999 0.82800001
-0.14740001 -0.036899999 0.82800001
-0.146 -0.036899999 0.82800001
-0.1444 -0.036899999 0.82700002
-0.14309999 -0.036899999 0.82800001
-0.1418 -0.037 0.829
-0.1401 -0.036899999 0.82700002
-0.13860001 -0.036899999 0.82700002
-0.13699999 -0.036899999 0.82599998
-0.1356 -0.036899999 0.82599998
-0.13420001 -0.036899999 0.82599998
-0.1327 -0.036899999 0.82599998
-0.131 -0.036800001 0.824
-0.1296 -0.036800001 0.824
-0.1286 -0.036899999 0.82700002
-0.1275 -0.037 0.829
-0.1259 -0.036899999 0.82800001
-0.1246 -0.037 0.829
-0.1232 -0.037 0.829
-0.1217 -0.037 0.829
-0.12 -0.036899999 0.82700002
-0.1183 -0.036800001 0.82499999
-0.1167 -0.036800001 0.824
-0.1149 -0.036600001 0.82099998
-0.113 -0.036499999 0.81800002
-0.1113 -0.036400001 0.81599998
-0.1098 -0.036400001 0.815
-0.1084 -0.036400001 0.815
-0.1057 -0.036400001 0.81599998
-0.1044 -0.036499999 0.81699997
-0.1031 -0.036499999 0.81800002
-0.1019 -0.036600001 0.81999999
-0.099600002 -0.036800001 0.824
-0.098099999 -0.036800001 0.824
-0.096799999 -0.036800001 0.82499999
-0.0955 -0.036899999 0.82599998
-0.0942 -0.036899999 0.82700002
-0.092799999 -0.036899999 0.82700002
-0.091300003 -0.036899999 0.82700002
-0.0898 -0.036899999 0.82599998
-0.088399999 -0.036899999 0.82599998
-0.086800002 -0.036800001 0.82499999
-0.0854 -0.036800001 0.82499999
-0.083999999 -0.036800001 0.82499999
-0.082599998 -0.036899999 0.82599998
-0.081200004 -0.036899999 0.82599998
-0.073200002 -0.0372 0.833
-0.071900003 -0.0372 0.83399999
-0.058800001 -0.0372 0.833
-0.057300001 -0.0372 0.833
-0.054400001 -0.037099998 0.83200002
-0.052999999 -0.0372 0.833
-0.0517 -0.037300002 0.83499998
-0.051800001 -0.038400002 0.861
-0.0506 -0.038600001 0.866
-0.049600001 -0.039000001 0.87400001
-0.048799999 -0.0396 0.88700002
-0.047699999 -0.039999999 0.89600003
-0.046300001 -0.040100001 0.898
-0.0447 -0.040100001 0.898
-0.043099999 -0.039999999 0.89700001
-0.041499998 -0.039900001 0.89499998
-0.039799999 -0.039799999 0.89300001
-0.038199998 -0.039799999 0.89099997
-0.036600001 -0.039700001 0.88999999
-0.035 -0.039700001 0.88999999
-0.033500001 -0.039700001 0.88999999
-0.032000002 -0.039700001 0.88999999
-0.030400001 -0.039700001 0.88999999
-0.028899999 -0.039700001 0.88999999
-0.0273 -0.039700001 0.88999999
-0.025800001 -0.039700001 0.88999999
-0.0243 -0.039700001 0.88999999
-0.022700001 -0.0396 0.88800001
-0.0211 -0.0396 0.88800001
-0.0196 -0.0396 0.88800001
-0.018100001 -0.039700001 0.889
-0.0165 -0.039700001 0.88999999
-0.015 -0.039799999 0.89200002
-0.0135 -0.039799999 0.89300001
-0.012 -0.039799999 0.89300001
-0.0104 -0.039799999 0.89300001
-0.0088999998 -0.039799999 0.89300001
-0.0073000002 -0.039799999 0.89300001
-0.0057999999 -0.039799999 0.89300001
-0.0041999999 -0.039799999 0.89200002
-0.0027000001 -0.039799999 0.89300001
-0.0011 -0.039900001 0.89399999
0.00039999999 -0.039999999 0.89700001
0.0020000001 -0.040100001 0.89899999
0.0035000001 -0.040100001 0.898
0.0051000002 -0.040100001 0.898
0.0066 -0.039999999 0.89700001
0.0082 -0.039999999 0.89700001
0.0097000003 -0.039999999 0.89600003
0.0113 -0.039900001 0.89499998
0.0128 -0.039900001 0.89499998
0.0144 -0.039900001 0.89499998
0.015900001 -0.039900001 0.89499998
0.0175 -0.039900001 0.89499998
0.018999999 -0.039900001 0.89499998
0.020500001 -0.039799999 0.89300001
0.0221 -0.039799999 0.89200002
0.023600001 -0.039799999 0.89099997
0.0251 -0.039700001 0.88999999
0.0266 -0.039700001 0.88999999
0.028200001 -0.039700001 0.889
0.0297 -0.039700001 0.88999999
0.031300001 -0.039700001 0.88999999
0.032900002 -0.039799999 0.89099997
0.034400001 -0.039799999 0.89200002
0.035999998 -0.039799999 0.89300001
0.037599999 -0.039900001 0.89399999
0.0392 -0.039900001 0.89499998
0.040800001 -0.039999999 0.89600003
0.042399999 -0.039999999 0.89600003
0.043900002 -0.039999999 0.89600003
0.045499999 -0.039999999 0.89600003
0.046999998 -0.039900001 0.89499998
0.048500001 -0.039900001 0.89499998
0.050099999 -0.039900001 0.89499998
0.051600002 -0.039900001 0.89399999
0.053100001 -0.039799999 0.89300001
0.0546 -0.039799999 0.89300001
0.0561 -0.039799999 0.89200002
0.057599999 -0.039799999 0.89200002
0.0592 -0.039799999 0.89300001
0.060699999 -0.039799999 0.89200002
0.062199999 -0.039799999 0.89099997
0.0638 -0.039799999 0.89200002
0.065499999 -0.039900001 0.89399999
0.067100003 -0.039900001 0.89499998
0.068700001 -0.039900001 0.89499998
0.070200004 -0.039900001 0.89399999
0.071599998 -0.039799999 0.89300001
0.073200002 -0.039799999 0.89300001
0.074600004 -0.039799999 0.89200002
0.076200001 -0.039799999 0.89200002
0.077799998 -0.039799999 0.89300001
0.0792 -0.039799999 0.89099997
0.080799997 -0.039799999 0.89200002
0.082500003 -0.039799999 0.89300001
0.083899997 -0.039799999 0.89200002
0.085500002 -0.039799999 0.89200002
0.086999997 -0.039799999 0.89200002
0.088600002 -0.039799999 0.89300001
0.090300001 -0.039900001 0.89399999
0.091899998 -0.039900001 0.89499998
0.093599997 -0.039999999 0.89600003
0.095200002 -0.039999999 0.89600003
0.098300003 -0.039999999 0.89600003
0.099799998 -0.039999999 0.89600003
0.1013 -0.039900001 0.89499998
0.1027 -0.039900001 0.89399999
0.1042 -0.039900001 0.89399999
0.1059 -0.039900001 0.89499998
0.1073 -0.039900001 0.89399999
0.1088 -0.039799999 0.89300001
0.1103 -0.039799999 0.89300001
0.1119 -0.039799999 0.89300001
0.1148 -0.039799999 0.89200002
0.1162 -0.039799999 0.89099997
0.1178 -0.039799999 0.89099997
0.1193 -0.039799999 0.89099997
0.1209 -0.039799999 0.89099997
0.1224 -0.039799999 0.89099997
0.1238 -0.039700001 0.88999999
0.12540001 -0.039700001 0.88999999
0.1269 -0.039700001 0.88999999
0.1285 -0.039700001 0.88999999
0.1301 -0.039799999 0.89099997
0.1318 -0.039799999 0.89200002
0.13339999 -0.039799999 0.89200002
0.13510001 -0.039799999 0.89300001
0.1366 -0.039799999 0.89300001
0.1382 -0.039799999 0.89300001
0.13940001 -0.039799999 0.89099997
0.141 -0.039799999 0.89099997
0.14219999 -0.039700001 0.889
0.1436 -0.0396 0.88800001
0.14659999 -0.0396 0.88800001
0.14820001 -0.0396 0.88800001
0.1499 -0.039700001 0.889
0.1514 -0.039700001 0.889
0.1533 -0.039799999 0.89099997
0.1552 -0.039799999 0.89300001
0.1567 -0.039799999 0.89300001
0.1583 -0.039799999 0.89300001
0.15970001 -0.039799999 0.89200002
0.1612 -0.039799999 0.89200002
0.1628 -0.039799999 0.89200002
0.16410001 -0.039799999 0.89099997
0.1672 -0.039799999 0.89099997
0.16869999 -0.039799999 0.89099997
0.1707 -0.039799999 0.89300001
0.1728 -0.039999999 0.89600003
0.17470001 -0.040100001 0.898
0.17649999 -0.040100001 0.89899999
0.17839999 -0.040199999 0.90100002
0.1802 -0.040199999 0.90200001
0.1822 -0.0403 0.90399998
0.1842 -0.040399998 0.90600002
0.1859 -0.0405 0.90700001
0.1877 -0.0405 0.90799999
0.1891 -0.0405 0.90700001
0.1902 -0.040399998 0.90499997
0.1909 -0.040199999 0.90100002
-0.40580001 -0.0372 0.86799997
-0.40470001 -0.037300002 0.86900002
-0.38170001 -0.0372 0.86799997
-0.3802 -0.0372 0.86799997
-0.37799999 -0.037300002 0.87
-0.377 -0.037300002 0.87099999
-0.345 -0.037700001 0.87800002
-0.3443 -0.037700001 0.88
-0.3405 -0.037799999 0.88200003
-0.33849999 -0.037799999 0.88099998
-0.33660001 -0.037700001 0.88
-0.33469999 -0.037700001 0.87900001
-0.3175 -0.037799999 0.88200003
-0.2412 -0.0381 0.88800001
-0.23270001 -0.037999999 0.88499999
-0.2291 -0.037900001 0.88300002
-0.2263 -0.037900001 0.884
-0.22480001 -0.037900001 0.884
-0.2233 -0.037900001 0.884
-0.21870001 -0.037900001 0.884
-0.2156 -0.037900001 0.884
-0.21430001 -0.037999999 0.88499999
-0.21250001 -0.037900001 0.884
-0.211 -0.037900001 0.884
-0.2057 -0.037799999 0.88099998
-0.20370001 -0.037700001 0.87900001
-0.2015 -0.037599999 0.87599999
-0.1998 -0.037500001 0.875
-0.1982 -0.037500001 0.875
-0.1965 -0.037500001 0.87400001
-0.1952 -0.037500001 0.875
-0.1917 -0.037999999 0.88700002
-0.18870001 -0.037999999 0.88700002
-0.18709999 -0.037999999 0.88700002
-0.18520001 -0.037999999 0.88499999
-0.18359999 -0.037999999 0.88499999
-0.18189999 -0.037900001 0.884
-0.18000001 -0.037799999 0.88200003
-0.1778 -0.037700001 0.87900001
-0.17569999 -0.037599999 0.87599999
-0.1736 -0.0374 0.87300003
-0.1715 -0.037300002 0.87
-0.1696 -0.0372 0.86799997
-0.16769999 -0.037099998 0.866
-0.1652 -0.036899999 0.861
-0.1557 -0.035799999 0.83399999
-0.15350001 -0.035599999 0.82999998
-0.15189999 -0.035500001 0.829
-0.1505 -0.035500001 0.829
-0.1488 -0.035500001 0.82800001
-0.1472 -0.035500001 0.82700002
-0.14579999 -0.035500001 0.82700002
-0.1442 -0.035399999 0.82599998
-0.1428 -0.035399999 0.82599998
-0.14129999 -0.035399999 0.82599998
-0.1397 -0.035399999 0.82499999
-0.1383 -0.035399999 0.82499999
-0.13689999 -0.035399999 0.82499999
-0.1356 -0.035399999 0.82599998
-0.13420001 -0.035399999 0.82599998
-0.1327 -0.035399999 0.82599998
-0.131 -0.035300002 0.824
-0.1296 -0.035300002 0.824
-0.1283 -0.035399999 0.82499999
-0.127 -0.035399999 0.82599998
-0.1257 -0.035500001 0.82700002
-0.1246 -0.035500001 0.829
-0.1232 -0.035500001 0.829
-0.1216 -0.035500001 0.82800001
-0.12 -0.035500001 0.82700002
-0.1186 -0.035500001 0.82700002
-0.117 -0.035399999 0.82599998
-0.1151 -0.035300002 0.82300001
-0.1133 -0.0352 0.81999999
-0.1115 -0.035 0.81699997
-0.1085 -0.035 0.81599998
-0.1058 -0.035 0.81699997
-0.1045 -0.035100002 0.81800002
-0.1021 -0.0352 0.82099998
-0.1008 -0.0352 0.82200003
-0.099399999 -0.035300002 0.82300001
-0.098099999 -0.035300002 0.824
-0.096799999 -0.035399999 0.82499999
-0.0955 -0.035399999 0.82599998
-0.0942 -0.035500001 0.82700002
-0.092799999 -0.035500001 0.82700002
-0.091300003 -0.035500001 0.82700002
-0.089900002 -0.035500001 0.82700002
-0.088500001 -0.035500001 0.82700002
-0.086900003 -0.035399999 0.82599998
-0.0854 -0.035399999 0.82499999
-0.083999999 -0.035399999 0.82499999
-0.082500003 -0.035399999 0.82499999
-0.081200004 -0.035399999 0.82599998
-0.0744 -0.035599999 0.82999998
-0.073100001 -0.035700001 0.83200002
-0.071800001 -0.035700001 0.833
-0.070299998 -0.035700001 0.833
-0.068899997 -0.035700001 0.833
-0.067500003 -0.035700001 0.833
-0.066 -0.035700001 0.833
-0.0616 -0.035700001 0.83200002
-0.060199998 -0.035700001 0.833
-0.058800001 -0.035700001 0.833
-0.0559 -0.035700001 0.833
-0.054499999 -0.035700001 0.833
-0.052999999 -0.035700001 0.833
-0.049800001 -0.036499999 0.852
-0.047400001 -0.037 0.86199999
-0.0447 -0.0385 0.898
-0.043099999 -0.0385 0.89700001
-0.041499998 -0.038400002 0.89499998
-0.039799999 -0.0383 0.89200002
-0.0381 -0.038199998 0.88999999
-0.036499999 -0.0381 0.88800001
-0.035 -0.0381 0.88800001
-0.033500001 -0.0381 0.889
-0.0319 -0.0381 0.889
-0.030400001 -0.0381 0.889
-0.028899999 -0.038199998 0.88999999
-0.0273 -0.038199998 0.88999999
-0.025800001 -0.038199998 0.89099997
-0.0243 -0.038199998 0.89099997
-0.022700001 -0.038199998 0.88999999
-0.021199999 -0.038199998 0.88999999
-0.0196 -0.038199998 0.88999999
-0.018100001 -0.038199998 0.89099997
-0.0166 -0.038199998 0.89099997
-0.015 -0.0383 0.89300001
-0.0135 -0.0383 0.89300001
-0.012 -0.0383 0.89399999
-0.0104 -0.038400002 0.89499998
-0.0088999998 -0.0383 0.89399999
-0.0073000002 -0.0383 0.89399999
-0.0057999999 -0.038400002 0.89499998
-0.0041999999 -0.038400002 0.89499998
-0.0027000001 -0.038400002 0.89499998
-0.0011 -0.0385 0.89700001
0.00039999999 -0.038600001 0.89899999
0.0035999999 -0.038600001 0.89999998
0.0066999998 -0.038600001 0.89999998
0.0082 -0.038600001 0.89899999
0.0098000001 -0.0385 0.898
0.0113 -0.0385 0.89700001
0.0129 -0.038400002 0.89600003
0.0144 -0.038400002 0.89600003
0.016000001 -0.038400002 0.89600003
0.0175 -0.038400002 0.89600003
0.019099999 -0.038400002 0.89600003
0.020500001 -0.0383 0.89300001
0.0221 -0.0383 0.89200002
0.023600001 -0.038199998 0.89099997
0.0251 -0.038199998 0.88999999
0.0266 -0.0381 0.889
0.028100001 -0.0381 0.88800001
0.0297 -0.0381 0.889
0.031300001 -0.038199998 0.88999999
0.0328 -0.038199998 0.88999999
0.034400001 -0.038199998 0.89099997
0.035999998 -0.0383 0.89300001
0.037700001 -0.038400002 0.89499998
0.039299998 -0.0385 0.89700001
0.040899999 -0.0385 0.898
0.0425 -0.038600001 0.89999998
0.044100001 -0.038600001 0.89999998
0.045699999 -0.038600001 0.89999998
0.0471 -0.0385 0.898
0.048599999 -0.0385 0.89700001
0.050099999 -0.038400002 0.89600003
0.0517 -0.038400002 0.89600003
0.053199999 -0.038400002 0.89600003
0.054699998 -0.038400002 0.89499998
0.0561 -0.0383 0.89300001
0.057799999 -0.0383 0.89399999
0.0592 -0.0383 0.89300001
0.060800001 -0.0383 0.89300001
0.0623 -0.0383 0.89200002
0.0638 -0.0383 0.89200002
0.065399997 -0.0383 0.89300001
0.067000002 -0.0383 0.89300001
0.068499997 -0.0383 0.89300001
0.07 -0.0383 0.89200002
0.071500003 -0.038199998 0.89099997
0.072999999 -0.038199998 0.89099997
0.074600004 -0.038199998 0.89099997
0.076099999 -0.038199998 0.89099997
0.077699997 -0.0383 0.89200002
0.0792 -0.038199998 0.89099997
0.080799997 -0.0383 0.89200002
0.082400002 -0.0383 0.89200002
0.083899997 -0.0383 0.89200002
0.085600004 -0.0383 0.89300001
0.087099999 -0.0383 0.89300001
0.088600002 -0.0383 0.89300001
0.090300001 -0.0383 0.89399999
0.091899998 -0.038400002 0.89499998
0.093500003 -0.038400002 0.89499998
0.095200002 -0.038400002 0.89600003
0.096699998 -0.038400002 0.89600003
0.098300003 -0.038400002 0.89600003
0.099799998 -0.038400002 0.89600003
0.1014 -0.038400002 0.89600003
0.103 -0.0385 0.89700001
0.1045 -0.038400002 0.89600003
0.106 -0.038400002 0.89600003
0.1075 -0.038400002 0.89499998
0.1089 -0.0383 0.89399999
0.1104 -0.0383 0.89399999
0.1148 -0.0383 0.89200002
0.1164 -0.0383 0.89200002
0.1178 -0.038199998 0.89099997
0.1193 -0.038199998 0.89099997
0.1209 -0.038199998 0.89099997
0.1223 -0.038199998 0.88999999
0.1238 -0.038199998 0.88999999
0.12540001 -0.038199998 0.88999999
0.1269 -0.038199998 0.88999999
0.1285 -0.038199998 0.88999999
0.1301 -0.038199998 0.89099997
0.1318 -0.0383 0.89200002
0.13339999 -0.0383 0.89200002
0.13510001 -0.0383 0.89300001
0.1366 -0.0383 0.89300001
0.1382 -0.0383 0.89300001
0.13959999 -0.0383 0.89200002
0.141 -0.038199998 0.89099997
0.14229999 -0.038199998 0.88999999
0.1437 -0.0381 0.889
0.1451 -0.0381 0.88800001
0.14659999 -0.0381 0.88800001
0.14830001 -0.0381 0.889
0.15000001 -0.038199998 0.88999999
0.1516 -0.038199998 0.88999999
0.15350001 -0.0383 0.89200002
0.1552 -0.0383 0.89300001
0.1569 -0.0383 0.89399999
0.1583 -0.0383 0.89300001
0.15979999 -0.0383 0.89300001
0.1612 -0.0383 0.89200002
0.1628 -0.0383 0.89200002
0.16410001 -0.038199998 0.89099997
0.1657 -0.038199998 0.89099997
0.16869999 -0.038199998 0.89099997
0.1709 -0.0383 0.89399999
0.1728 -0.038400002 0.89600003
0.17470001 -0.0385 0.898
0.1767 -0.038600001 0.89999998
0.17839999 -0.038600001 0.90100002
0.1804 -0.038699999 0.903
0.1822 -0.038800001 0.90399998
0.1839 -0.038800001 0.90499997
0.1855 -0.038800001 0.90499997
0.18709999 -0.038800001 0.90499997
0.18870001 -0.038800001 0.90499997
0.1892 -0.038600001 0.89999998
0.1892 -0.0383 0.89300001
0.18970001 -0.0381 0.88800001
-0.4043 -0.0361 0.87800002
-0.40329999 -0.036200002 0.87900001
-0.40180001 -0.036200002 0.87900001
-0.33849999 -0.0363 0.88099998
-0.33700001 -0.0363 0.88099998
-0.3351 -0.036200002 0.88
-0.3206 -0.0363 0.88200003
-0.31869999 -0.0363 0.88099998
-0.3175 -0.0363 0.88200003
-0.26179999 -0.036600001 0.88999999
-0.2412 -0.036499999 0.88800001
-0.2397 -0.036499999 0.88800001
-0.23270001 -0.036400001 0.88499999
-0.2291 -0.0363 0.88300002
-0.22759999 -0.0363 0.88300002
-0.2261 -0.0363 0.88300002
-0.22480001 -0.036400001 0.884
-0.2233 -0.036400001 0.884
-0.2217 -0.036400001 0.884
-0.2199 -0.0363 0.88300002
-0.2184 -0.0363 0.88300002
-0.21690001 -0.0363 0.88300002
-0.2123 -0.0363 0.88300002
-0.2105 -0.0363 0.88200003
-0.2068 -0.036200002 0.87900001
-0.20299999 -0.035999998 0.87599999
-0.2008 -0.0359 0.87300003
-0.1991 -0.0359 0.87199998
-0.1978 -0.0359 0.87300003
-0.1963 -0.0359 0.87300003
-0.1944 -0.0361 0.87800002
-0.1937 -0.0363 0.88200003
-0.1928 -0.036400001 0.88499999
-0.1917 -0.036499999 0.88700002
-0.1902 -0.036499999 0.88700002
-0.1884 -0.036499999 0.88599998
-0.1869 -0.036499999 0.88599998
-0.18520001 -0.036400001 0.88499999
-0.18340001 -0.036400001 0.884
-0.1815 -0.0363 0.88200003
-0.1797 -0.0363 0.88099998
-0.1776 -0.0361 0.87800002
-0.1751 -0.0359 0.87300003
-0.1732 -0.035799999 0.87099999
-0.17129999 -0.035799999 0.86900002
-0.1692 -0.035599999 0.866
-0.16689999 -0.035500001 0.86199999
-0.16410001 -0.0352 0.85500002
-0.1611 -0.034899998 0.847
-0.15809999 -0.034499999 0.83899999
-0.15549999 -0.034299999 0.833
-0.15350001 -0.034200002 0.82999998
-0.1521 -0.034200002 0.82999998
-0.1505 -0.0341 0.829
-0.1487 -0.034000002 0.82700002
-0.1471 -0.034000002 0.82599998
-0.14560001 -0.034000002 0.82599998
-0.14399999 -0.0339 0.82499999
-0.1424 -0.0339 0.824
-0.1408 -0.0339 0.82300001
-0.13940001 -0.0339 0.82300001
-0.1381 -0.0339 0.824
-0.13689999 -0.0339 0.82499999
-0.1354 -0.0339 0.82499999
-0.13420001 -0.034000002 0.82599998
-0.1327 -0.034000002 0.82599998
-0.1313 -0.034000002 0.82599998
-0.12970001 -0.0339 0.82499999
-0.12809999 -0.0339 0.824
-0.1267 -0.0339 0.824
-0.1256 -0.034000002 0.82599998
-0.1246 -0.0341 0.829
-0.1232 -0.0341 0.829
-0.1217 -0.0341 0.829
-0.1203 -0.0341 0.829
-0.1189 -0.0341 0.829
-0.1173 -0.0341 0.82800001
-0.1156 -0.034000002 0.82599998
-0.1136 -0.033799998 0.82200003
-0.1119 -0.0337 0.81999999
-0.1103 -0.0337 0.81900001
-0.1089 -0.0337 0.81900001
-0.1075 -0.0337 0.81900001
-0.1061 -0.0337 0.81900001
-0.1048 -0.0337 0.81999999
-0.1035 -0.033799998 0.82099998
-0.1022 -0.033799998 0.82200003
-0.1009 -0.0339 0.82300001
-0.099299997 -0.033799998 0.82200003
-0.097999997 -0.0339 0.82300001
-0.096600004 -0.0339 0.82300001
-0.095299996 -0.0339 0.824
-0.094099998 -0.034000002 0.82599998
-0.092699997 -0.034000002 0.82599998
-0.091300003 -0.034000002 0.82700002
-0.089900002 -0.034000002 0.82700002
-0.088500001 -0.034000002 0.82700002
-0.086900003 -0.034000002 0.82599998
-0.085500002 -0.034000002 0.82599998
-0.084100001 -0.034000002 0.82599998
-0.082599998 -0.034000002 0.82599998
-0.081200004 -0.034000002 0.82599998
-0.079700001 -0.0339 0.82499999
-0.077100001 -0.0341 0.82800001
-0.075800002 -0.034200002 0.82999998
-0.074299999 -0.0341 0.829
-0.073100001 -0.034200002 0.83200002
-0.071699999 -0.034200002 0.83200002
-0.070299998 -0.034200002 0.83200002
-0.068800002 -0.034200002 0.83200002
-0.067400001 -0.034200002 0.83200002
-0.066 -0.034299999 0.833
-0.064499997 -0.034200002 0.83200002
-0.063000001 -0.034200002 0.83099997
-0.0616 -0.034200002 0.83200002
-0.0603 -0.034299999 0.83399999
-0.054499999 -0.034299999 0.83399999
-0.053100001 -0.034299999 0.83399999
-0.046700001 -0.034899998 0.84899998
-0.043099999 -0.037 0.898
-0.041499998 -0.036899999 0.89700001
-0.039799999 -0.036699999 0.89300001
-0.038199998 -0.036699999 0.89099997
-0.036600001 -0.036600001 0.889
-0.035 -0.036600001 0.889
-0.033500001 -0.036600001 0.889
-0.0319 -0.036600001 0.889
-0.030400001 -0.036600001 0.88999999
-0.025900001 -0.036699999 0.89200002
-0.0243 -0.036699999 0.89200002
-0.0228 -0.036699999 0.89200002
-0.021199999 -0.036699999 0.89200002
-0.0197 -0.036699999 0.89200002
-0.018100001 -0.036699999 0.89200002
-0.0166 -0.036699999 0.89300001
-0.0151 -0.036800001 0.89399999
-0.0135 -0.036800001 0.89399999
-0.012 -0.036800001 0.89499998
-0.0104 -0.036800001 0.89499998
-0.0088999998 -0.036800001 0.89499998
-0.0073000002 -0.036800001 0.89399999
-0.0057999999 -0.036800001 0.89499998
-0.0027000001 -0.036899999 0.89600003
-0.0011 -0.037 0.898
0.0082 -0.037 0.89999998
0.0098000001 -0.037 0.89899999
0.0113 -0.037 0.898
0.0129 -0.036899999 0.89700001
0.0144 -0.036899999 0.89700001
0.016000001 -0.036899999 0.89600003
0.0175 -0.036899999 0.89600003
0.018999999 -0.036800001 0.89499998
0.020500001 -0.036699999 0.89300001
0.022 -0.036699999 0.89099997
0.023600001 -0.036600001 0.88999999
0.0251 -0.036499999 0.88800001
0.0266 -0.036499999 0.88800001
0.028100001 -0.036499999 0.88800001
0.0297 -0.036499999 0.88800001
0.031300001 -0.036600001 0.88999999
0.0328 -0.036600001 0.88999999
0.034400001 -0.036699999 0.89099997
0.035999998 -0.036699999 0.89300001
0.037700001 -0.036899999 0.89600003
0.0394 -0.037 0.89899999
0.041000001 -0.037 0.89999998
0.042599998 -0.037099998 0.90100002
0.044199999 -0.037099998 0.90100002
0.045699999 -0.037099998 0.90100002
0.047200002 -0.037 0.89899999
0.048700001 -0.037 0.898
0.0502 -0.036899999 0.89700001
0.0517 -0.036899999 0.89600003
0.053199999 -0.036899999 0.89600003
0.054699998 -0.036800001 0.89499998
0.0561 -0.036699999 0.89300001
0.057700001 -0.036699999 0.89300001
0.0592 -0.036699999 0.89300001
0.060699999 -0.036699999 0.89200002
0.062199999 -0.036699999 0.89099997
0.063699998 -0.036600001 0.88999999
0.065399997 -0.036699999 0.89200002
0.0669 -0.036699999 0.89200002
0.068499997 -0.036699999 0.89300001
0.07 -0.036699999 0.89200002
0.071500003 -0.036699999 0.89200002
0.073100001 -0.036699999 0.89200002
0.074600004 -0.036699999 0.89200002
0.076099999 -0.036699999 0.89099997
0.077699997 -0.036699999 0.89200002
0.0792 -0.036699999 0.89099997
0.080799997 -0.036699999 0.89200002
0.082400002 -0.036699999 0.89200002
0.083899997 -0.036699999 0.89200002
0.085500002 -0.036699999 0.89200002
0.087099999 -0.036699999 0.89300001
0.088600002 -0.036699999 0.89300001
0.090300001 -0.036800001 0.89399999
0.091899998 -0.036800001 0.89499998
0.093599997 -0.036899999 0.89600003
0.095200002 -0.036899999 0.89600003
0.096799999 -0.036899999 0.89700001
0.098300003 -0.036899999 0.89600003
0.1 -0.037 0.898
0.1015 -0.036899999 0.89700001
0.103 -0.036899999 0.89700001
0.1045 -0.036899999 0.89600003
0.1059 -0.036800001 0.89499998
0.1073 -0.036800001 0.89399999
0.1088 -0.036699999 0.89300001
0.1103 -0.036699999 0.89300001
0.1148 -0.036699999 0.89200002
0.1164 -0.036699999 0.89200002
0.1179 -0.036699999 0.89200002
0.1193 -0.036699999 0.89099997
0.1207 -0.036600001 0.88999999
0.1223 -0.036600001 0.88999999
0.1237 -0.036600001 0.889
0.1252 -0.036600001 0.889
0.1268 -0.036600001 0.889
0.1285 -0.036600001 0.88999999
0.13 -0.036600001 0.88999999
0.1318 -0.036699999 0.89200002
0.13339999 -0.036699999 0.89200002
0.13510001 -0.036699999 0.89300001
0.13680001 -0.036800001 0.89399999
0.1383 -0.036800001 0.89399999
0.1397 -0.036699999 0.89300001
0.14129999 -0.036699999 0.89300001
0.1425 -0.036699999 0.89099997
0.14390001 -0.036600001 0.88999999
0.1454 -0.036600001 0.88999999
0.147 -0.036600001 0.88999999
0.1485 -0.036600001 0.88999999
0.15000001 -0.036600001 0.88999999
0.1516 -0.036600001 0.88999999
0.15360001 -0.036699999 0.89300001
0.15539999 -0.036800001 0.89399999
0.15710001 -0.036800001 0.89499998
0.1585 -0.036800001 0.89399999
0.15979999 -0.036699999 0.89300001
0.16140001 -0.036699999 0.89300001
0.1628 -0.036699999 0.89200002
0.16410001 -0.036699999 0.89099997
0.1655 -0.036600001 0.88999999
0.1672 -0.036699999 0.89099997
0.16869999 -0.036699999 0.89099997
0.1707 -0.036699999 0.89300001
0.17299999 -0.036899999 0.89700001
0.17470001 -0.037 0.898
0.1767 -0.037 0.89999998
0.1786 -0.037099998 0.90200001
0.1804 -0.0372 0.903
0.1822 -0.0372 0.90399998
0.1839 -0.0372 0.90499997
0.18529999 -0.0372 0.90399998
0.1867 -0.0372 0.903
0.18780001 -0.037099998 0.90100002
0.1883 -0.036899999 0.89600003
0.1886 -0.036600001 0.88999999
0.1895 -0.036499999 0.88700002
0.19059999 -0.036400001 0.88499999
-0.40630001 -0.034600001 0.87900001
-0.4048 -0.034600001 0.87900001
-0.40369999 -0.034699999 0.88
-0.40180001 -0.034600001 0.87900001
-0.37799999 -0.034299999 0.87
-0.36449999 -0.034699999 0.88099998
-0.36300001 -0.034699999 0.88099998
-0.361 -0.034699999 0.88
-0.3475 -0.034299999 0.86900002
-0.33700001 -0.034699999 0.88099998
-0.3195 -0.034600001 0.87900001
-0.31830001 -0.034699999 0.88
-0.31720001 -0.034699999 0.88099998
-0.31560001 -0.034699999 0.88099998
-0.26089999 -0.035 0.88700002
-0.22939999 -0.0348 0.884
-0.2279 -0.0348 0.884
-0.2263 -0.0348 0.884
-0.22480001 -0.0348 0.884
-0.223 -0.0348 0.88300002
-0.2212 -0.0348 0.88200003
-0.21510001 -0.0348 0.88200003
-0.21359999 -0.0348 0.88200003
-0.2121 -0.0348 0.88200003
-0.20999999 -0.034699999 0.88
-0.208 -0.034600001 0.87800002
-0.2061 -0.034499999 0.87599999
-0.2043 -0.034499999 0.875
-0.2023 -0.034400001 0.87300003
-0.2006 -0.034400001 0.87199998
-0.1991 -0.034400001 0.87199998
-0.19760001 -0.034400001 0.87199998
-0.1952 -0.034499999 0.875
-0.1944 -0.034600001 0.87800002
-0.1902 -0.035 0.88700002
-0.1869 -0.034899998 0.88599998
-0.18520001 -0.034899998 0.88499999
-0.18359999 -0.034899998 0.88499999
-0.18170001 -0.0348 0.88300002
-0.1797 -0.034699999 0.88099998
-0.1776 -0.034600001 0.87800002
-0.1751 -0.034400001 0.87300003
-0.1732 -0.034299999 0.87099999
-0.17129999 -0.034299999 0.86900002
-0.1692 -0.0341 0.866
-0.16670001 -0.0339 0.861
-0.1605 -0.033300001 0.84399998
-0.1573 -0.032900002 0.83499998
-0.1551 -0.0328 0.83099997
-0.15350001 -0.032699998 0.82999998
-0.15189999 -0.032699998 0.829
-0.1505 -0.032699998 0.829
-0.1487 -0.032600001 0.82700002
-0.1471 -0.032600001 0.82599998
-0.1454 -0.032499999 0.82499999
-0.14399999 -0.032499999 0.82499999
-0.1424 -0.032499999 0.824
-0.1408 -0.032400001 0.82300001
-0.1392 -0.032400001 0.82200003
-0.138 -0.032400001 0.82300001
-0.1367 -0.032499999 0.824
-0.1354 -0.032499999 0.82499999
-0.134 -0.032499999 0.82499999
-0.13259999 -0.032499999 0.82499999
-0.1311 -0.032499999 0.82499999
-0.1296 -0.032499999 0.824
-0.12800001 -0.032400001 0.82300001
-0.1256 -0.032600001 0.82599998
-0.1246 -0.032699998 0.829
-0.1233 -0.032699998 0.82999998
-0.1217 -0.032699998 0.829
-0.1204 -0.032699998 0.82999998
-0.119 -0.032699998 0.82999998
-0.1176 -0.032699998 0.82999998
-0.1158 -0.032600001 0.82800001
-0.114 -0.032499999 0.82499999
-0.1123 -0.032400001 0.82300001
-0.1109 -0.032400001 0.82300001
-0.1094 -0.032400001 0.82300001
-0.108 -0.032400001 0.82300001
-0.1067 -0.032499999 0.824
-0.1052 -0.032400001 0.82300001
-0.1037 -0.032400001 0.82300001
-0.1024 -0.032499999 0.824
-0.101 -0.032499999 0.824
-0.099600002 -0.032499999 0.824
-0.097999997 -0.032400001 0.82300001
-0.096699998 -0.032499999 0.824
-0.095399998 -0.032499999 0.82499999
-0.094099998 -0.032600001 0.82599998
-0.092699997 -0.032600001 0.82599998
-0.091300003 -0.032600001 0.82700002
-0.089900002 -0.032600001 0.82700002
-0.088600002 -0.032600001 0.82800001
-0.086999997 -0.032600001 0.82700002
-0.085600004 -0.032600001 0.82700002
-0.084200002 -0.032600001 0.82700002
-0.082599998 -0.032600001 0.82599998
-0.081200004 -0.032600001 0.82599998
-0.079800002 -0.032600001 0.82599998
-0.078299999 -0.032600001 0.82599998
-0.074299999 -0.032699998 0.829
-0.073100001 -0.0328 0.83099997
-0.071599998 -0.0328 0.83099997
-0.070200004 -0.0328 0.83099997
-0.068700001 -0.0328 0.83099997
-0.067400001 -0.0328 0.83200002
-0.066 -0.0328 0.833
-0.064499997 -0.0328 0.83200002
-0.063000001 -0.0328 0.83200002
-0.0616 -0.0328 0.83200002
-0.0603 -0.032900002 0.83399999
-0.058899999 -0.032900002 0.83399999
-0.057300001 -0.0328 0.833
-0.047800001 -0.033199999 0.84299999
-0.0436 -0.035700001 0.90700001
-0.041999999 -0.035700001 0.90600002
-0.040100001 -0.035500001 0.89999998
-0.0383 -0.0352 0.89399999
-0.036600001 -0.035100002 0.88999999
-0.035 -0.035 0.889
-0.033399999 -0.035 0.88800001
-0.032000002 -0.035100002 0.88999999
-0.030400001 -0.035100002 0.88999999
-0.0274 -0.035100002 0.89099997
-0.025900001 -0.0352 0.89300001
-0.0244 -0.0352 0.89399999
-0.0228 -0.035300002 0.89499998
-0.021299999 -0.0352 0.89399999
-0.0197 -0.0352 0.89300001
-0.018100001 -0.0352 0.89300001
-0.0166 -0.0352 0.89300001
-0.0151 -0.0352 0.89399999
-0.0135 -0.035300002 0.89499998
-0.012 -0.035300002 0.89499998
-0.0104 -0.035300002 0.89499998
-0.0088999998 -0.035300002 0.89499998
-0.0073000002 -0.035300002 0.89600003
0.0114 -0.035500001 0.90100002
0.0129 -0.035500001 0.89999998
0.0145 -0.035500001 0.89999998
0.016000001 -0.035399999 0.898
0.018999999 -0.035300002 0.89499998
0.020500001 -0.035100002 0.89099997
0.022 -0.035100002 0.88999999
0.023499999 -0.035 0.88800001
0.0251 -0.035 0.88800001
0.0266 -0.035 0.88800001
0.028100001 -0.035 0.88800001
0.0297 -0.035 0.889
0.031300001 -0.035100002 0.88999999
0.032900002 -0.035100002 0.89099997
0.034400001 -0.0352 0.89200002
0.0361 -0.035300002 0.89499998
0.037799999 -0.035399999 0.898
0.0394 -0.035500001 0.89999998
0.041000001 -0.035500001 0.90100002
0.042599998 -0.035599999 0.90200001
0.044199999 -0.035599999 0.90200001
0.045699999 -0.035500001 0.90100002
0.047200002 -0.035500001 0.89999998
0.048700001 -0.035399999 0.89899999
0.0502 -0.035399999 0.898
0.051800001 -0.035399999 0.898
0.053300001 -0.035399999 0.898
0.054900002 -0.035399999 0.898
0.056299999 -0.035300002 0.89600003
0.0579 -0.035300002 0.89600003
0.0594 -0.035300002 0.89499998
0.060800001 -0.0352 0.89300001
0.062199999 -0.035100002 0.89099997
0.063699998 -0.035100002 0.88999999
0.065300003 -0.035100002 0.89099997
0.0669 -0.0352 0.89200002
0.068499997 -0.0352 0.89200002
0.07 -0.0352 0.89200002
0.071500003 -0.0352 0.89200002
0.073100001 -0.0352 0.89200002
0.074600004 -0.0352 0.89200002
0.076099999 -0.035100002 0.89099997
0.077600002 -0.035100002 0.89099997
0.0792 -0.035100002 0.89099997
0.080799997 -0.0352 0.89200002
0.082400002 -0.0352 0.89200002
0.083899997 -0.0352 0.89200002
0.085500002 -0.0352 0.89200002
0.086999997 -0.0352 0.89200002
0.088600002 -0.0352 0.89300001
0.0902 -0.0352 0.89300001
0.091899998 -0.035300002 0.89499998
0.093599997 -0.035300002 0.89600003
0.095399998 -0.035399999 0.898
0.096900001 -0.035399999 0.898
0.098499998 -0.035399999 0.898
0.1 -0.035399999 0.898
0.1016 -0.035399999 0.898
0.1032 -0.035399999 0.898
0.1045 -0.035300002 0.89600003
0.1058 -0.0352 0.89399999
0.1072 -0.0352 0.89300001
0.1086 -0.0352 0.89200002
0.1164 -0.0352 0.89200002
0.1179 -0.0352 0.89200002
0.1193 -0.035100002 0.89099997
0.1207 -0.035100002 0.88999999
0.1223 -0.035100002 0.88999999
0.1235 -0.035 0.88800001
0.1251 -0.035 0.88800001
0.1268 -0.035 0.889
0.1283 -0.035 0.889
0.13 -0.035100002 0.88999999
0.13169999 -0.035100002 0.89099997
0.13339999 -0.0352 0.89200002
0.13510001 -0.0352 0.89300001
0.13689999 -0.035300002 0.89499998
0.13850001 -0.035300002 0.89499998
0.14 -0.035300002 0.89499998
0.14139999 -0.0352 0.89399999
0.1428 -0.0352 0.89300001
0.14399999 -0.035100002 0.89099997
0.14560001 -0.035100002 0.89099997
0.147 -0.035100002 0.88999999
0.1485 -0.035100002 0.88999999
0.15000001 -0.035100002 0.88999999
0.15180001 -0.035100002 0.89099997
0.15360001 -0.0352 0.89300001
0.15549999 -0.035300002 0.89499998
0.15710001 -0.035300002 0.89499998
0.1585 -0.0352 0.89399999
0.16 -0.0352 0.89399999
0.16140001 -0.0352 0.89300001
0.1629 -0.0352 0.89300001
0.16410001 -0.035100002 0.89099997
0.1657 -0.035100002 0.89099997
0.1672 -0.035100002 0.89099997
0.1689 -0.0352 0.89200002
0.1709 -0.0352 0.89399999
0.1732 -0.035399999 0.898
0.17470001 -0.035399999 0.898
0.1767 -0.035500001 0.89999998
0.17839999 -0.035500001 0.90100002
0.1802 -0.035599999 0.90200001
0.182 -0.035599999 0.903
0.18350001 -0.035599999 0.903
0.1847 -0.035500001 0.90100002
0.1858 -0.035399999 0.89899999
0.1868 -0.035300002 0.89600003
0.1877 -0.0352 0.89300001
0.1884 -0.035 0.889
0.1895 -0.035 0.88700002
0.1908 -0.034899998 0.88599998
-0.3759 -0.032600001 0.86500001
-0.3748 -0.032600001 0.866
-0.36410001 -0.033199999 0.88
-0.36219999 -0.033100002 0.87900001
-0.36019999 -0.033100002 0.87800002
-0.33320001 -0.033100002 0.87900001
-0.32100001 -0.033100002 0.87900001
-0.31830001 -0.033199999 0.88
-0.31639999 -0.033100002 0.87900001
-0.31490001 -0.033100002 0.87900001
-0.3134 -0.033100002 0.87900001
-0.2273 -0.033199999 0.88200003
-0.22579999 -0.033199999 0.88200003
-0.2243 -0.033199999 0.88200003
-0.2228 -0.033199999 0.88200003
-0.2212 -0.033199999 0.88200003
-0.21969999 -0.033199999 0.88200003
-0.21789999 -0.033199999 0.88099998
-0.2164 -0.033199999 0.88099998
-0.21179999 -0.033199999 0.88099998
-0.2098 -0.033100002 0.87900001
-0.208 -0.033100002 0.87800002
-0.2061 -0.033 0.87599999
-0.2045 -0.033 0.87599999
-0.2026 -0.032900002 0.87400001
-0.2008 -0.032900002 0.87300003
-0.1991 -0.032900002 0.87199998
-0.1978 -0.032900002 0.87300003
-0.1954 -0.033 0.87599999
-0.19149999 -0.033399999 0.88599998
-0.1884 -0.033399999 0.88599998
-0.1869 -0.033399999 0.88599998
-0.18520001 -0.033300001 0.88499999
-0.18359999 -0.033300001 0.88499999
-0.18170001 -0.033300001 0.88300002
-0.1795 -0.033199999 0.88
-0.1772 -0.033 0.87599999
-0.1749 -0.032900002 0.87199998
-0.17299999 -0.0328 0.87
-0.17110001 -0.032699998 0.86799997
-0.16230001 -0.0319 0.84600002
-0.1595 -0.031599998 0.83899999
-0.15700001 -0.031399999 0.833
-0.155 -0.031300001 0.82999998
-0.1533 -0.031199999 0.829
-0.15189999 -0.031199999 0.829
-0.1503 -0.031199999 0.82800001
-0.1487 -0.031199999 0.82700002
-0.1469 -0.031099999 0.82499999
-0.14380001 -0.031099999 0.824
-0.1408 -0.030999999 0.82300001
-0.1392 -0.030999999 0.82200003
-0.138 -0.030999999 0.82300001
-0.13689999 -0.031099999 0.82499999
-0.1356 -0.031099999 0.82599998
-0.13420001 -0.031099999 0.82599998
-0.13259999 -0.031099999 0.82499999
-0.1311 -0.031099999 0.82499999
-0.12970001 -0.031099999 0.82499999
-0.12800001 -0.030999999 0.82300001
-0.1266 -0.030999999 0.82300001
-0.12540001 -0.031099999 0.82499999
-0.1246 -0.031199999 0.829
-0.1233 -0.031300001 0.82999998
-0.1219 -0.031300001 0.82999998
-0.1204 -0.031300001 0.82999998
-0.1191 -0.031300001 0.83099997
-0.1176 -0.031300001 0.82999998
-0.116 -0.031199999 0.829
-0.1143 -0.031199999 0.82700002
-0.1127 -0.031099999 0.82599998
-0.1113 -0.031099999 0.82599998
-0.1098 -0.031099999 0.82599998
-0.1085 -0.031199999 0.82700002
-0.1071 -0.031199999 0.82700002
-0.1055 -0.031099999 0.82599998
-0.1041 -0.031099999 0.82599998
-0.1026 -0.031099999 0.82499999
-0.1011 -0.031099999 0.82499999
-0.099399999 -0.030999999 0.82300001
-0.097900003 -0.030999999 0.82200003
-0.096600004 -0.030999999 0.82300001
-0.095299996 -0.031099999 0.824
-0.094099998 -0.031099999 0.82599998
-0.092799999 -0.031199999 0.82700002
-0.091399997 -0.031199999 0.82800001
-0.090099998 -0.031199999 0.829
-0.088699996 -0.031199999 0.829
-0.087099999 -0.031199999 0.82800001
-0.085600004 -0.031199999 0.82700002
-0.084200002 -0.031199999 0.82700002
-0.082599998 -0.031099999 0.82599998
-0.081200004 -0.031099999 0.82599998
-0.078199998 -0.031099999 0.82499999
-0.074199997 -0.031199999 0.82800001
-0.072999999 -0.031300001 0.82999998
-0.071500003 -0.031300001 0.82999998
-0.070100002 -0.031300001 0.82999998
-0.068599999 -0.031300001 0.82999998
-0.067299999 -0.031300001 0.83099997
-0.065899998 -0.031399999 0.83200002
-0.064499997 -0.031399999 0.83200002
-0.063000001 -0.031399999 0.83200002
-0.058899999 -0.031399999 0.83399999
-0.057300001 -0.031399999 0.833
-0.043400001 -0.0317 0.84200001
-0.036600001 -0.033500001 0.889
-0.034899998 -0.033399999 0.88700002
-0.033399999 -0.033399999 0.88700002
-0.0319 -0.033500001 0.88800001
-0.030400001 -0.033500001 0.889
-0.028899999 -0.033500001 0.88999999
-0.0273 -0.033500001 0.88999999
-0.025900001 -0.033599999 0.89200002
-0.0244 -0.0337 0.89399999
-0.0228 -0.0337 0.89499998
-0.021299999 -0.0337 0.89399999
-0.0197 -0.033599999 0.89200002
-0.018100001 -0.033599999 0.89099997
-0.0166 -0.033599999 0.89099997
-0.015 -0.033599999 0.89099997
-0.0135 -0.033599999 0.89200002
-0.012 -0.0337 0.89300001
-0.0104 -0.0337 0.89399999
-0.0088999998 -0.0337 0.89399999
-0.0073000002 -0.0337 0.89499998
-0.0057999999 -0.033799998 0.89700001
0.013 -0.034000002 0.903
0.0145 -0.034000002 0.90200001
0.016000001 -0.0339 0.89999998
0.0176 -0.033799998 0.898
0.018999999 -0.0337 0.89499998
0.020500001 -0.033599999 0.89200002
0.022 -0.033500001 0.88999999
0.023499999 -0.033500001 0.889
0.0251 -0.033500001 0.88800001
0.0266 -0.033399999 0.88700002
0.028100001 -0.033500001 0.88800001
0.0297 -0.033500001 0.889
0.031300001 -0.033500001 0.88999999
0.032900002 -0.033599999 0.89099997
0.034499999 -0.0337 0.89300001
0.036200002 -0.033799998 0.89700001
0.037900001 -0.0339 0.89999998
0.039500002 -0.034000002 0.90100002
0.041099999 -0.034000002 0.90200001
0.042599998 -0.034000002 0.90100002
0.044199999 -0.034000002 0.90200001
0.0458 -0.034000002 0.90200001
0.0473 -0.034000002 0.90100002
0.048799999 -0.0339 0.89999998
0.050299998 -0.0339 0.89999998
0.051899999 -0.0339 0.89999998
0.0579 -0.033799998 0.89600003
0.0594 -0.0337 0.89499998
0.060899999 -0.0337 0.89399999
0.0623 -0.033599999 0.89200002
0.063699998 -0.033599999 0.89099997
0.065399997 -0.0337 0.89300001
0.067000002 -0.0337 0.89300001
0.068499997 -0.0337 0.89300001
0.070100002 -0.0337 0.89300001
0.071599998 -0.0337 0.89300001
0.073200002 -0.0337 0.89300001
0.074699998 -0.0337 0.89300001
0.076200001 -0.033599999 0.89200002
0.077699997 -0.033599999 0.89200002
0.079300001 -0.033599999 0.89200002
0.080899999 -0.0337 0.89300001
0.082500003 -0.0337 0.89300001
0.083999999 -0.0337 0.89300001
0.085500002 -0.033599999 0.89200002
0.087099999 -0.0337 0.89300001
0.088600002 -0.0337 0.89300001
0.0902 -0.0337 0.89300001
0.091899998 -0.0337 0.89499998
0.093500003 -0.0337 0.89499998
0.095200002 -0.033799998 0.89600003
0.096799999 -0.033799998 0.89700001
0.098399997 -0.033799998 0.89700001
0.1 -0.033799998 0.898
0.1016 -0.033799998 0.898
0.1032 -0.033799998 0.898
0.1045 -0.033799998 0.89600003
0.1059 -0.0337 0.89499998
0.1072 -0.0337 0.89300001
0.1088 -0.0337 0.89300001
0.1102 -0.033599999 0.89200002
0.1117 -0.033599999 0.89200002
0.1133 -0.033599999 0.89200002
0.1179 -0.033599999 0.89200002
0.1207 -0.033500001 0.88999999
0.1223 -0.033500001 0.88999999
0.1237 -0.033500001 0.889
0.1252 -0.033500001 0.889
0.1269 -0.033500001 0.88999999
0.1285 -0.033500001 0.88999999
0.1301 -0.033599999 0.89099997
0.1318 -0.033599999 0.89200002
0.13349999 -0.0337 0.89300001
0.1354 -0.0337 0.89499998
0.1371 -0.033799998 0.89600003
0.13860001 -0.033799998 0.89600003
0.1402 -0.033799998 0.89600003
0.1417 -0.033799998 0.89600003
0.14309999 -0.0337 0.89499998
0.1444 -0.0337 0.89300001
0.14569999 -0.033599999 0.89200002
0.1473 -0.033599999 0.89200002
0.1487 -0.033599999 0.89099997
0.1504 -0.033599999 0.89200002
0.15189999 -0.033599999 0.89200002
0.1538 -0.0337 0.89399999
0.15549999 -0.0337 0.89499998
0.15710001 -0.0337 0.89499998
0.1583 -0.0337 0.89300001
0.15979999 -0.0337 0.89300001
0.16140001 -0.0337 0.89300001
0.1629 -0.0337 0.89300001
0.16429999 -0.033599999 0.89200002
0.1657 -0.033599999 0.89099997
0.1674 -0.033599999 0.89200002
0.1691 -0.0337 0.89300001
0.17110001 -0.0337 0.89499998
0.17299999 -0.033799998 0.89700001
0.17470001 -0.033799998 0.898
0.1767 -0.0339 0.89999998
0.17839999 -0.034000002 0.90100002
0.18000001 -0.034000002 0.90100002
0.1816 -0.034000002 0.90100002
0.1833 -0.034000002 0.90200001
0.18449999 -0.0339 0.89999998
0.18520001 -0.033799998 0.89600003
0.18619999 -0.0337 0.89300001
0.1873 -0.033599999 0.89099997
0.1886 -0.033500001 0.88999999
0.1902 -0.033500001 0.88999999
0.19149999 -0.033500001 0.889
-0.32249999 -0.031599998 0.87900001
-0.32249999 -0.0317 0.88300002
-0.32089999 -0.0317 0.88300002
-0.31940001 -0.0317 0.88300002
-0.3175 -0.0317 0.88200003
-0.31600001 -0.0317 0.88200003
-0.3141 -0.0317 0.88099998
-0.31189999 -0.031599998 0.87900001
-0.31 -0.031599998 0.87800002
-0.22939999 -0.031800002 0.884
-0.22759999 -0.0317 0.88300002
-0.2261 -0.0317 0.88300002
-0.2245 -0.0317 0.88300002
-0.223 -0.0317 0.88300002
-0.2212 -0.0317 0.88200003
-0.2182 -0.0317 0.88200003
-0.2166 -0.0317 0.88200003
-0.2149 -0.0317 0.88099998
-0.2133 -0.0317 0.88099998
-0.21160001 -0.031599998 0.88
-0.2058 -0.031500001 0.875
-0.2041 -0.031399999 0.87400001
-0.2023 -0.031399999 0.87300003
-0.2008 -0.031399999 0.87300003
-0.19930001 -0.031399999 0.87300003
-0.1978 -0.031399999 0.87300003
-0.1965 -0.031399999 0.87400001
-0.1954 -0.031500001 0.87599999
-0.1913 -0.031800002 0.88499999
-0.18979999 -0.031800002 0.88499999
-0.1884 -0.0319 0.88599998
-0.1867 -0.031800002 0.88499999
-0.18520001 -0.031800002 0.88499999
-0.18340001 -0.031800002 0.884
-0.1813 -0.0317 0.88099998
-0.17910001 -0.031599998 0.87800002
