# .PCD v0.7 - Point Cloud Data file format
VERSION 0.7
FIELDS x y z
SIZE 4 4 4
TYPE F F F
COUNT 1 1 1
WIDTH 1696
HEIGHT 1
VIEWPOINT 0 0 0 1 0 0 0
POINTS 1696
DATA ascii
0.12540001 0.1628 0.90100002
0.1268 0.1626 0.89999998
0.1283 0.1626 0.89999998
0.12989999 0.1626 0.89999998
0.13150001 0.1626 0.89999998
0.1332 0.1628 0.90100002
0.13850001 0.1635 0.90499997
0.1402 0.1637 0.90600002
0.1419 0.1639 0.90700001
0.1435 0.1639 0.90700001
0.1451 0.1639 0.90700001
0.14820001 0.1639 0.90700001
0.1499 0.16410001 0.90799999
0.1513 0.1639 0.90700001
0.1531 0.16410001 0.90799999
0.1547 0.16410001 0.90799999
0.15620001 0.16410001 0.90799999
0.1576 0.1639 0.90700001
0.15899999 0.1637 0.90600002
0.1604 0.1635 0.90499997
0.162 0.1635 0.90499997
0.1636 0.1635 0.90499997
0.1653 0.1637 0.90600002
0.1672 0.16410001 0.90799999
0.1692 0.1644 0.91000003
0.17110001 0.1648 0.912
0.1735 0.1655 0.91600001
0.1761 0.16500001 0.91299999
0.17730001 0.1646 0.91100001
0.1787 0.1644 0.91000003
0.18000001 0.16419999 0.90899998
0.1814 0.16410001 0.90799999
0.183 0.16410001 0.90799999
0.18440001 0.1639 0.90700001
-0.4208 0.1618 0.88700002
-0.4197 0.162 0.88800001
-0.3994 0.1613 0.884
-0.39700001 0.1609 0.88200003
-0.38100001 0.16249999 0.89099997
-0.3786 0.1622 0.889
-0.37619999 0.1618 0.88700002
-0.37380001 0.16140001 0.88499999
-0.37189999 0.1613 0.884
-0.36950001 0.1609 0.88200003
-0.3671 0.1605 0.88
-0.36480001 0.1602 0.87800002
-0.3633 0.1602 0.87800002
-0.34810001 0.1609 0.88200003
-0.33849999 0.16140001 0.88499999
-0.33700001 0.16140001 0.88499999
-0.3355 0.16140001 0.88499999
-0.3263 0.16140001 0.88499999
-0.3251 0.16159999 0.88599998
-0.32359999 0.16159999 0.88599998
-0.32089999 0.1618 0.88700002
-0.3197 0.162 0.88800001
-0.2938 0.1647 0.903
-0.29159999 0.1644 0.90100002
-0.2466 0.1645 0.90200001
-0.2445 0.16419999 0.89999998
-0.2429 0.16419999 0.89999998
-0.24079999 0.1638 0.898
-0.2387 0.1635 0.89600003
-0.23720001 0.1635 0.89600003
-0.2353 0.16329999 0.89499998
-0.23379999 0.16329999 0.89499998
-0.2322 0.16329999 0.89499998
-0.2286 0.1629 0.89300001
-0.2271 0.1629 0.89300001
-0.22579999 0.1631 0.89399999
-0.2242 0.1631 0.89399999
-0.2229 0.16329999 0.89499998
-0.2216 0.1635 0.89600003
-0.2211 0.16419999 0.89999998
-0.21969999 0.1644 0.90100002
-0.21870001 0.1647 0.903
-0.2173 0.1649 0.90399998
-0.21600001 0.16509999 0.90499997
-0.2147 0.1653 0.90600002
-0.2133 0.1655 0.90700001
-0.212 0.1656 0.90799999
-0.20819999 0.16509999 0.90499997
-0.2061 0.1647 0.903
-0.2041 0.1644 0.90100002
-0.20190001 0.1638 0.898
-0.19939999 0.1631 0.89399999
-0.19750001 0.1627 0.89200002
-0.1955 0.16240001 0.88999999
-0.1935 0.162 0.88800001
-0.19149999 0.16159999 0.88599998
-0.18979999 0.16140001 0.88499999
-0.18799999 0.1613 0.884
-0.1856 0.1605 0.88
-0.18350001 0.16 0.87699997
-0.1811 0.1593 0.87300003
-0.1796 0.1593 0.87300003
-0.17110001 0.1556 0.85299999
-0.1682 0.1543 0.84600002
-0.1665 0.1541 0.84500003
-0.1649 0.154 0.84399998
-0.163 0.15360001 0.84200001
-0.161 0.1531 0.83899999
-0.1592 0.15270001 0.83700001
-0.15719999 0.1521 0.83399999
-0.15549999 0.152 0.833
-0.1541 0.152 0.833
-0.153 0.1523 0.83499998
-0.1516 0.1523 0.83499998
-0.1503 0.1525 0.83600003
-0.14920001 0.1529 0.838
-0.1477 0.1529 0.838
-0.14650001 0.1531 0.83899999
-0.145 0.1531 0.83899999
-0.1437 0.1532 0.83999997
-0.14229999 0.1532 0.83999997
-0.14049999 0.1529 0.838
-0.1389 0.15270001 0.83700001
-0.1374 0.15270001 0.83700001
-0.1314 0.1525 0.83600003
-0.1305 0.1531 0.83899999
-0.1293 0.1534 0.84100002
-0.12819999 0.1538 0.84299999
-0.1269 0.154 0.84399998
-0.12549999 0.1541 0.84500003
-0.1241 0.1541 0.84500003
-0.1226 0.1541 0.84500003
-0.1194 0.1538 0.84299999
-0.1179 0.1538 0.84299999
-0.1162 0.1534 0.84100002
-0.1147 0.1534 0.84100002
-0.1133 0.1534 0.84100002
-0.1118 0.1534 0.84100002
-0.1104 0.1534 0.84100002
-0.1092 0.1538 0.84299999
-0.1078 0.154 0.84399998
-0.1061 0.15360001 0.84200001
-0.1026 0.15270001 0.83700001
-0.101 0.1525 0.83600003
-0.0995 0.1523 0.83499998
-0.096600004 0.1523 0.83499998
-0.095100001 0.1523 0.83499998
-0.093699999 0.1523 0.83499998
-0.092299998 0.1525 0.83600003
-0.090800002 0.1523 0.83499998
-0.089299999 0.1523 0.83499998
-0.087800004 0.1521 0.83399999
-0.086199999 0.152 0.833
-0.084700003 0.15180001 0.83200002
-0.0832 0.15180001 0.83200002
-0.081799999 0.15180001 0.83200002
-0.080300003 0.1516 0.83099997
-0.0788 0.1516 0.83099997
-0.077399999 0.1516 0.83099997
-0.075900003 0.1516 0.83099997
-0.074500002 0.1516 0.83099997
-0.073100001 0.15180001 0.83200002
-0.071599998 0.1516 0.83099997
-0.070299998 0.15180001 0.83200002
-0.068800002 0.15180001 0.83200002
-0.067400001 0.15180001 0.83200002
-0.065899998 0.15180001 0.83200002
-0.064400002 0.1516 0.83099997
-0.062899999 0.1514 0.82999998
-0.0601 0.16329999 0.89499998
-0.058600001 0.1635 0.89600003
-0.057 0.1635 0.89600003
-0.055599999 0.1638 0.898
-0.054099999 0.164 0.89899999
-0.052499998 0.164 0.89899999
-0.050999999 0.164 0.89899999
-0.049400002 0.1638 0.898
-0.047699999 0.1635 0.89600003
-0.0462 0.1635 0.89600003
-0.044599999 0.16329999 0.89499998
-0.043000001 0.1635 0.89600003
-0.0416 0.1638 0.898
-0.039999999 0.1638 0.898
-0.0385 0.1638 0.898
-0.036899999 0.1638 0.898
-0.035399999 0.164 0.89899999
-0.0339 0.16419999 0.89999998
-0.032299999 0.16419999 0.89999998
-0.0308 0.16419999 0.89999998
-0.029200001 0.1644 0.90100002
-0.0276 0.16419999 0.89999998
-0.0261 0.1644 0.90100002
-0.024499999 0.16419999 0.89999998
-0.0229 0.1638 0.898
-0.021400001 0.1638 0.898
-0.0198 0.1636 0.89700001
-0.018200001 0.1638 0.898
-0.0167 0.16419999 0.89999998
-0.0152 0.1644 0.90100002
-0.0136 0.1644 0.90100002
-0.0121 0.1645 0.90200001
-0.0105 0.1647 0.903
-0.0089999996 0.1647 0.903
-0.0074 0.1645 0.90200001
-0.0057999999 0.1645 0.90200001
-0.0043000001 0.1644 0.90100002
-0.0027000001 0.1644 0.90100002
-0.0011 0.1644 0.90100002
0.00039999999 0.16419999 0.89999998
0.0020000001 0.16419999 0.89999998
0.0035999999 0.16419999 0.89999998
0.0051000002 0.1638 0.898
0.0066 0.1635 0.89600003
0.0082 0.1635 0.89600003
0.0097000003 0.16329999 0.89499998
0.0113 0.16329999 0.89499998
0.0128 0.1631 0.89399999
0.0144 0.1635 0.89600003
0.016000001 0.16419999 0.89999998
0.0176 0.1644 0.90100002
0.019200001 0.1647 0.903
0.0208 0.1647 0.903
0.022299999 0.1647 0.903
0.0239 0.1645 0.90200001
0.0254 0.1644 0.90100002
0.026900001 0.16419999 0.89999998
0.0284 0.1638 0.898
0.029999999 0.1638 0.898
0.031599998 0.1638 0.898
0.033199999 0.164 0.89899999
0.034699999 0.16419999 0.89999998
0.036400001 0.1645 0.90200001
0.037999999 0.1647 0.903
0.039500002 0.1644 0.90100002
0.041000001 0.1644 0.90100002
0.042599998 0.1644 0.90100002
0.044199999 0.1644 0.90100002
0.045699999 0.1644 0.90100002
0.0473 0.1644 0.90100002
0.048900001 0.1645 0.90200001
0.064599998 0.1647 0.903
0.066200003 0.1649 0.90399998
0.067900002 0.16509999 0.90499997
0.069499999 0.1653 0.90600002
0.0713 0.1656 0.90799999
0.072999999 0.16599999 0.91000003
0.074600004 0.1662 0.91100001
0.086400002 0.1645 0.90200001
0.088100001 0.1647 0.903
0.091200002 0.1647 0.903
0.092900001 0.1649 0.90399998
0.094599999 0.1653 0.90600002
0.096299998 0.1655 0.90700001
0.0977 0.16509999 0.90499997
0.099200003 0.16509999 0.90499997
0.1008 0.16509999 0.90499997
0.1023 0.1649 0.90399998
0.1037 0.1647 0.903
0.1051 0.1644 0.90100002
0.1066 0.1644 0.90100002
0.1082 0.1644 0.90100002
0.1097 0.1644 0.90100002
0.1113 0.1644 0.90100002
0.113 0.1645 0.90200001
0.1162 0.1647 0.903
0.1178 0.1647 0.903
0.1209 0.1647 0.903
0.1241 0.1647 0.903
0.12549999 0.1645 0.90200001
0.1269 0.1644 0.90100002
0.1285 0.1644 0.90100002
0.13 0.1644 0.90100002
0.13160001 0.1644 0.90100002
0.13850001 0.16509999 0.90499997
0.14 0.16509999 0.90499997
0.1419 0.1655 0.90700001
0.1433 0.1653 0.90600002
0.14489999 0.1653 0.90600002
0.1479 0.16509999 0.90499997
0.1496 0.1653 0.90600002
0.1512 0.1653 0.90600002
0.1529 0.1655 0.90700001
0.1561 0.1655 0.90700001
0.1575 0.1653 0.90600002
0.15899999 0.1653 0.90600002
0.1604 0.16509999 0.90499997
0.162 0.16509999 0.90499997
0.1636 0.16509999 0.90499997
0.1653 0.1653 0.90600002
0.1672 0.1656 0.90799999
0.1692 0.16599999 0.91000003
0.1715 0.16670001 0.91399997
0.17389999 0.1675 0.91799998
0.17550001 0.1675 0.91799998
0.1767 0.1671 0.91600001
0.17749999 0.1664 0.912
0.1789 0.1662 0.91100001
0.1802 0.16599999 0.91000003
0.1816 0.16580001 0.90899998
0.18279999 0.1655 0.90700001
0.18440001 0.1655 0.90700001
-0.4208 0.16329999 0.88700002
-0.4188 0.16320001 0.88599998
-0.3994 0.1628 0.884
-0.39700001 0.16240001 0.88200003
-0.38100001 0.16410001 0.89099997
-0.37900001 0.1639 0.88999999
-0.37619999 0.16329999 0.88700002
-0.37419999 0.16320001 0.88599998
-0.3723 0.163 0.88499999
-0.37029999 0.1628 0.884
-0.36759999 0.1622 0.88099998
-0.36480001 0.1617 0.87800002
-0.35980001 0.16150001 0.87699997
-0.3493 0.163 0.88499999
-0.347 0.16329999 0.88700002
-0.34009999 0.163 0.88499999
-0.33849999 0.163 0.88499999
-0.33700001 0.163 0.88499999
-0.3351 0.1628 0.884
-0.329 0.1628 0.884
-0.32390001 0.16329999 0.88700002
-0.3204 0.1639 0.88999999
-0.3177 0.16410001 0.89099997
-0.29969999 0.1635 0.88800001
-0.29879999 0.1639 0.88999999
-0.29499999 0.1661 0.90200001
-0.29350001 0.1661 0.90200001
-0.29159999 0.16590001 0.90100002
-0.24680001 0.1663 0.903
-0.2447 0.16590001 0.90100002
-0.2432 0.16590001 0.90100002
-0.2413 0.1657 0.89999998
-0.23899999 0.1652 0.89700001
-0.23720001 0.16500001 0.89600003
-0.2353 0.1648 0.89499998
-0.23379999 0.1648 0.89499998
-0.23199999 0.1646 0.89399999
-0.2299 0.16429999 0.89200002
-0.2281 0.16410001 0.89099997
-0.22660001 0.16410001 0.89099997
-0.22499999 0.16410001 0.89099997
-0.2237 0.16429999 0.89200002
-0.22239999 0.1645 0.89300001
-0.22139999 0.1648 0.89499998
-0.22059999 0.1654 0.898
-0.21950001 0.1657 0.89999998
-0.21870001 0.1663 0.903
-0.2173 0.1665 0.90399998
-0.2163 0.16680001 0.90600002
-0.2149 0.167 0.90700001
-0.21359999 0.1672 0.90799999
-0.21250001 0.16760001 0.91000003
-0.2061 0.1663 0.903
-0.20389999 0.1657 0.89999998
-0.2017 0.1652 0.89700001
-0.19939999 0.1646 0.89399999
-0.19750001 0.16429999 0.89200002
-0.1955 0.1639 0.88999999
-0.1935 0.1635 0.88800001
-0.1919 0.1635 0.88800001
-0.1902 0.16329999 0.88700002
-0.1884 0.16320001 0.88599998
-0.1865 0.1628 0.884
-0.1847 0.1626 0.88300002
-0.18260001 0.1621 0.88
-0.1805 0.16150001 0.87699997
-0.1789 0.16150001 0.87699997
-0.17640001 0.16060001 0.87199998
-0.1655 0.156 0.847
-0.16320001 0.1552 0.84299999
-0.1608 0.1543 0.838
-0.15880001 0.1538 0.83499998
-0.15719999 0.15360001 0.83399999
-0.15549999 0.1534 0.833
-0.1543 0.15360001 0.83399999
-0.1532 0.154 0.83600003
-0.1521 0.1543 0.838
-0.1508 0.15449999 0.83899999
-0.1495 0.1547 0.83999997
-0.14830001 0.1549 0.84100002
-0.14659999 0.1547 0.83999997
-0.1452 0.1547 0.83999997
-0.1437 0.1547 0.83999997
-0.14210001 0.15449999 0.83899999
-0.14030001 0.1541 0.83700001
-0.13869999 0.154 0.83600003
-0.13259999 0.15360001 0.83399999
-0.1311 0.15360001 0.83399999
-0.1302 0.1541 0.83700001
-0.12899999 0.15449999 0.83899999
-0.1279 0.1549 0.84100002
-0.1269 0.15539999 0.84399998
-0.12549999 0.1556 0.84500003
-0.1242 0.1558 0.84600002
-0.1226 0.1556 0.84500003
-0.1195 0.15539999 0.84399998
-0.1181 0.15539999 0.84399998
-0.1165 0.1552 0.84299999
-0.115 0.1552 0.84299999
-0.1136 0.1552 0.84299999
-0.1121 0.1552 0.84299999
-0.1105 0.1551 0.84200001
-0.1092 0.1552 0.84299999
-0.1078 0.15539999 0.84399998
-0.099699996 0.1541 0.83700001
-0.090999998 0.1541 0.83700001
-0.089500003 0.1541 0.83700001
-0.087899998 0.1538 0.83499998
-0.086300001 0.15360001 0.83399999
-0.084799998 0.1534 0.833
-0.083300002 0.1534 0.833
-0.081799999 0.1532 0.83200002
-0.080300003 0.153 0.83099997
-0.078900002 0.1532 0.83200002
-0.077500001 0.1532 0.83200002
-0.075900003 0.153 0.83099997
-0.074500002 0.153 0.83099997
-0.073100001 0.153 0.83099997
-0.071599998 0.153 0.83099997
-0.070200004 0.153 0.83099997
-0.068700001 0.153 0.83099997
-0.067299999 0.153 0.83099997
-0.065899998 0.153 0.83099997
-0.064400002 0.153 0.83099997
-0.062799998 0.15270001 0.829
-0.061500002 0.1645 0.89300001
-0.0601 0.1648 0.89499998
-0.058499999 0.1648 0.89499998
-0.057 0.1648 0.89499998
-0.055500001 0.1652 0.89700001
-0.054000001 0.1654 0.898
-0.052499998 0.1654 0.898
-0.050900001 0.1654 0.898
-0.049400002 0.1654 0.898
-0.047699999 0.16500001 0.89600003
-0.0462 0.16500001 0.89600003
-0.044599999 0.16500001 0.89600003
-0.043000001 0.16500001 0.89600003
-0.0416 0.1654 0.898
-0.039999999 0.1654 0.898
-0.0385 0.1654 0.898
-0.036899999 0.1654 0.898
-0.035399999 0.1656 0.89899999
-0.0339 0.1657 0.89999998
-0.032400001 0.16590001 0.90100002
-0.0308 0.16590001 0.90100002
-0.029300001 0.1661 0.90200001
-0.0277 0.16590001 0.90100002
-0.0261 0.16590001 0.90100002
-0.024499999 0.1657 0.89999998
-0.0229 0.1654 0.898
-0.021299999 0.1652 0.89700001
-0.0198 0.16500001 0.89600003
-0.018200001 0.1652 0.89700001
-0.0167 0.1656 0.89899999
-0.0152 0.16590001 0.90100002
-0.0136 0.1661 0.90200001
-0.0121 0.1663 0.903
-0.0105 0.1665 0.90399998
-0.0089999996 0.1663 0.903
-0.0074 0.1663 0.903
-0.0057999999 0.1663 0.903
-0.0043000001 0.16590001 0.90100002
-0.0027000001 0.16590001 0.90100002
-0.0011 0.16590001 0.90100002
0.00039999999 0.1657 0.89999998
0.0020000001 0.1657 0.89999998
0.0035999999 0.1657 0.89999998
0.0051000002 0.1656 0.89899999
0.0066999998 0.1654 0.898
0.0082 0.1654 0.898
0.0098000001 0.1654 0.898
0.0113 0.1654 0.898
0.0129 0.1657 0.89999998
0.0145 0.1657 0.89999998
0.016000001 0.16590001 0.90100002
0.0176 0.1661 0.90200001
0.019200001 0.1663 0.903
0.0208 0.1663 0.903
0.022299999 0.1663 0.903
0.0239 0.16590001 0.90100002
0.0254 0.16590001 0.90100002
0.026900001 0.1657 0.89999998
0.0285 0.1656 0.89899999
0.029999999 0.1654 0.898
0.031599998 0.1654 0.898
0.033199999 0.1657 0.89999998
0.034699999 0.1657 0.89999998
0.0363 0.16590001 0.90100002
0.037999999 0.1661 0.90200001
0.039500002 0.16590001 0.90100002
0.041000001 0.16590001 0.90100002
0.0425 0.1657 0.89999998
0.044100001 0.1657 0.89999998
0.045699999 0.16590001 0.90100002
0.0473 0.1661 0.90200001
0.048900001 0.1661 0.90200001
0.050500002 0.1663 0.903
0.064599998 0.1663 0.903
0.066200003 0.1665 0.90399998
0.067900002 0.16670001 0.90499997
0.069499999 0.16680001 0.90600002
0.0713 0.1672 0.90799999
0.072999999 0.16760001 0.91000003
0.074600004 0.16779999 0.91100001
0.080899999 0.16760001 0.91000003
0.083700001 0.167 0.90700001
0.085100003 0.16670001 0.90499997
0.088299997 0.16670001 0.90499997
0.0898 0.16670001 0.90499997
0.093099996 0.16680001 0.90600002
0.094800003 0.167 0.90700001
0.096299998 0.167 0.90700001
0.097800002 0.16680001 0.90600002
0.099200003 0.16670001 0.90499997
0.1008 0.16670001 0.90499997
0.1023 0.1665 0.90399998
0.1081 0.1657 0.89999998
0.1113 0.16590001 0.90100002
0.1131 0.1663 0.903
0.1164 0.1665 0.90399998
0.1179 0.1665 0.90399998
0.1196 0.16670001 0.90499997
0.1209 0.1663 0.903
0.1226 0.1665 0.90399998
0.1241 0.1663 0.903
0.1256 0.1663 0.903
0.12710001 0.1661 0.90200001
0.1286 0.1661 0.90200001
0.13 0.16590001 0.90100002
0.13160001 0.16590001 0.90100002
0.1332 0.16590001 0.90100002
0.13850001 0.16670001 0.90499997
0.1418 0.16680001 0.90600002
0.1433 0.16680001 0.90600002
0.14470001 0.16670001 0.90499997
0.1463 0.16670001 0.90499997
0.1479 0.16670001 0.90499997
0.1494 0.16670001 0.90499997
0.15099999 0.16670001 0.90499997
0.15260001 0.16670001 0.90499997
0.1561 0.167 0.90700001
0.1575 0.16680001 0.90600002
0.15899999 0.16680001 0.90600002
0.1604 0.16670001 0.90499997
0.162 0.16670001 0.90499997
0.1636 0.16670001 0.90499997
0.1655 0.167 0.90700001
0.1674 0.1674 0.90899998
0.1696 0.168 0.912
0.1717 0.16850001 0.91500002
0.17649999 0.16850001 0.91500002
0.17749999 0.168 0.912
0.1787 0.16760001 0.91000003
0.1798 0.1672 0.90799999
0.1814 0.1672 0.90799999
0.18279999 0.167 0.90700001
-0.42289999 0.1645 0.88499999
-0.42089999 0.16429999 0.884
-0.41980001 0.1645 0.88499999
-0.4183 0.1645 0.88499999
-0.4145 0.1654 0.88999999
-0.37900001 0.1654 0.88999999
-0.3766 0.16509999 0.88800001
-0.37470001 0.1649 0.88700002
-0.3723 0.1645 0.88499999
-0.37029999 0.16429999 0.884
-0.36759999 0.1638 0.88099998
-0.36480001 0.16320001 0.87800002
-0.3628 0.163 0.87699997
-0.35530001 0.1638 0.88099998
-0.35420001 0.164 0.88200003
-0.35159999 0.1649 0.88700002
-0.35010001 0.1649 0.88700002
-0.34889999 0.16509999 0.88800001
-0.34740001 0.16509999 0.88800001
-0.34549999 0.1649 0.88700002
-0.34240001 0.1649 0.88700002
-0.3405 0.1647 0.88599998
-0.32539999 0.1656 0.89099997
-0.32350001 0.1654 0.88999999
-0.29969999 0.16509999 0.88800001
-0.29879999 0.1654 0.88999999
-0.29750001 0.1673 0.89999998
-0.29440001 0.1673 0.89999998
-0.29280001 0.1673 0.89999998
-0.2913 0.1673 0.89999998
-0.24529999 0.1679 0.903
-0.24339999 0.16769999 0.90200001
-0.24160001 0.1675 0.90100002
-0.2392 0.16689999 0.898
-0.23720001 0.1666 0.89600003
-0.2353 0.1664 0.89499998
-0.23379999 0.1664 0.89499998
-0.23199999 0.1662 0.89399999
-0.2299 0.16580001 0.89200002
-0.2281 0.1656 0.89099997
-0.22660001 0.1656 0.89099997
-0.2235 0.1656 0.89099997
-0.2209 0.16599999 0.89300001
-0.2201 0.1666 0.89600003
-0.219 0.16689999 0.898
-0.21789999 0.1673 0.89999998
-0.21709999 0.1679 0.903
-0.21600001 0.1682 0.90499997
-0.2147 0.1684 0.90600002
-0.2133 0.16859999 0.90700001
-0.2066 0.1682 0.90499997
-0.20389999 0.1673 0.89999998
-0.20190001 0.16689999 0.898
-0.1997 0.1664 0.89499998
-0.19750001 0.16580001 0.89200002
-0.1955 0.1654 0.88999999
-0.1937 0.1653 0.889
-0.1919 0.16509999 0.88800001
-0.1902 0.1649 0.88700002
-0.18870001 0.1649 0.88700002
-0.1867 0.1645 0.88499999
-0.18520001 0.1645 0.88499999
-0.18340001 0.16429999 0.884
-0.1815 0.164 0.88200003
-0.1806 0.1645 0.88499999
-0.17900001 0.1645 0.88499999
-0.17749999 0.1645 0.88499999
-0.176 0.1645 0.88499999
-0.1732 0.16339999 0.87900001
-0.16060001 0.1556 0.83700001
-0.15800001 0.15449999 0.83099997
-0.1568 0.1547 0.83200002
-0.1551 0.15449999 0.83099997
-0.1541 0.1548 0.833
-0.153 0.1552 0.83499998
-0.1523 0.156 0.83899999
-0.1512 0.15629999 0.84100002
-0.1503 0.1569 0.84399998
-0.1488 0.1569 0.84399998
-0.1472 0.1567 0.84299999
-0.14569999 0.1567 0.84299999
-0.14390001 0.15629999 0.84100002
-0.1424 0.15629999 0.84100002
-0.1406 0.156 0.83899999
-0.1389 0.1556 0.83700001
-0.1371 0.1552 0.83499998
-0.13240001 0.1548 0.833
-0.131 0.1548 0.833
-0.13 0.15539999 0.83600003
-0.12899999 0.156 0.83899999
-0.127 0.15710001 0.84500003
-0.1257 0.1573 0.84600002
-0.1242 0.1573 0.84600002
-0.1228 0.1573 0.84600002
-0.1182 0.15710001 0.84500003
-0.1168 0.15710001 0.84500003
-0.1153 0.15710001 0.84500003
-0.1137 0.1569 0.84399998
-0.1122 0.1569 0.84399998
-0.1105 0.1565 0.84200001
-0.1092 0.1567 0.84299999
-0.1077 0.1567 0.84299999
-0.106 0.15629999 0.84100002
-0.1043 0.156 0.83899999
-0.1027 0.1558 0.838
-0.098200001 0.1556 0.83700001
-0.096900001 0.1558 0.838
-0.0955 0.1558 0.838
-0.093999997 0.1558 0.838
-0.091200002 0.156 0.83899999
-0.086400002 0.1552 0.83499998
-0.084799998 0.1548 0.833
-0.081699997 0.15449999 0.83099997
-0.080300003 0.15449999 0.83099997
-0.078900002 0.1547 0.83200002
-0.077500001 0.1547 0.83200002
-0.075900003 0.15449999 0.83099997
-0.074500002 0.15449999 0.83099997
-0.073100001 0.1547 0.83200002
-0.071599998 0.15449999 0.83099997
-0.070299998 0.1547 0.83200002
-0.068700001 0.15449999 0.83099997
-0.067299999 0.15449999 0.83099997
-0.065899998 0.15449999 0.83099997
-0.064400002 0.15449999 0.83099997
-0.062899999 0.1543 0.82999998
-0.061299998 0.1656 0.89099997
-0.059999999 0.1662 0.89399999
-0.058499999 0.1664 0.89499998
-0.056899998 0.1662 0.89399999
-0.055399999 0.1664 0.89499998
-0.0539 0.1666 0.89600003
-0.0524 0.16670001 0.89700001
-0.050799999 0.1666 0.89600003
-0.049199998 0.1664 0.89499998
-0.047499999 0.16599999 0.89300001
-0.046 0.16599999 0.89300001
-0.044500001 0.1662 0.89399999
-0.043000001 0.1662 0.89399999
-0.041499998 0.1664 0.89499998
-0.039900001 0.1666 0.89600003
-0.0385 0.16689999 0.898
-0.036899999 0.16689999 0.898
-0.035399999 0.1673 0.89999998
-0.0339 0.1673 0.89999998
-0.032400001 0.1675 0.90100002
-0.0309 0.1679 0.903
-0.029300001 0.1679 0.903
-0.0277 0.1679 0.903
-0.0262 0.1679 0.903
-0.024599999 0.1675 0.90100002
-0.023 0.1673 0.89999998
-0.021400001 0.1671 0.89899999
-0.0198 0.16689999 0.898
-0.018300001 0.1671 0.89899999
-0.0152 0.16769999 0.90200001
-0.0137 0.1679 0.903
-0.0121 0.168 0.90399998
-0.0105 0.1682 0.90499997
-0.0089999996 0.168 0.90399998
-0.0074 0.1679 0.903
-0.0057999999 0.1679 0.903
-0.0043000001 0.16769999 0.90200001
-0.0027000001 0.1675 0.90100002
-0.0011 0.1673 0.89999998
0.00039999999 0.1673 0.89999998
0.0020000001 0.1671 0.89899999
0.0035000001 0.16689999 0.898
0.0051000002 0.16689999 0.898
0.0082 0.1671 0.89899999
0.0145 0.1675 0.90100002
0.016100001 0.16769999 0.90200001
0.0176 0.1679 0.903
0.019200001 0.1679 0.903
0.0208 0.1679 0.903
0.022299999 0.16769999 0.90200001
0.0239 0.1675 0.90100002
0.0254 0.1673 0.89999998
0.026900001 0.1671 0.89899999
0.0284 0.16670001 0.89700001
0.029899999 0.1666 0.89600003
0.031500001 0.16670001 0.89700001
0.033100002 0.16689999 0.898
0.034699999 0.1671 0.89899999
0.0363 0.1673 0.89999998
0.037900001 0.1673 0.89999998
0.0394 0.1673 0.89999998
0.040899999 0.1671 0.89899999
0.0425 0.16689999 0.898
0.044100001 0.1671 0.89899999
0.045699999 0.1673 0.89999998
0.0473 0.1675 0.90100002
0.048900001 0.16769999 0.90200001
0.050500002 0.1679 0.903
0.063100003 0.168 0.90399998
0.0647 0.168 0.90399998
0.066200003 0.168 0.90399998
0.067900002 0.1682 0.90499997
0.069399998 0.1682 0.90499997
0.071199998 0.16859999 0.90700001
0.072800003 0.1688 0.90799999
0.074600004 0.1692 0.91000003
0.076200001 0.1693 0.91100001
0.077699997 0.1692 0.91000003
0.079300001 0.1692 0.91000003
0.081 0.1693 0.91100001
0.082400002 0.169 0.90899998
0.083700001 0.16859999 0.90700001
0.085199997 0.1684 0.90600002
0.0867 0.1682 0.90499997
0.091300003 0.168 0.90399998
0.093000002 0.1682 0.90499997
0.094800003 0.16859999 0.90700001
0.096299998 0.16859999 0.90700001
0.097800002 0.1684 0.90600002
0.099200003 0.1682 0.90499997
0.1008 0.1682 0.90499997
0.1024 0.1682 0.90499997
0.1037 0.1679 0.903
0.1051 0.1675 0.90100002
0.1114 0.16769999 0.90200001
0.1131 0.1679 0.903
0.1149 0.1682 0.90499997
0.1165 0.1682 0.90499997
0.1181 0.1682 0.90499997
0.1212 0.1682 0.90499997
0.1228 0.1682 0.90499997
0.1243 0.1682 0.90499997
0.1259 0.1682 0.90499997
0.12729999 0.168 0.90399998
0.1288 0.1679 0.903
0.1303 0.1679 0.903
0.13169999 0.16769999 0.90200001
0.13330001 0.16769999 0.90200001
0.1366 0.1679 0.903
0.1399 0.168 0.90399998
0.1416 0.1682 0.90499997
0.1432 0.1682 0.90499997
0.1444 0.1679 0.903
0.146 0.1679 0.903
0.14749999 0.1679 0.903
0.14910001 0.1679 0.903
0.1507 0.1679 0.903
0.1524 0.168 0.90399998
0.1541 0.1682 0.90499997
0.1561 0.16859999 0.90700001
0.1575 0.1684 0.90600002
0.1592 0.16859999 0.90700001
0.1604 0.1682 0.90499997
0.162 0.1682 0.90499997
0.1637 0.1684 0.90600002
0.1655 0.16859999 0.90700001
0.1674 0.169 0.90899998
0.1696 0.16949999 0.912
0.1715 0.1699 0.91399997
0.17730001 0.1693 0.91100001
0.1787 0.1692 0.91000003
0.1798 0.1688 0.90799999
0.1814 0.1688 0.90799999
-0.41940001 0.16590001 0.884
-0.3766 0.1666 0.88800001
-0.37470001 0.1664 0.88700002
-0.37189999 0.16590001 0.884
-0.36989999 0.1657 0.88300002
-0.36759999 0.1653 0.88099998
-0.36480001 0.1647 0.87800002
-0.35609999 0.1649 0.87900001
-0.3547 0.1664 0.88700002
-0.35389999 0.16680001 0.889
-0.35280001 0.167 0.88999999
-0.3513 0.167 0.88999999
-0.3497 0.167 0.88999999
-0.34819999 0.167 0.88999999
-0.3459 0.1666 0.88800001
-0.3443 0.1666 0.88800001
-0.34240001 0.1664 0.88700002
-0.3405 0.1662 0.88599998
-0.3389 0.1662 0.88599998
-0.33239999 0.16599999 0.88499999
-0.32800001 0.16769999 0.89399999
-0.32609999 0.1675 0.89300001
-0.30039999 0.167 0.88999999
-0.29949999 0.1674 0.89200002
-0.29809999 0.1683 0.89700001
-0.29530001 0.16850001 0.898
-0.29339999 0.1683 0.89700001
-0.29179999 0.1683 0.89700001
-0.2906 0.16850001 0.898
-0.28999999 0.169 0.90100002
-0.24529999 0.16940001 0.903
-0.2432 0.169 0.90100002
-0.2413 0.1689 0.89999998
-0.2387 0.1681 0.89600003
-0.2369 0.1679 0.89499998
-0.2353 0.1679 0.89499998
-0.23379999 0.1679 0.89499998
-0.23199999 0.16769999 0.89399999
-0.2299 0.1674 0.89200002
-0.2281 0.1672 0.89099997
-0.22660001 0.1672 0.89099997
-0.22499999 0.1672 0.89099997
-0.2235 0.1672 0.89099997
-0.2219 0.1672 0.89099997
-0.2209 0.1675 0.89300001
-0.2198 0.1679 0.89499998
-0.2185 0.1681 0.89600003
-0.21789999 0.1689 0.89999998
-0.21709999 0.16940001 0.903
-0.2163 0.17 0.90600002
-0.20299999 0.16940001 0.903
-0.2008 0.1689 0.89999998
-0.1988 0.16850001 0.898
-0.1961 0.1675 0.89300001
-0.1946 0.1675 0.89300001
-0.1928 0.1674 0.89200002
-0.1911 0.1672 0.89099997
-0.1895 0.1672 0.89099997
-0.18780001 0.167 0.88999999
-0.18619999 0.167 0.88999999
-0.1847 0.167 0.88999999
-0.18269999 0.1666 0.88800001
-0.1812 0.1666 0.88800001
-0.1796 0.1666 0.88800001
-0.1781 0.1666 0.88800001
-0.17659999 0.1666 0.88800001
-0.15459999 0.1584 0.84399998
-0.15350001 0.1587 0.84600002
-0.1524 0.1591 0.84799999
-0.15099999 0.1591 0.84799999
-0.14910001 0.1587 0.84600002
-0.1477 0.1587 0.84600002
-0.1459 0.1584 0.84399998
-0.1444 0.1584 0.84399998
-0.1429 0.1584 0.84399998
-0.141 0.1578 0.84100002
-0.1355 0.1565 0.83399999
-0.1339 0.15629999 0.833
-0.131 0.15629999 0.833
-0.12970001 0.1565 0.83399999
-0.12890001 0.15719999 0.838
-0.12819999 0.1582 0.84299999
-0.127 0.1585 0.84500003
-0.1257 0.1587 0.84600002
-0.1228 0.1587 0.84600002
-0.1213 0.1587 0.84600002
-0.1197 0.1585 0.84500003
-0.1181 0.1584 0.84399998
-0.1166 0.1584 0.84399998
-0.1106 0.1582 0.84299999
-0.1093 0.1584 0.84399998
-0.108 0.1585 0.84500003
-0.1043 0.1574 0.83899999
-0.098099999 0.1569 0.83600003
-0.0898 0.1574 0.83899999
-0.084700003 0.1561 0.83200002
-0.080300003 0.1559 0.83099997
-0.078900002 0.1561 0.83200002
-0.077500001 0.1561 0.83200002
-0.075999998 0.1561 0.83200002
-0.074600004 0.1561 0.83200002
-0.073100001 0.1561 0.83200002
-0.071599998 0.1559 0.83099997
-0.070299998 0.1561 0.83200002
-0.068700001 0.1559 0.83099997
-0.0623 0.1657 0.88300002
-0.061299998 0.167 0.88999999
-0.059799999 0.1672 0.89099997
-0.0583 0.1674 0.89200002
-0.0568 0.1675 0.89300001
-0.055300001 0.16769999 0.89399999
-0.0539 0.1679 0.89499998
-0.052299999 0.16769999 0.89399999
-0.0506 0.1675 0.89300001
-0.0491 0.1675 0.89300001
-0.047400001 0.1672 0.89099997
-0.045899998 0.1672 0.89099997
-0.044399999 0.1672 0.89099997
-0.042800002 0.1672 0.89099997
-0.0414 0.1675 0.89300001
-0.039900001 0.1679 0.89499998
-0.038400002 0.1683 0.89700001
-0.036899999 0.16850001 0.898
-0.035399999 0.16869999 0.89899999
-0.0339 0.1689 0.89999998
-0.032400001 0.169 0.90100002
-0.0308 0.169 0.90100002
-0.029300001 0.16940001 0.903
-0.0277 0.1692 0.90200001
-0.0261 0.1692 0.90200001
-0.024599999 0.169 0.90100002
-0.023 0.169 0.90100002
-0.021400001 0.1689 0.89999998
-0.0198 0.1689 0.89999998
-0.018300001 0.1689 0.89999998
-0.016799999 0.1692 0.90200001
-0.0137 0.1698 0.90499997
-0.0106 0.17 0.90600002
-0.0089999996 0.1698 0.90499997
-0.0074 0.1698 0.90499997
-0.0057999999 0.16940001 0.903
-0.0043000001 0.16940001 0.903
-0.0027000001 0.1692 0.90200001
-0.0011 0.169 0.90100002
0.00039999999 0.1689 0.89999998
0.0020000001 0.1689 0.89999998
0.0035000001 0.16850001 0.898
0.0051000002 0.16850001 0.898
0.0066999998 0.16850001 0.898
0.0114 0.1689 0.89999998
0.0129 0.169 0.90100002
0.0145 0.1692 0.90200001
0.016100001 0.16940001 0.903
0.019200001 0.1696 0.90399998
0.0208 0.1696 0.90399998
0.022299999 0.16940001 0.903
0.0239 0.1692 0.90200001
0.0254 0.169 0.90100002
0.026900001 0.1689 0.89999998
0.0284 0.16850001 0.898
0.029999999 0.1683 0.89700001
0.031500001 0.1683 0.89700001
0.033100002 0.16850001 0.898
0.034699999 0.16850001 0.898
0.036200002 0.16850001 0.898
0.037799999 0.16850001 0.898
0.0394 0.16869999 0.89899999
0.040899999 0.16869999 0.89899999
0.0425 0.16850001 0.898
0.044100001 0.16869999 0.89899999
0.045699999 0.169 0.90100002
0.0473 0.169 0.90100002
0.048900001 0.1692 0.90200001
0.050500002 0.1692 0.90200001
0.052099999 0.16940001 0.903
0.0537 0.1696 0.90399998
0.059999999 0.1698 0.90499997
0.061500002 0.1696 0.90399998
0.063100003 0.1696 0.90399998
0.064599998 0.16940001 0.903
0.066200003 0.16940001 0.903
0.0678 0.1696 0.90399998
0.069399998 0.1698 0.90499997
0.071199998 0.17020001 0.90700001
0.072800003 0.17039999 0.90799999
0.074500002 0.1705 0.90899998
0.076099999 0.1707 0.91000003
0.077500001 0.17039999 0.90799999
0.079099998 0.17039999 0.90799999
0.080700003 0.17039999 0.90799999
0.082199998 0.17020001 0.90700001
0.083700001 0.17 0.90600002
0.085100003 0.1698 0.90499997
0.0867 0.1698 0.90499997
0.0898 0.1698 0.90499997
0.092900001 0.1696 0.90399998
0.094499998 0.1698 0.90499997
0.096199997 0.17 0.90600002
0.0977 0.1698 0.90499997
0.099200003 0.1698 0.90499997
0.1008 0.1698 0.90499997
0.1024 0.1698 0.90499997
0.1037 0.16940001 0.903
0.1051 0.169 0.90100002
0.1066 0.169 0.90100002
0.1131 0.16940001 0.903
0.1166 0.17 0.90600002
0.1198 0.17 0.90600002
0.1213 0.17 0.90600002
0.1229 0.17 0.90600002
0.1243 0.1698 0.90499997
0.1259 0.1698 0.90499997
0.1275 0.1698 0.90499997
0.12909999 0.1698 0.90499997
0.1305 0.1696 0.90399998
0.1319 0.16940001 0.903
0.13349999 0.16940001 0.903
0.1349 0.1692 0.90200001
0.1397 0.16940001 0.903
0.14129999 0.16940001 0.903
0.1428 0.16940001 0.903
0.1444 0.16940001 0.903
0.14579999 0.1692 0.90200001
0.14740001 0.1692 0.90200001
0.1489 0.1692 0.90200001
0.1505 0.1692 0.90200001
0.1522 0.16940001 0.903
0.154 0.1696 0.90399998
0.1557 0.1698 0.90499997
0.1575 0.17 0.90600002
0.1592 0.17020001 0.90700001
0.1608 0.17020001 0.90700001
0.16230001 0.17020001 0.90700001
0.1639 0.17020001 0.90700001
0.1657 0.17039999 0.90799999
0.16760001 0.1707 0.91000003
0.16940001 0.1709 0.91100001
0.17129999 0.17129999 0.91299999
-0.3723 0.16760001 0.88499999
-0.37029999 0.1674 0.884
-0.36759999 0.16680001 0.88099998
-0.3624 0.16590001 0.87599999
-0.3554 0.16760001 0.88499999
-0.35510001 0.1681 0.88800001
-0.35389999 0.1683 0.889
-0.35280001 0.16850001 0.88999999
-0.3513 0.16850001 0.88999999
-0.3497 0.16850001 0.88999999
-0.34819999 0.16850001 0.88999999
-0.3459 0.1681 0.88800001
-0.34240001 0.168 0.88700002
-0.3405 0.16779999 0.88599998
-0.33239999 0.16760001 0.88499999
-0.33129999 0.16779999 0.88599998
-0.3017 0.1693 0.89399999
-0.29929999 0.1697 0.89600003
-0.29769999 0.1697 0.89600003
-0.2965 0.1699 0.89700001
-0.29460001 0.1697 0.89600003
-0.2924 0.1693 0.89399999
-0.29049999 0.1691 0.89300001
-0.28960001 0.16949999 0.89499998
-0.28870001 0.1699 0.89700001
-0.24529999 0.171 0.903
-0.2432 0.1706 0.90100002
-0.2411 0.17020001 0.89899999
-0.2387 0.1697 0.89600003
-0.2369 0.16949999 0.89499998
-0.2351 0.1693 0.89399999
-0.2335 0.1693 0.89399999
-0.2317 0.1691 0.89300001
-0.2279 0.16850001 0.88999999
-0.2235 0.16869999 0.89099997
-0.2219 0.16869999 0.89099997
-0.2209 0.1691 0.89300001
-0.2198 0.16949999 0.89499998
-0.2183 0.16949999 0.89499998
-0.2175 0.17 0.898
-0.2166 0.1706 0.90100002
-0.21600001 0.1714 0.90499997
-0.2035 0.1714 0.90499997
-0.20119999 0.1708 0.90200001
-0.199 0.17020001 0.89899999
-0.19660001 0.16949999 0.89499998
-0.1948 0.1693 0.89399999
-0.193 0.1691 0.89300001
-0.19149999 0.1691 0.89300001
-0.1899 0.1691 0.89300001
-0.1884 0.1691 0.89300001
-0.18700001 0.1693 0.89399999
-0.1857 0.16949999 0.89499998
-0.184 0.1693 0.89399999
-0.1822 0.1691 0.89300001
-0.1798 0.1683 0.889
-0.1781 0.1681 0.88800001
-0.1768 0.1683 0.889
-0.161 0.168 0.88700002
-0.1489 0.16150001 0.85299999
-0.1435 0.1604 0.847
-0.131 0.1577 0.833
-0.13 0.1583 0.83600003
-0.1292 0.1591 0.83999997
-0.1285 0.16 0.84500003
-0.12729999 0.1604 0.847
-0.1258 0.1604 0.847
-0.1245 0.16060001 0.84799999
-0.1214 0.1604 0.847
-0.1182 0.16 0.84500003
-0.1168 0.16 0.84500003
-0.1077 0.1596 0.84299999
-0.098099999 0.1583 0.83600003
-0.096900001 0.1587 0.838
-0.095600002 0.15889999 0.83899999
-0.092699997 0.15889999 0.83899999
-0.091300003 0.1591 0.83999997
-0.0898 0.15889999 0.83899999
-0.086400002 0.15809999 0.83499998
-0.084899999 0.15790001 0.83399999
-0.083300002 0.1577 0.833
-0.081799999 0.1575 0.83200002
-0.079000004 0.1577 0.833
-0.077600002 0.1577 0.833
-0.076099999 0.1577 0.833
-0.074600004 0.1575 0.83200002
-0.073200002 0.1577 0.833
-0.071699999 0.1575 0.83200002
-0.070299998 0.1577 0.833
-0.068899997 0.1577 0.833
-0.063900001 0.1672 0.88300002
-0.062700003 0.1681 0.88800001
-0.061500002 0.1691 0.89300001
-0.0601 0.16949999 0.89499998
-0.058600001 0.1697 0.89600003
-0.057 0.16949999 0.89499998
-0.055300001 0.1693 0.89399999
-0.053800002 0.1693 0.89399999
-0.052200001 0.1691 0.89300001
-0.050500002 0.16869999 0.89099997
-0.048900001 0.16850001 0.88999999
-0.0473 0.1683 0.889
-0.045699999 0.1681 0.88800001
-0.044300001 0.1683 0.889
-0.042800002 0.16850001 0.88999999
-0.041299999 0.16869999 0.89099997
-0.039900001 0.16949999 0.89499998
-0.0385 0.17 0.898
-0.036899999 0.17 0.898
-0.035399999 0.17039999 0.89999998
-0.0339 0.1706 0.90100002
-0.032400001 0.1706 0.90100002
-0.0309 0.171 0.903
-0.029300001 0.171 0.903
-0.0277 0.171 0.903
-0.0261 0.1708 0.90200001
-0.024599999 0.1708 0.90200001
-0.023 0.1706 0.90100002
-0.021400001 0.1706 0.90100002
-0.0198 0.17039999 0.89999998
-0.018300001 0.1706 0.90100002
-0.016799999 0.171 0.903
-0.0152 0.1714 0.90499997
-0.0137 0.1714 0.90499997
-0.0121 0.1716 0.90600002
-0.0106 0.1716 0.90600002
-0.0089999996 0.1714 0.90499997
-0.0074 0.1714 0.90499997
-0.0057999999 0.171 0.903
-0.0043000001 0.1706 0.90100002
-0.0027000001 0.1706 0.90100002
-0.0011 0.17039999 0.89999998
0.00039999999 0.17039999 0.89999998
0.0020000001 0.17039999 0.89999998
0.0035000001 0.17 0.898
0.0051000002 0.17020001 0.89899999
0.0066999998 0.17020001 0.89899999
0.0082 0.17039999 0.89999998
0.0098000001 0.17039999 0.89999998
0.0129 0.1706 0.90100002
0.0208 0.171 0.903
0.022299999 0.171 0.903
0.0254 0.1706 0.90100002
0.026900001 0.17039999 0.89999998
0.0285 0.17020001 0.89899999
0.029999999 0.1699 0.89700001
0.031500001 0.1699 0.89700001
0.033 0.1697 0.89600003
0.034600001 0.1697 0.89600003
0.036200002 0.1699 0.89700001
0.037799999 0.17 0.898
0.0394 0.17039999 0.89999998
0.041000001 0.17039999 0.89999998
0.0425 0.17039999 0.89999998
0.044100001 0.17039999 0.89999998
0.045699999 0.1706 0.90100002
0.0473 0.1706 0.90100002
0.048799999 0.1706 0.90100002
0.0504 0.1706 0.90100002
0.052000001 0.1706 0.90100002
0.053599998 0.171 0.903
0.055199999 0.171 0.903
0.0568 0.171 0.903
0.0583 0.171 0.903
0.059999999 0.17120001 0.90399998
0.061500002 0.17120001 0.90399998
0.063199997 0.1714 0.90499997
0.0647 0.17120001 0.90399998
0.066200003 0.17120001 0.90399998
0.067900002 0.1714 0.90499997
0.069499999 0.1716 0.90600002
0.071199998 0.1717 0.90700001
0.072800003 0.1719 0.90799999
0.0744 0.1719 0.90799999
0.076099999 0.17209999 0.90899998
0.077500001 0.1719 0.90799999
0.079099998 0.1719 0.90799999
0.080600001 0.1717 0.90700001
0.082099997 0.1716 0.90600002
0.0836 0.1714 0.90499997
0.085000001 0.17120001 0.90399998
0.086599998 0.17120001 0.90399998
0.089699998 0.17120001 0.90399998
0.091200002 0.171 0.903
0.092799999 0.171 0.903
0.094499998 0.1714 0.90499997
0.096100003 0.1714 0.90499997
0.0977 0.1714 0.90499997
0.099200003 0.1714 0.90499997
0.1008 0.1714 0.90499997
0.1023 0.17120001 0.90399998
0.1037 0.171 0.903
0.1051 0.1706 0.90100002
0.1065 0.17039999 0.89999998
0.1149 0.1714 0.90499997
0.1165 0.1714 0.90499997
0.1182 0.1716 0.90600002
0.1198 0.1716 0.90600002
0.1213 0.1716 0.90600002
0.1245 0.1716 0.90600002
0.1259 0.1714 0.90499997
0.1275 0.1714 0.90499997
0.12909999 0.1714 0.90499997
0.1305 0.17120001 0.90399998
0.1319 0.171 0.903
0.13959999 0.1708 0.90200001
0.1411 0.1708 0.90200001
0.1428 0.171 0.903
0.1443 0.1708 0.90200001
0.14569999 0.1706 0.90100002
0.1472 0.1706 0.90100002
0.1488 0.1706 0.90100002
0.1503 0.1706 0.90100002
0.1522 0.171 0.903
0.154 0.17120001 0.90399998
0.1557 0.1714 0.90499997
0.1576 0.1717 0.90700001
0.1592 0.1717 0.90700001
0.1608 0.1717 0.90700001
0.16230001 0.1717 0.90700001
0.1639 0.1717 0.90700001
0.1657 0.1719 0.90799999
0.1674 0.17209999 0.90899998
0.169 0.17209999 0.90899998
0.1708 0.1723 0.91000003
-0.36160001 0.167 0.87400001
-0.35929999 0.1666 0.87199998
-0.3558 0.1693 0.88599998
-0.35510001 0.1697 0.88800001
-0.35429999 0.1701 0.88999999
-0.35280001 0.1701 0.88999999
-0.3513 0.1701 0.88999999
-0.3497 0.1701 0.88999999
-0.34819999 0.1701 0.88999999
-0.3459 0.1697 0.88800001
-0.3439 0.16949999 0.88700002
-0.34200001 0.1693 0.88599998
-0.34009999 0.1691 0.88499999
-0.33849999 0.1691 0.88499999
-0.33090001 0.1691 0.88499999
-0.32890001 0.1697 0.88800001
-0.30149999 0.1716 0.898
-0.29960001 0.1714 0.89700001
-0.29460001 0.17120001 0.89600003
-0.29269999 0.171 0.89499998
-0.29120001 0.171 0.89499998
-0.28999999 0.17120001 0.89600003
-0.28839999 0.17120001 0.89600003
-0.2429 0.17200001 0.89999998
-0.24079999 0.1716 0.898
-0.2384 0.171 0.89499998
-0.23639999 0.1706 0.89300001
-0.2351 0.1708 0.89399999
-0.2333 0.1706 0.89300001
-0.2315 0.1705 0.89200002
-0.2297 0.17030001 0.89099997
-0.22660001 0.17030001 0.89099997
-0.2253 0.1705 0.89200002
-0.22400001 0.1706 0.89300001
-0.22139999 0.171 0.89499998
-0.2201 0.17120001 0.89600003
-0.21879999 0.1714 0.89700001
-0.2177 0.1718 0.89899999
-0.2164 0.17200001 0.89999998
-0.20190001 0.17290001 0.90499997
-0.19939999 0.17219999 0.90100002
-0.1972 0.1716 0.898
-0.19499999 0.171 0.89499998
-0.1935 0.171 0.89499998
-0.1919 0.171 0.89499998
-0.1877 0.1714 0.89700001
-0.1848 0.1716 0.898
-0.1832 0.1716 0.898
-0.1811 0.171 0.89499998
-0.17910001 0.1706 0.89300001
-0.1776 0.1706 0.89300001
-0.131 0.1592 0.833
-0.1303 0.1601 0.838
-0.1296 0.1611 0.84299999
-0.1288 0.1619 0.847
-0.1275 0.162 0.84799999
-0.126 0.162 0.84799999
-0.1245 0.162 0.84799999
-0.1182 0.16150001 0.84500003
-0.1168 0.16150001 0.84500003
-0.1106 0.1611 0.84299999
-0.1089 0.16069999 0.84100002
-0.1073 0.1605 0.83999997
-0.104 0.15989999 0.83700001
-0.1023 0.1596 0.83499998
-0.099299997 0.1594 0.83399999
-0.097999997 0.1596 0.83499998
-0.096799999 0.15989999 0.83700001
-0.0955 0.1601 0.838
-0.093999997 0.1601 0.838
-0.092500001 0.1601 0.838
-0.0911 0.1601 0.838
-0.089500003 0.15989999 0.83700001
-0.088 0.15979999 0.83600003
-0.086400002 0.1596 0.83499998
-0.085000001 0.1596 0.83499998
-0.083400004 0.1594 0.83399999
-0.081900001 0.1592 0.833
-0.080499999 0.1594 0.83399999
-0.079099998 0.1594 0.83399999
-0.077699997 0.1594 0.83399999
-0.076200001 0.1594 0.83399999
-0.074699998 0.1592 0.833
-0.073299997 0.1594 0.83399999
-0.070500001 0.1596 0.83499998
-0.065200001 0.1684 0.88099998
-0.064000003 0.1691 0.88499999
-0.0625 0.1691 0.88499999
-0.061099999 0.16949999 0.88700002
-0.059599999 0.1697 0.88800001
-0.052000001 0.1701 0.88999999
-0.050500002 0.1701 0.88999999
-0.048799999 0.1697 0.88800001
-0.0473 0.1697 0.88800001
-0.045699999 0.1697 0.88800001
-0.044300001 0.1699 0.889
-0.0427 0.1699 0.889
-0.041299999 0.17030001 0.89099997
-0.039900001 0.171 0.89499998
-0.038400002 0.1714 0.89700001
-0.037 0.1718 0.89899999
-0.035399999 0.17200001 0.89999998
-0.0339 0.17219999 0.90100002
-0.032400001 0.1726 0.903
-0.0309 0.1726 0.903
-0.029300001 0.1727 0.90399998
-0.027799999 0.1727 0.90399998
-0.0262 0.1726 0.903
-0.024599999 0.1727 0.90399998
-0.023 0.1726 0.903
-0.021500001 0.1724 0.90200001
-0.0199 0.17219999 0.90100002
-0.018300001 0.1724 0.90200001
-0.0153 0.17309999 0.90600002
-0.0137 0.17290001 0.90499997
-0.0121 0.17309999 0.90600002
-0.0105 0.17290001 0.90499997
-0.0089999996 0.17290001 0.90499997
-0.0074 0.1727 0.90399998
-0.0057999999 0.1724 0.90200001
-0.0043000001 0.17219999 0.90100002
-0.0027000001 0.17219999 0.90100002
-0.0011 0.17219999 0.90100002
0.00039999999 0.17219999 0.90100002
0.0020000001 0.17219999 0.90100002
0.0035999999 0.17219999 0.90100002
0.0051000002 0.17219999 0.90100002
0.0066999998 0.17219999 0.90100002
0.0082 0.17200001 0.89999998
0.0098000001 0.17200001 0.89999998
0.0114 0.17200001 0.89999998
0.0129 0.1718 0.89899999
0.0144 0.1716 0.898
0.019200001 0.1726 0.903
0.0208 0.1726 0.903
0.022299999 0.1726 0.903
0.0285 0.17200001 0.89999998
0.029999999 0.1718 0.89899999
0.031599998 0.1716 0.898
0.033100002 0.1716 0.898
0.034699999 0.1718 0.89899999
0.0363 0.17200001 0.89999998
0.037900001 0.17219999 0.90100002
0.039500002 0.1724 0.90200001
0.041099999 0.1724 0.90200001
0.042599998 0.17219999 0.90100002
0.044199999 0.17219999 0.90100002
0.045699999 0.17219999 0.90100002
0.0473 0.17219999 0.90100002
0.048799999 0.17200001 0.89999998
0.050299998 0.17200001 0.89999998
0.051899999 0.17200001 0.89999998
0.053599998 0.1724 0.90200001
0.055199999 0.1726 0.903
0.0568 0.1726 0.903
0.0583 0.1726 0.903
0.059999999 0.17290001 0.90499997
0.0616 0.17290001 0.90499997
0.063199997 0.17290001 0.90499997
0.0647 0.1727 0.90399998
0.066200003 0.1727 0.90399998
0.067900002 0.17290001 0.90499997
0.069499999 0.17309999 0.90600002
0.071099997 0.17309999 0.90600002
0.072700001 0.1733 0.90700001
0.0744 0.1735 0.90799999
0.075999998 0.1735 0.90799999
0.077500001 0.1735 0.90799999
0.079000004 0.1733 0.90700001
0.080600001 0.1733 0.90700001
0.082099997 0.17309999 0.90600002
0.0836 0.17290001 0.90499997
0.085100003 0.17290001 0.90499997
0.0867 0.17290001 0.90499997
0.088299997 0.17290001 0.90499997
0.0898 0.17290001 0.90499997
0.091300003 0.1727 0.90399998
0.092799999 0.1726 0.903
0.094499998 0.17290001 0.90499997
0.096100003 0.17290001 0.90499997
0.0977 0.17290001 0.90499997
0.099200003 0.17290001 0.90499997
0.1007 0.1727 0.90399998
0.1023 0.1727 0.90399998
0.1037 0.1726 0.903
0.1051 0.17219999 0.90100002
0.1065 0.17200001 0.89999998
0.1112 0.17200001 0.89999998
0.1129 0.17219999 0.90100002
0.1147 0.1726 0.903
0.1164 0.1727 0.90399998
0.1181 0.17290001 0.90499997
0.1213 0.17309999 0.90600002
0.1245 0.17309999 0.90600002
0.1261 0.17309999 0.90600002
0.1275 0.17290001 0.90499997
0.12909999 0.17290001 0.90499997
0.1305 0.1727 0.90399998
0.1319 0.1726 0.903
0.1332 0.17219999 0.90100002
0.1347 0.17219999 0.90100002
0.13940001 0.17219999 0.90100002
0.1411 0.1724 0.90200001
0.1427 0.1724 0.90200001
0.1441 0.17219999 0.90100002
0.14569999 0.17219999 0.90100002
0.1472 0.17219999 0.90100002
0.1488 0.17219999 0.90100002
0.1503 0.17219999 0.90100002
0.1522 0.1726 0.903
0.1541 0.17290001 0.90499997
0.1559 0.17309999 0.90600002
0.1576 0.1733 0.90700001
0.1594 0.1735 0.90799999
0.161 0.1735 0.90799999
0.16249999 0.1735 0.90799999
0.16410001 0.1735 0.90799999
0.16599999 0.17389999 0.91000003
0.1674 0.1737 0.90899998
0.169 0.1737 0.90899998
0.1706 0.1737 0.90899998
-0.38350001 0.1708 0.88599998
-0.38240001 0.171 0.88700002
-0.35510001 0.17120001 0.88800001
-0.35389999 0.1714 0.889
-0.35280001 0.1716 0.88999999
-0.3513 0.1716 0.88999999
-0.3497 0.1716 0.88999999
-0.34779999 0.1714 0.889
-0.3459 0.17120001 0.88800001
-0.3439 0.171 0.88700002
-0.34200001 0.1708 0.88599998
-0.34009999 0.1706 0.88499999
-0.33849999 0.1706 0.88499999
-0.3351 0.1705 0.884
-0.33360001 0.1705 0.884
-0.33129999 0.1708 0.88599998
-0.32859999 0.171 0.88700002
-0.30450001 0.17219999 0.89300001
-0.30270001 0.17299999 0.89700001
-0.30149999 0.1732 0.898
-0.29429999 0.1726 0.89499998
-0.29210001 0.17219999 0.89300001
-0.2902 0.17200001 0.89200002
-0.28929999 0.1724 0.89399999
-0.28780001 0.1724 0.89399999
-0.23999999 0.1726 0.89499998
-0.2379 0.17219999 0.89300001
-0.2358 0.1718 0.89099997
-0.234 0.1716 0.88999999
-0.2325 0.1716 0.88999999
-0.2309 0.1716 0.88999999
-0.22939999 0.1716 0.88999999
-0.22400001 0.17219999 0.89300001
-0.2216 0.1728 0.89600003
-0.2203 0.17299999 0.89700001
-0.21879999 0.17299999 0.89700001
-0.2175 0.1732 0.898
-0.2017 0.1743 0.90399998
-0.19939999 0.1737 0.90100002
-0.1972 0.1732 0.898
-0.19499999 0.1726 0.89499998
-0.1935 0.1726 0.89499998
-0.1919 0.1726 0.89499998
-0.19059999 0.1728 0.89600003
-0.18790001 0.1732 0.898
-0.1867 0.1735 0.89999998
-0.18520001 0.1735 0.89999998
-0.18359999 0.1735 0.89999998
-0.18189999 0.1733 0.89899999
-0.1797 0.1728 0.89600003
-0.17820001 0.1728 0.89600003
-0.1304 0.1635 0.84799999
-0.12909999 0.1637 0.84899998
-0.1276 0.1637 0.84899998
-0.126 0.1635 0.84799999
-0.1245 0.1635 0.84799999
-0.1182 0.1629 0.84500003
-0.1153 0.1629 0.84500003
-0.112 0.16240001 0.84200001
-0.1101 0.1618 0.83899999
-0.1067 0.161 0.83499998
-0.1051 0.1608 0.83399999
-0.1037 0.1608 0.83399999
-0.1008 0.1608 0.83399999
-0.0995 0.161 0.83499998
-0.098099999 0.1612 0.83600003
-0.095600002 0.1618 0.83899999
-0.093999997 0.16159999 0.838
-0.092500001 0.16159999 0.838
-0.091200002 0.1618 0.83899999
-0.0898 0.1618 0.83899999
-0.088200003 0.16159999 0.838
-0.086599998 0.16140001 0.83700001
-0.085100003 0.1612 0.83600003
-0.083499998 0.161 0.83499998
-0.082000002 0.1608 0.83399999
-0.080600001 0.161 0.83499998
-0.0792 0.161 0.83499998
-0.077699997 0.161 0.83499998
-0.076300003 0.161 0.83499998
-0.0748 0.1608 0.83399999
-0.073399998 0.161 0.83499998
-0.071999997 0.161 0.83499998
-0.070500001 0.161 0.83499998
-0.065800004 0.17120001 0.88800001
-0.064400002 0.1716 0.88999999
-0.062700003 0.17120001 0.88800001
-0.061299998 0.1716 0.88999999
-0.0504 0.17120001 0.88800001
-0.048799999 0.17120001 0.88800001
-0.0473 0.17120001 0.88800001
-0.045699999 0.17120001 0.88800001
-0.044199999 0.17120001 0.88800001
-0.042800002 0.1716 0.88999999
-0.041299999 0.1718 0.89099997
-0.039900001 0.1726 0.89499998
-0.0385 0.1732 0.898
-0.037 0.1735 0.89999998
-0.035500001 0.1737 0.90100002
-0.034000002 0.17389999 0.90200001
-0.032400001 0.1741 0.903
-0.0309 0.1741 0.903
-0.0294 0.1745 0.90499997
-0.027799999 0.1743 0.90399998
-0.0262 0.1743 0.90399998
-0.024599999 0.1743 0.90399998
-0.023 0.1741 0.903
-0.021500001 0.1741 0.903
-0.0199 0.17389999 0.90200001
-0.018300001 0.1737 0.90100002
-0.016799999 0.1741 0.903
-0.0152 0.1745 0.90499997
-0.0137 0.1743 0.90399998
-0.0121 0.1745 0.90499997
-0.0105 0.1743 0.90399998
-0.0089999996 0.1741 0.903
-0.0074 0.17389999 0.90200001
-0.0057999999 0.1737 0.90100002
-0.0043000001 0.1737 0.90100002
-0.0027000001 0.1737 0.90100002
-0.0011 0.1737 0.90100002
0.00039999999 0.17389999 0.90200001
0.0020000001 0.1741 0.903
0.0035999999 0.17389999 0.90200001
0.0051000002 0.1741 0.903
0.0066999998 0.17389999 0.90200001
0.0082 0.1737 0.90100002
0.0098000001 0.1737 0.90100002
0.0114 0.1735 0.89999998
0.0129 0.1732 0.898
0.0144 0.1728 0.89600003
0.015900001 0.1726 0.89499998
0.0176 0.1732 0.898
0.019200001 0.1735 0.89999998
0.0207 0.1737 0.90100002
0.022299999 0.1737 0.90100002
0.026900001 0.1735 0.89999998
0.0285 0.1735 0.89999998
0.029999999 0.1733 0.89899999
0.031599998 0.1735 0.89999998
0.034699999 0.1735 0.89999998
0.0363 0.1737 0.90100002
0.037999999 0.17389999 0.90200001
0.0396 0.1743 0.90399998
0.041200001 0.1743 0.90399998
0.042599998 0.17389999 0.90200001
0.044199999 0.1737 0.90100002
0.045699999 0.1737 0.90100002
0.047200002 0.1735 0.89999998
0.048700001 0.1733 0.89899999
0.0502 0.1732 0.898
0.051899999 0.1735 0.89999998
0.0535 0.1737 0.90100002
0.055199999 0.1741 0.903
0.0568 0.1741 0.903
0.058400001 0.1743 0.90399998
0.059999999 0.1745 0.90499997
0.0616 0.1745 0.90499997
0.063199997 0.17470001 0.90600002
0.066299997 0.1745 0.90499997
0.067900002 0.1745 0.90499997
0.069499999 0.17470001 0.90600002
0.071099997 0.17470001 0.90600002
0.072700001 0.1749 0.90700001
0.074299999 0.1749 0.90700001
0.075999998 0.1751 0.90799999
0.077500001 0.1749 0.90700001
0.078900002 0.17470001 0.90600002
0.080600001 0.1749 0.90700001
0.082099997 0.17470001 0.90600002
0.083700001 0.17470001 0.90600002
0.085199997 0.17470001 0.90600002
0.0867 0.1745 0.90499997
0.088299997 0.1745 0.90499997
0.0898 0.1745 0.90499997
0.092799999 0.1741 0.903
0.094300002 0.1741 0.903
0.095899999 0.1741 0.903
0.097499996 0.1741 0.903
0.098999999 0.1741 0.903
0.1006 0.1741 0.903
0.1022 0.1741 0.903
0.1036 0.17389999 0.90200001
0.1049 0.1735 0.89999998
0.1096 0.1735 0.89999998
0.1113 0.1737 0.90100002
0.1131 0.1741 0.903
0.1148 0.1743 0.90399998
0.1165 0.1745 0.90499997
0.1182 0.17470001 0.90600002
0.1215 0.1749 0.90700001
0.1261 0.17470001 0.90600002
0.1275 0.1745 0.90499997
0.12909999 0.1745 0.90499997
0.1303 0.1741 0.903
0.13160001 0.1737 0.90100002
0.133 0.1735 0.89999998
0.1346 0.1735 0.89999998
0.13609999 0.1735 0.89999998
0.13940001 0.1737 0.90100002
0.1411 0.17389999 0.90200001
