# .PCD v0.7 - Point Cloud Data file format
VERSION 0.7
FIELDS x y z
SIZE 4 4 4
TYPE F F F
COUNT 1 1 1
WIDTH 1683
HEIGHT 1
VIEWPOINT 0 0 0 1 0 0 0
POINTS 1683
DATA ascii
0.1072 0.2406 0.90600002
0.1087 0.2404 0.90499997
0.1101 0.2401 0.90399998
0.1115 0.23980001 0.903
0.1131 0.23980001 0.903
0.1179 0.2401 0.90399998
0.1198 0.2406 0.90600002
0.1215 0.24089999 0.90700001
0.123 0.24089999 0.90700001
0.13330001 0.2396 0.90200001
0.1347 0.2393 0.90100002
0.1363 0.2393 0.90100002
0.13779999 0.2393 0.90100002
0.13940001 0.2393 0.90100002
0.1411 0.2396 0.90200001
0.1428 0.23980001 0.903
0.14470001 0.2404 0.90499997
0.14650001 0.2406 0.90600002
0.14839999 0.2412 0.90799999
0.15009999 0.2414 0.90899998
0.1552 0.242 0.91100001
0.1569 0.2422 0.912
0.1585 0.2422 0.912
0.1601 0.2422 0.912
0.1618 0.24250001 0.91299999
0.164 0.24330001 0.91600001
0.1661 0.2441 0.91900003
0.1684 0.24519999 0.92299998
0.17 0.24519999 0.92299998
-0.4199 0.2393 0.89499998
-0.4179 0.23899999 0.89399999
-0.41639999 0.23899999 0.89399999
-0.39309999 0.23899999 0.89399999
-0.39070001 0.2385 0.89200002
-0.37560001 0.2358 0.88200003
-0.3741 0.2358 0.88200003
-0.36950001 0.2358 0.88200003
-0.368 0.2358 0.88200003
-0.36570001 0.23630001 0.884
-0.33000001 0.23819999 0.89099997
-0.3285 0.23819999 0.89099997
-0.32350001 0.2379 0.88999999
-0.31659999 0.24089999 0.90100002
-0.31459999 0.2406 0.89999998
-0.31169999 0.2395 0.89600003
-0.30880001 0.2385 0.89200002
-0.30689999 0.23819999 0.89099997
-0.30500001 0.2379 0.88999999
-0.30309999 0.2377 0.889
-0.30160001 0.2377 0.889
-0.29539999 0.2414 0.903
-0.2931 0.24089999 0.90100002
-0.29089999 0.2403 0.89899999
-0.28839999 0.2395 0.89600003
-0.28619999 0.23899999 0.89399999
-0.2834 0.2379 0.88999999
-0.2809 0.23710001 0.88700002
-0.2784 0.23630001 0.884
-0.27630001 0.2358 0.88200003
-0.2735 0.2387 0.89300001
-0.2744 0.24089999 0.90100002
-0.27399999 0.2419 0.90499997
-0.2719 0.2414 0.903
-0.2703 0.2414 0.903
-0.26899999 0.24169999 0.90399998
-0.26719999 0.2414 0.903
-0.26530001 0.2411 0.90200001
-0.26350001 0.24089999 0.90100002
-0.26100001 0.2401 0.898
-0.2595 0.2401 0.898
-0.2579 0.2401 0.898
-0.2561 0.23980001 0.89700001
-0.25420001 0.2395 0.89600003
-0.2527 0.2395 0.89600003
-0.2511 0.2395 0.89600003
-0.24860001 0.2401 0.898
-0.2476 0.2406 0.89999998
-0.2458 0.2419 0.90499997
-0.23800001 0.2419 0.90499997
-0.23559999 0.2411 0.90200001
-0.2333 0.2403 0.89899999
-0.23019999 0.2387 0.89300001
-0.2281 0.23819999 0.89099997
-0.22660001 0.23819999 0.89099997
-0.22480001 0.2379 0.88999999
-0.2235 0.23819999 0.89099997
-0.22239999 0.2387 0.89300001
-0.2209 0.2387 0.89300001
-0.21960001 0.23899999 0.89399999
-0.2185 0.2395 0.89600003
-0.2172 0.23980001 0.89700001
-0.21610001 0.2403 0.89899999
-0.21430001 0.2401 0.898
-0.2128 0.2401 0.898
-0.2112 0.2401 0.898
-0.2094 0.23980001 0.89700001
-0.2077 0.2395 0.89600003
-0.20630001 0.23980001 0.89700001
-0.2045 0.2395 0.89600003
-0.19769999 0.2387 0.89300001
-0.1945 0.2406 0.89999998
-0.19320001 0.24089999 0.90100002
-0.19159999 0.24089999 0.90100002
-0.1901 0.24089999 0.90100002
-0.18870001 0.2411 0.90200001
-0.18719999 0.2411 0.90200001
-0.1856 0.2411 0.90200001
-0.184 0.2411 0.90200001
-0.1823 0.24089999 0.90100002
-0.18089999 0.2411 0.90200001
-0.17910001 0.24089999 0.90100002
-0.17560001 0.2403 0.89899999
-0.1737 0.23980001 0.89700001
-0.1719 0.2395 0.89600003
-0.17039999 0.2395 0.89600003
-0.1688 0.2395 0.89600003
-0.1673 0.2395 0.89600003
-0.1657 0.2395 0.89600003
-0.16419999 0.2395 0.89600003
-0.1626 0.2395 0.89600003
-0.1561 0.23899999 0.89399999
-0.1543 0.2387 0.89300001
-0.15279999 0.2387 0.89300001
-0.1512 0.2387 0.89300001
-0.15000001 0.2393 0.89499998
-0.14830001 0.23899999 0.89399999
-0.1469 0.2393 0.89499998
-0.14569999 0.23980001 0.89700001
-0.14480001 0.24089999 0.90100002
-0.1435 0.2414 0.903
-0.142 0.2414 0.903
-0.14040001 0.2414 0.903
-0.1392 0.2419 0.90499997
-0.1373 0.2414 0.903
-0.1354 0.24089999 0.90100002
-0.132 0.2403 0.89899999
-0.1287 0.2401 0.898
-0.12720001 0.2401 0.898
-0.1258 0.2403 0.89899999
-0.1245 0.24089999 0.90100002
-0.1229 0.24089999 0.90100002
-0.1216 0.2414 0.903
-0.1188 0.2419 0.90499997
-0.1172 0.2419 0.90499997
-0.1155 0.24169999 0.90399998
-0.1138 0.2414 0.903
-0.1122 0.2414 0.903
-0.1104 0.24089999 0.90100002
-0.1088 0.2406 0.89999998
-0.107 0.2401 0.898
-0.1054 0.2401 0.898
-0.1037 0.23980001 0.89700001
-0.1017 0.2387 0.89300001
-0.0999 0.23819999 0.89099997
-0.098300003 0.2379 0.88999999
-0.096699998 0.2379 0.88999999
-0.092399999 0.2387 0.89300001
-0.0911 0.2393 0.89499998
-0.089699998 0.23980001 0.89700001
-0.088299997 0.2401 0.898
-0.086900003 0.2406 0.89999998
-0.0854 0.2406 0.89999998
-0.083800003 0.2406 0.89999998
-0.082199998 0.2406 0.89999998
-0.080799997 0.24089999 0.90100002
-0.079099998 0.2406 0.89999998
-0.077600002 0.2406 0.89999998
-0.075800002 0.2401 0.898
-0.074299999 0.2401 0.898
-0.072999999 0.24089999 0.90100002
-0.071599998 0.2414 0.903
-0.068400003 0.2414 0.903
-0.063900001 0.2422 0.90600002
-0.062399998 0.2422 0.90600002
-0.060899999 0.24250001 0.90700001
-0.0594 0.2428 0.90799999
-0.0579 0.243 0.90899998
-0.056299999 0.243 0.90899998
-0.0546 0.2428 0.90799999
-0.052900001 0.2419 0.90499997
-0.051100001 0.24089999 0.90100002
-0.0495 0.2406 0.89999998
-0.047800001 0.2401 0.898
-0.046300001 0.2401 0.898
-0.0447 0.23980001 0.89700001
-0.043000001 0.2395 0.89600003
-0.041499998 0.2395 0.89600003
-0.039999999 0.2401 0.898
-0.038400002 0.23980001 0.89700001
-0.036899999 0.23980001 0.89700001
-0.032099999 0.2387 0.89300001
-0.0305 0.2387 0.89300001
-0.028899999 0.2385 0.89200002
-0.0274 0.23819999 0.89099997
-0.025900001 0.2387 0.89300001
-0.0243 0.2385 0.89200002
-0.022700001 0.23819999 0.89099997
-0.021199999 0.23819999 0.89099997
-0.0196 0.2379 0.88999999
-0.018100001 0.23819999 0.89099997
-0.0166 0.23819999 0.89099997
-0.0027000001 0.2428 0.90799999
-0.0011 0.2428 0.90799999
0.00039999999 0.24250001 0.90700001
0.0020000001 0.2422 0.90600002
0.0035999999 0.2419 0.90499997
0.0051000002 0.2419 0.90499997
0.0066999998 0.24169999 0.90399998
0.0082999999 0.2414 0.903
0.0098000001 0.24089999 0.90100002
0.0114 0.2406 0.89999998
0.0129 0.2406 0.89999998
0.0145 0.24089999 0.90100002
0.016000001 0.24089999 0.90100002
0.0176 0.24089999 0.90100002
0.019200001 0.24089999 0.90100002
0.0208 0.2411 0.90200001
0.022299999 0.2414 0.903
0.0239 0.2414 0.903
0.0255 0.2414 0.903
0.027000001 0.2414 0.903
0.0285 0.24089999 0.90100002
0.0317 0.2411 0.90200001
0.033199999 0.24089999 0.90100002
0.037500001 0.23819999 0.89099997
0.042100001 0.23819999 0.89099997
0.0438 0.23899999 0.89399999
0.045600001 0.2401 0.898
0.0473 0.24089999 0.90100002
0.048900001 0.2414 0.903
0.0506 0.24169999 0.90399998
0.052200001 0.2419 0.90499997
0.057100002 0.2428 0.90799999
0.058600001 0.24250001 0.90700001
0.0601 0.2422 0.90600002
0.061700001 0.24250001 0.90700001
0.063299999 0.24250001 0.90700001
0.0647 0.2419 0.90499997
0.066299997 0.2419 0.90499997
0.067900002 0.2419 0.90499997
0.069399998 0.2419 0.90499997
0.071000002 0.2419 0.90499997
0.072499998 0.24169999 0.90399998
0.074000001 0.2414 0.903
0.075499997 0.2411 0.90200001
0.076899998 0.24089999 0.90100002
0.078500003 0.24089999 0.90100002
0.079999998 0.2406 0.89999998
0.082999997 0.2403 0.89899999
0.084700003 0.2406 0.89999998
0.092799999 0.2414 0.903
0.096299998 0.24250001 0.90700001
0.097999997 0.2428 0.90799999
0.099600002 0.2428 0.90799999
0.1012 0.2428 0.90799999
0.1027 0.2428 0.90799999
0.1043 0.2428 0.90799999
0.1058 0.24250001 0.90700001
0.1072 0.2422 0.90600002
0.1088 0.2422 0.90600002
0.1102 0.2419 0.90499997
0.1118 0.2419 0.90499997
0.1215 0.24250001 0.90700001
0.1232 0.2428 0.90799999
0.1347 0.24089999 0.90100002
0.13609999 0.2406 0.89999998
0.13770001 0.2406 0.89999998
0.13940001 0.24089999 0.90100002
0.141 0.24089999 0.90100002
0.1428 0.2414 0.903
0.1446 0.24169999 0.90399998
0.14650001 0.2422 0.90600002
0.1539 0.2441 0.91299999
0.15530001 0.2438 0.912
0.1573 0.24439999 0.91399997
0.1585 0.2438 0.912
0.1603 0.2441 0.91299999
0.1622 0.2446 0.91500002
0.16410001 0.24519999 0.917
0.1661 0.2457 0.91900003
0.1684 0.24680001 0.92299998
0.17 0.24680001 0.92299998
-0.4188 0.2411 0.89600003
-0.39489999 0.24160001 0.898
-0.3924 0.2411 0.89600003
-0.37490001 0.2379 0.884
-0.3734 0.2379 0.884
-0.37189999 0.2379 0.884
-0.37029999 0.2379 0.884
-0.36880001 0.2379 0.884
-0.3662 0.23810001 0.88499999
-0.33160001 0.2387 0.88700002
-0.3312 0.2395 0.88999999
-0.32969999 0.2395 0.88999999
-0.3281 0.2395 0.88999999
-0.32620001 0.2392 0.889
-0.3188 0.243 0.903
-0.31459999 0.2422 0.89999998
-0.31200001 0.2414 0.89700001
-0.3091 0.2403 0.89300001
-0.30689999 0.23980001 0.89099997
-0.3046 0.2392 0.889
-0.3028 0.23890001 0.88800001
-0.3012 0.23890001 0.88800001
-0.29929999 0.2387 0.88700002
-0.29280001 0.2422 0.89999998
-0.28999999 0.2411 0.89600003
-0.28780001 0.2406 0.89399999
-0.28560001 0.23999999 0.89200002
-0.28310001 0.2392 0.889
-0.28119999 0.23890001 0.88800001
-0.27869999 0.23810001 0.88499999
-0.27689999 0.2379 0.884
-0.2753 0.2379 0.884
-0.27410001 0.23810001 0.88499999
-0.27289999 0.2384 0.88599998
-0.27289999 0.23980001 0.89099997
-0.2726 0.24079999 0.89499998
-0.2728 0.24240001 0.90100002
-0.27160001 0.2427 0.90200001
-0.2703 0.243 0.903
-0.2687 0.243 0.903
-0.2669 0.2427 0.90200001
-0.2647 0.2422 0.89999998
-0.26289999 0.2419 0.89899999
-0.26069999 0.2414 0.89700001
-0.25920001 0.2414 0.89700001
-0.25729999 0.2411 0.89600003
-0.25549999 0.24079999 0.89499998
-0.25240001 0.24079999 0.89499998
-0.2509 0.24079999 0.89499998
-0.24959999 0.2411 0.89600003
-0.24860001 0.24160001 0.898
-0.2476 0.2422 0.89999998
-0.2458 0.24349999 0.90499997
-0.2448 0.2441 0.90700001
-0.2432 0.2441 0.90700001
-0.24160001 0.2441 0.90700001
-0.2401 0.2441 0.90700001
-0.23819999 0.2438 0.90600002
-0.2359 0.243 0.903
-0.23379999 0.24240001 0.90100002
-0.2317 0.2419 0.89899999
-0.2291 0.24079999 0.89499998
-0.2271 0.2403 0.89300001
-0.2253 0.23999999 0.89200002
-0.2237 0.23999999 0.89200002
-0.22220001 0.23999999 0.89200002
-0.22040001 0.23980001 0.89099997
-0.21879999 0.23980001 0.89099997
-0.21780001 0.2403 0.89300001
-0.2167 0.24079999 0.89499998
-0.2154 0.2411 0.89600003
-0.2141 0.2414 0.89700001
-0.2123 0.2411 0.89600003
-0.211 0.2414 0.89700001
-0.20919999 0.2411 0.89600003
-0.20739999 0.24079999 0.89499998
-0.2059 0.24079999 0.89499998
-0.2043 0.24079999 0.89499998
-0.2023 0.2403 0.89300001
-0.20029999 0.23980001 0.89099997
-0.19410001 0.24160001 0.898
-0.193 0.2422 0.89999998
-0.19159999 0.24240001 0.90100002
-0.1901 0.24240001 0.90100002
-0.18870001 0.2427 0.90200001
-0.18719999 0.2427 0.90200001
-0.1858 0.243 0.903
-0.1842 0.243 0.903
-0.1823 0.24240001 0.90100002
-0.1807 0.24240001 0.90100002
-0.1789 0.2422 0.89999998
-0.1772 0.2419 0.89899999
-0.175 0.2411 0.89600003
-0.17309999 0.2406 0.89399999
-0.1716 0.2406 0.89399999
-0.1698 0.2403 0.89300001
-0.1683 0.2403 0.89300001
-0.1671 0.24079999 0.89499998
-0.1655 0.24079999 0.89499998
-0.1638 0.2406 0.89399999
-0.1621 0.2403 0.89300001
-0.1586 0.23980001 0.89099997
-0.15549999 0.23980001 0.89099997
-0.154 0.23980001 0.89099997
-0.1524 0.23980001 0.89099997
-0.15109999 0.23999999 0.89200002
-0.1499 0.2406 0.89399999
-0.1481 0.2403 0.89300001
-0.1469 0.24079999 0.89499998
-0.14569999 0.2414 0.89700001
-0.1446 0.2422 0.89999998
-0.1435 0.243 0.903
-0.142 0.243 0.903
-0.1401 0.24240001 0.90100002
-0.13869999 0.2427 0.90200001
-0.13680001 0.2422 0.89999998
-0.13500001 0.24160001 0.898
-0.133 0.24079999 0.89499998
-0.1313 0.2406 0.89399999
-0.12989999 0.24079999 0.89499998
-0.1258 0.2419 0.89899999
-0.1229 0.24240001 0.90100002
-0.1172 0.24349999 0.90499997
-0.1155 0.2432 0.90399998
-0.1139 0.2432 0.90399998
-0.1122 0.243 0.903
-0.1104 0.24240001 0.90100002
-0.1089 0.24240001 0.90100002
-0.1072 0.2422 0.89999998
-0.1056 0.2422 0.89999998
-0.1038 0.24160001 0.898
-0.1019 0.24079999 0.89499998
-0.1002 0.2403 0.89300001
-0.098399997 0.23980001 0.89099997
-0.095200002 0.2395 0.88999999
-0.093699999 0.2395 0.88999999
-0.092299998 0.23999999 0.89200002
-0.090999998 0.2406 0.89399999
-0.089599997 0.2411 0.89600003
-0.088100001 0.2411 0.89600003
-0.0867 0.24160001 0.898
-0.085299999 0.2419 0.89899999
-0.083700001 0.2419 0.89899999
-0.082099997 0.2419 0.89899999
-0.080700003 0.2422 0.89999998
-0.077500001 0.2419 0.89899999
-0.0757 0.2414 0.89700001
-0.072899997 0.2422 0.89999998
-0.071500003 0.2427 0.90200001
-0.062399998 0.2441 0.90700001
-0.060899999 0.24429999 0.90799999
-0.0594 0.24429999 0.90799999
-0.057799999 0.24429999 0.90799999
-0.056200001 0.24429999 0.90799999
-0.0546 0.2441 0.90700001
-0.052900001 0.24349999 0.90499997
-0.051199999 0.2427 0.90200001
-0.0495 0.2422 0.89999998
-0.047899999 0.2419 0.89899999
-0.046300001 0.24160001 0.898
-0.0447 0.24160001 0.898
-0.043099999 0.2414 0.89700001
-0.0416 0.24160001 0.898
-0.039999999 0.24160001 0.898
-0.0385 0.24160001 0.898
-0.036800001 0.2411 0.89600003
-0.035300002 0.2411 0.89600003
-0.0306 0.24079999 0.89499998
-0.028999999 0.2403 0.89300001
-0.0274 0.23999999 0.89200002
-0.025900001 0.2403 0.89300001
-0.0243 0.23980001 0.89099997
-0.022700001 0.23980001 0.89099997
-0.021199999 0.23980001 0.89099997
-0.0196 0.2395 0.88999999
-0.018100001 0.2395 0.88999999
-0.0165 0.2395 0.88999999
-0.0011 0.24429999 0.90799999
0.00039999999 0.2441 0.90700001
0.0020000001 0.24349999 0.90499997
0.0035999999 0.24349999 0.90499997
0.0051000002 0.24349999 0.90499997
0.0066999998 0.2432 0.90399998
0.0082999999 0.243 0.903
0.0098000001 0.24240001 0.90100002
0.0114 0.24240001 0.90100002
0.0129 0.24240001 0.90100002
0.0145 0.24240001 0.90100002
0.016000001 0.24240001 0.90100002
0.0176 0.24240001 0.90100002
0.019200001 0.24240001 0.90100002
0.0208 0.2427 0.90200001
0.022299999 0.243 0.903
0.0239 0.243 0.903
0.0255 0.243 0.903
0.027000001 0.243 0.903
0.0286 0.2427 0.90200001
0.040899999 0.24160001 0.898
0.042399999 0.2414 0.89700001
0.044100001 0.2419 0.89899999
0.045699999 0.24240001 0.90100002
0.047400001 0.243 0.903
0.0491 0.24349999 0.90499997
0.0506 0.24349999 0.90499997
0.052200001 0.24349999 0.90499997
0.058499999 0.24349999 0.90499997
0.059999999 0.24349999 0.90499997
0.0616 0.24349999 0.90499997
0.063199997 0.24349999 0.90499997
0.0647 0.24349999 0.90499997
0.066299997 0.24349999 0.90499997
0.067900002 0.24349999 0.90499997
0.069399998 0.2432 0.90399998
0.071000002 0.24349999 0.90499997
0.0726 0.24349999 0.90499997
0.074000001 0.243 0.903
0.075599998 0.243 0.903
0.077100001 0.243 0.903
0.078699999 0.243 0.903
0.0801 0.24240001 0.90100002
0.094599999 0.2438 0.90600002
0.0964 0.24429999 0.90799999
0.098099999 0.2446 0.90899998
0.099600002 0.24429999 0.90799999
0.1012 0.24429999 0.90799999
0.1027 0.24429999 0.90799999
0.1043 0.24429999 0.90799999
0.1059 0.24429999 0.90799999
0.1073 0.2441 0.90700001
0.1089 0.2441 0.90700001
0.1105 0.2441 0.90700001
0.1119 0.2438 0.90600002
0.1185 0.24429999 0.90799999
0.1202 0.2446 0.90899998
0.1216 0.24429999 0.90799999
0.1232 0.24429999 0.90799999
0.125 0.2449 0.91000003
0.1266 0.2449 0.91000003
0.13779999 0.24240001 0.90100002
0.13959999 0.2427 0.90200001
0.1411 0.2427 0.90200001
0.1428 0.243 0.903
0.14470001 0.24349999 0.90499997
0.1485 0.2446 0.90899998
0.15459999 0.2467 0.917
0.156 0.2465 0.91600001
0.1576 0.2465 0.91600001
0.1592 0.2465 0.91600001
0.1608 0.2465 0.91600001
0.16249999 0.2467 0.917
0.16410001 0.2467 0.917
0.16590001 0.24699999 0.91799998
0.168 0.24779999 0.921
0.17460001 0.2481 0.92199999
-0.3978 0.244 0.90100002
-0.39579999 0.2437 0.89999998
-0.39379999 0.24349999 0.89899999
-0.3734 0.2394 0.884
-0.37029999 0.2394 0.884
-0.36880001 0.2394 0.884
-0.36770001 0.2397 0.88499999
-0.3662 0.2397 0.88499999
-0.3642 0.2394 0.884
-0.36269999 0.2394 0.884
-0.33239999 0.2397 0.88499999
-0.33050001 0.2394 0.884
-0.3301 0.2402 0.88700002
-0.32859999 0.2402 0.88700002
-0.32699999 0.2402 0.88700002
-0.32390001 0.2402 0.88700002
-0.32280001 0.2405 0.88800001
-0.3204 0.241 0.88999999
-0.31690001 0.24429999 0.90200001
-0.30689999 0.2413 0.89099997
-0.3046 0.24079999 0.889
-0.30239999 0.2402 0.88700002
-0.30090001 0.2402 0.88700002
-0.29899999 0.23989999 0.88599998
-0.29629999 0.2402 0.88700002
-0.29179999 0.2429 0.89700001
-0.289 0.2418 0.89300001
-0.2868 0.2413 0.89099997
-0.28490001 0.241 0.88999999
-0.27869999 0.2397 0.88499999
-0.2766 0.23909999 0.88300002
-0.27410001 0.2397 0.88499999
-0.27320001 0.2402 0.88700002
-0.2735 0.2418 0.89300001
-0.2726 0.24240001 0.89499998
-0.2719 0.2432 0.898
-0.27039999 0.2432 0.898
-0.2694 0.2437 0.89999998
-0.26789999 0.2437 0.89999998
-0.266 0.24349999 0.89899999
-0.26390001 0.2429 0.89700001
-0.26199999 0.24259999 0.89600003
-0.26019999 0.24240001 0.89499998
-0.2586 0.24240001 0.89499998
-0.2534 0.2418 0.89300001
-0.2518 0.2418 0.89300001
-0.25060001 0.2421 0.89399999
-0.248 0.24259999 0.89600003
-0.2473 0.24349999 0.89899999
-0.2466 0.24429999 0.90200001
-0.2455 0.2448 0.90399998
-0.2445 0.2454 0.90600002
-0.24160001 0.2456 0.90700001
-0.2385 0.2456 0.90700001
-0.23639999 0.24510001 0.90499997
-0.23459999 0.2448 0.90399998
-0.2325 0.24429999 0.90200001
-0.2299 0.2432 0.898
-0.22759999 0.24240001 0.89499998
-0.22579999 0.2421 0.89399999
-0.22400001 0.2418 0.89300001
-0.22220001 0.24160001 0.89200002
-0.22040001 0.2413 0.89099997
-0.2186 0.241 0.88999999
-0.21780001 0.2418 0.89300001
-0.2154 0.24259999 0.89600003
-0.21430001 0.2432 0.898
-0.2128 0.2432 0.898
-0.2115 0.24349999 0.89899999
-0.2097 0.2432 0.898
-0.20739999 0.24240001 0.89499998
-0.2059 0.24240001 0.89499998
-0.2041 0.2421 0.89399999
-0.20209999 0.24160001 0.89200002
-0.1955 0.241 0.88999999
-0.1946 0.2418 0.89300001
-0.1935 0.24240001 0.89499998
-0.1926 0.2432 0.898
-0.19140001 0.2437 0.89999998
-0.1901 0.244 0.90100002
-0.18889999 0.2445 0.903
-0.1874 0.2445 0.903
-0.1858 0.2445 0.903
-0.18440001 0.2448 0.90399998
-0.18269999 0.2445 0.903
-0.1807 0.244 0.90100002
-0.175 0.24259999 0.89600003
-0.1733 0.24240001 0.89499998
-0.1716 0.2421 0.89399999
-0.1698 0.2418 0.89300001
-0.1683 0.2418 0.89300001
-0.1671 0.24240001 0.89499998
-0.1654 0.2421 0.89399999
-0.1636 0.2418 0.89300001
-0.1567 0.24079999 0.889
-0.155 0.2405 0.88800001
-0.15350001 0.2405 0.88800001
-0.1523 0.241 0.88999999
-0.15090001 0.2413 0.89099997
-0.1497 0.2418 0.89300001
-0.1481 0.2418 0.89300001
-0.1469 0.24240001 0.89499998
-0.1459 0.2432 0.898
-0.14480001 0.244 0.90100002
-0.1435 0.2445 0.903
-0.1418 0.24429999 0.90200001
-0.1401 0.244 0.90100002
-0.1384 0.2437 0.89999998
-0.1367 0.24349999 0.89899999
-0.1348 0.2429 0.89700001
-0.133 0.24240001 0.89499998
-0.1313 0.2421 0.89399999
-0.12989999 0.24240001 0.89499998
-0.1283 0.24240001 0.89499998
-0.12720001 0.2432 0.898
-0.1261 0.244 0.90100002
-0.1248 0.2445 0.903
-0.1232 0.2445 0.903
-0.1205 0.2454 0.90600002
-0.1156 0.24510001 0.90499997
-0.1139 0.2448 0.90399998
-0.1122 0.2445 0.903
-0.1106 0.24429999 0.90200001
-0.1089 0.244 0.90100002
-0.1072 0.2437 0.89999998
-0.1058 0.244 0.90100002
-0.104 0.24349999 0.89899999
-0.1021 0.24259999 0.89600003
-0.1002 0.2418 0.89300001
-0.098399997 0.2413 0.89099997
-0.096900001 0.2413 0.89099997
-0.093699999 0.241 0.88999999
-0.092299998 0.24160001 0.89200002
-0.0911 0.24240001 0.89499998
-0.089599997 0.24259999 0.89600003
-0.088100001 0.24259999 0.89600003
-0.0867 0.2432 0.898
-0.085299999 0.24349999 0.89899999
-0.083800003 0.2437 0.89999998
-0.082099997 0.24349999 0.89899999
-0.080700003 0.2437 0.89999998
-0.077600002 0.2437 0.89999998
-0.075900003 0.24349999 0.89899999
-0.0744 0.24349999 0.89899999
-0.072999999 0.244 0.90100002
-0.071599998 0.2445 0.903
-0.07 0.2445 0.903
-0.068400003 0.2445 0.903
-0.0625 0.24590001 0.90799999
-0.060899999 0.24590001 0.90799999
-0.0594 0.2462 0.90899998
-0.0579 0.2462 0.90899998
-0.056200001 0.24590001 0.90799999
-0.0546 0.24590001 0.90799999
-0.052900001 0.24510001 0.90499997
-0.0513 0.2448 0.90399998
-0.049600001 0.24429999 0.90200001
-0.047899999 0.2437 0.89999998
-0.046300001 0.24349999 0.89899999
-0.0447 0.2432 0.898
-0.043099999 0.2432 0.898
-0.0416 0.2432 0.898
-0.039999999 0.2432 0.898
-0.0385 0.2432 0.898
-0.036800001 0.24259999 0.89600003
-0.035300002 0.24259999 0.89600003
-0.033599999 0.2418 0.89300001
-0.028899999 0.2413 0.89099997
-0.0273 0.241 0.88999999
-0.025800001 0.2413 0.89099997
-0.0243 0.2413 0.89099997
-0.022700001 0.2413 0.89099997
-0.021199999 0.24160001 0.89200002
-0.0196 0.2413 0.89099997
-0.018100001 0.2418 0.89300001
-0.0166 0.2421 0.89399999
-0.0027000001 0.24590001 0.90799999
-0.0011 0.24590001 0.90799999
0.00039999999 0.2456 0.90700001
0.0020000001 0.2454 0.90600002
0.0035999999 0.2454 0.90600002
0.0051000002 0.24510001 0.90499997
0.0066999998 0.24510001 0.90499997
0.0082999999 0.2448 0.90399998
0.0098000001 0.24429999 0.90200001
0.0114 0.24429999 0.90200001
0.0129 0.244 0.90100002
0.0145 0.244 0.90100002
0.016000001 0.244 0.90100002
0.0176 0.244 0.90100002
0.019200001 0.24429999 0.90200001
0.0208 0.2445 0.903
0.022299999 0.2445 0.903
0.0239 0.2448 0.90399998
0.0255 0.2448 0.90399998
0.027000001 0.2445 0.903
0.0286 0.24429999 0.90200001
0.030099999 0.24429999 0.90200001
0.033199999 0.244 0.90100002
0.044300001 0.2445 0.903
0.0458 0.2445 0.903
0.047400001 0.2448 0.90399998
0.0491 0.24510001 0.90499997
0.0506 0.2448 0.90399998
0.0539 0.2456 0.90700001
0.055399999 0.2454 0.90600002
0.057 0.2454 0.90600002
0.0616 0.24510001 0.90499997
0.063199997 0.24510001 0.90499997
0.0647 0.24510001 0.90499997
0.066299997 0.24510001 0.90499997
0.0678 0.2448 0.90399998
0.069399998 0.24510001 0.90499997
0.071000002 0.24510001 0.90499997
0.0726 0.24510001 0.90499997
0.074100003 0.2448 0.90399998
0.0757 0.24510001 0.90499997
0.077200003 0.2448 0.90399998
0.078900002 0.24510001 0.90499997
0.080200002 0.24429999 0.90200001
0.089599997 0.2445 0.903
0.092900001 0.2448 0.90399998
0.094599999 0.2454 0.90600002
0.0964 0.24590001 0.90799999
0.098099999 0.2462 0.90899998
0.099600002 0.24590001 0.90799999
0.1013 0.2462 0.90899998
0.1028 0.2462 0.90899998
0.1043 0.24590001 0.90799999
0.1059 0.24590001 0.90799999
0.1074 0.24590001 0.90799999
0.109 0.24590001 0.90799999
0.1106 0.24590001 0.90799999
0.112 0.2456 0.90700001
0.1137 0.24590001 0.90799999
0.1169 0.24590001 0.90799999
0.1186 0.2462 0.90899998
0.1203 0.2464 0.91000003
0.1219 0.2464 0.91000003
0.1235 0.2464 0.91000003
0.125 0.2464 0.91000003
0.1269 0.24699999 0.912
0.1285 0.24699999 0.912
0.13779999 0.244 0.90100002
0.13940001 0.244 0.90100002
0.141 0.244 0.90100002
0.1427 0.24429999 0.90200001
0.1446 0.2448 0.90399998
0.15279999 0.2481 0.91600001
0.156 0.2481 0.91600001
0.1576 0.2481 0.91600001
0.1592 0.2481 0.91600001
0.1608 0.2481 0.91600001
0.16240001 0.2481 0.91600001
0.164 0.2481 0.91600001
0.1657 0.2483 0.917
0.1679 0.2491 0.92000002
0.1698 0.24969999 0.92199999
-0.3973 0.24529999 0.89999998
-0.39579999 0.24529999 0.89999998
-0.39379999 0.245 0.89899999
-0.3734 0.24089999 0.884
-0.37029999 0.24089999 0.884
-0.36919999 0.2412 0.88499999
-0.36770001 0.2412 0.88499999
-0.3662 0.2412 0.88499999
-0.3646 0.2412 0.88499999
-0.35229999 0.2401 0.88099998
-0.33199999 0.24089999 0.884
-0.3301 0.24070001 0.88300002
-0.32929999 0.2412 0.88499999
-0.32780001 0.2412 0.88499999
-0.32659999 0.24150001 0.88599998
-0.32089999 0.24529999 0.89999998
-0.31850001 0.2458 0.90200001
-0.31659999 0.2456 0.90100002
-0.30689999 0.2428 0.89099997
-0.3046 0.2423 0.889
-0.3028 0.242 0.88800001
-0.30090001 0.24169999 0.88700002
-0.29899999 0.24150001 0.88599998
-0.29750001 0.24150001 0.88599998
-0.2969 0.24609999 0.903
-0.29179999 0.2445 0.89700001
-0.28870001 0.2431 0.89200002
-0.28619999 0.2423 0.889
-0.2784 0.24089999 0.884
-0.2766 0.24070001 0.88300002
-0.27410001 0.2412 0.88499999
-0.27289999 0.24150001 0.88599998
-0.27379999 0.2437 0.89399999
-0.2726 0.2439 0.89499998
-0.27039999 0.24339999 0.89300001
-0.26890001 0.24339999 0.89300001
-0.26730001 0.24339999 0.89300001
-0.26640001 0.2439 0.89499998
-0.2651 0.24420001 0.89600003
-0.26359999 0.24420001 0.89600003
-0.2617 0.2439 0.89499998
-0.2599 0.2437 0.89399999
-0.25830001 0.2437 0.89399999
-0.25650001 0.24339999 0.89300001
-0.2534 0.24339999 0.89300001
-0.25029999 0.24339999 0.89300001
-0.249 0.2437 0.89399999
-0.248 0.24420001 0.89600003
-0.24699999 0.2447 0.898
-0.2463 0.2456 0.90100002
-0.24529999 0.24609999 0.903
-0.24420001 0.2467 0.90499997
-0.2401 0.2472 0.90700001
-0.2385 0.2472 0.90700001
-0.2367 0.24690001 0.90600002
-0.2351 0.24690001 0.90600002
-0.233 0.2464 0.90399998
-0.2307 0.2456 0.90100002
-0.22840001 0.2447 0.898
-0.226 0.2439 0.89499998
-0.22400001 0.24339999 0.89300001
-0.2219 0.2428 0.89099997
-0.2186 0.24259999 0.88999999
-0.2157 0.2445 0.89700001
-0.2146 0.245 0.89899999
-0.2133 0.24529999 0.89999998
-0.21170001 0.24529999 0.89999998
-0.20990001 0.245 0.89899999
-0.2079 0.2445 0.89700001
-0.2061 0.24420001 0.89600003
-0.2041 0.2437 0.89399999
-0.20190001 0.2428 0.89099997
-0.2001 0.24259999 0.88999999
-0.1957 0.2428 0.89099997
-0.19320001 0.2437 0.89399999
-0.19230001 0.2445 0.89700001
-0.19140001 0.24529999 0.89999998
-0.1901 0.2456 0.90100002
-0.18870001 0.2458 0.90200001
-0.1874 0.24609999 0.903
-0.1858 0.24609999 0.903
-0.1842 0.24609999 0.903
-0.1805 0.24529999 0.89999998
-0.1787 0.245 0.89899999
-0.177 0.2447 0.898
-0.175 0.24420001 0.89600003
-0.17309999 0.2437 0.89399999
-0.1714 0.24339999 0.89300001
-0.17020001 0.2439 0.89499998
-0.16859999 0.2439 0.89499998
-0.1673 0.24420001 0.89600003
-0.1655 0.2439 0.89499998
-0.164 0.2439 0.89499998
-0.1621 0.24339999 0.89300001
-0.1584 0.24259999 0.88999999
-0.1566 0.242 0.88800001
-0.155 0.242 0.88800001
-0.15350001 0.242 0.88800001
-0.1523 0.24259999 0.88999999
-0.15090001 0.2428 0.89099997
-0.15000001 0.2439 0.89499998
-0.1486 0.24420001 0.89600003
-0.14740001 0.2447 0.898
-0.146 0.245 0.89899999
-0.14480001 0.2456 0.90100002
-0.1434 0.2458 0.90200001
-0.1417 0.2456 0.90100002
-0.14 0.24529999 0.89999998
-0.1384 0.24529999 0.89999998
-0.1365 0.2447 0.898
-0.1348 0.2445 0.89700001
-0.133 0.2439 0.89499998
-0.1314 0.2439 0.89499998
-0.12989999 0.2439 0.89499998
-0.1283 0.2439 0.89499998
-0.12720001 0.2447 0.898
-0.1259 0.24529999 0.89999998
-0.1246 0.2458 0.90200001
-0.1232 0.24609999 0.903
-0.1219 0.2467 0.90499997
-0.1203 0.2467 0.90499997
-0.1188 0.2467 0.90499997
-0.1139 0.2464 0.90399998
-0.1122 0.24609999 0.903
-0.1104 0.2456 0.90100002
-0.1089 0.2456 0.90100002
-0.1072 0.24529999 0.89999998
-0.1056 0.24529999 0.89999998
-0.1041 0.24529999 0.89999998
-0.1022 0.2445 0.89700001
-0.1004 0.2439 0.89499998
-0.098700002 0.2437 0.89399999
-0.097199999 0.2437 0.89399999
-0.0955 0.24339999 0.89300001
-0.093999997 0.24339999 0.89300001
-0.092600003 0.2439 0.89499998
-0.091200002 0.24420001 0.89600003
-0.0898 0.2447 0.898
-0.088299997 0.2447 0.898
-0.0867 0.2447 0.898
-0.085299999 0.245 0.89899999
-0.083700001 0.245 0.89899999
-0.082099997 0.2447 0.898
-0.078900002 0.2445 0.89700001
-0.077299997 0.2445 0.89700001
-0.0757 0.24420001 0.89600003
-0.074100003 0.24420001 0.89600003
-0.072899997 0.24529999 0.89999998
-0.071400002 0.2456 0.90100002
-0.069799997 0.2456 0.90100002
-0.068400003 0.2458 0.90200001
-0.065399997 0.2467 0.90499997
-0.0625 0.2475 0.90799999
-0.060899999 0.2475 0.90799999
-0.0594 0.2475 0.90799999
-0.0579 0.24770001 0.90899998
-0.056299999 0.24770001 0.90899998
-0.0546 0.2475 0.90799999
-0.052999999 0.2472 0.90700001
-0.051399998 0.24690001 0.90600002
-0.049800001 0.2467 0.90499997
-0.048 0.2458 0.90200001
-0.046399999 0.2456 0.90100002
-0.044799998 0.24529999 0.89999998
-0.043200001 0.245 0.89899999
-0.0416 0.245 0.89899999
-0.040100001 0.245 0.89899999
-0.0385 0.245 0.89899999
-0.036899999 0.2447 0.898
-0.035399999 0.2447 0.898
-0.033799998 0.2445 0.89700001
-0.032099999 0.2439 0.89499998
-0.028999999 0.2439 0.89499998
-0.0274 0.24339999 0.89300001
-0.025800001 0.2428 0.89099997
-0.0243 0.2431 0.89200002
-0.0228 0.24339999 0.89300001
-0.021199999 0.24339999 0.89300001
-0.0197 0.24339999 0.89300001
-0.018200001 0.2439 0.89499998
-0.0167 0.2447 0.898
-0.0027000001 0.2472 0.90700001
-0.0011 0.2475 0.90799999
0.00039999999 0.2472 0.90700001
0.0020000001 0.24690001 0.90600002
0.0035999999 0.2472 0.90700001
0.0052 0.2472 0.90700001
0.0066999998 0.24690001 0.90600002
0.0082999999 0.2467 0.90499997
0.0098000001 0.2464 0.90399998
0.0114 0.2464 0.90399998
0.013 0.24609999 0.903
0.0145 0.2464 0.90399998
0.016100001 0.24609999 0.903
0.0176 0.24609999 0.903
0.019200001 0.24609999 0.903
0.0208 0.2464 0.90399998
0.022399999 0.2464 0.90399998
0.024 0.2467 0.90499997
0.0255 0.2464 0.90399998
0.027000001 0.24609999 0.903
0.0286 0.2458 0.90200001
0.0317 0.2458 0.90200001
0.033300001 0.2458 0.90200001
0.037999999 0.24609999 0.903
0.0458 0.24609999 0.903
0.047400001 0.2464 0.90399998
0.0491 0.2467 0.90499997
0.0506 0.2467 0.90499997
0.052099999 0.2464 0.90399998
0.053800002 0.24690001 0.90600002
0.055399999 0.24690001 0.90600002
0.058499999 0.2467 0.90499997
0.0616 0.2467 0.90499997
0.063199997 0.2467 0.90499997
0.0647 0.2464 0.90399998
0.066200003 0.2464 0.90399998
0.0678 0.2464 0.90399998
0.069399998 0.2464 0.90399998
0.071000002 0.2467 0.90499997
0.0726 0.2467 0.90499997
0.074199997 0.2467 0.90499997
0.0757 0.2467 0.90499997
0.077299997 0.2467 0.90499997
0.078900002 0.2467 0.90499997
0.080200002 0.24609999 0.903
0.081799999 0.24609999 0.903
0.083300002 0.2458 0.90200001
0.089599997 0.24609999 0.903
0.092900001 0.2464 0.90399998
0.094800003 0.2472 0.90700001
0.0964 0.2475 0.90799999
0.098200001 0.248 0.91000003
0.099699996 0.24770001 0.90899998
0.1014 0.248 0.91000003
0.103 0.248 0.91000003
0.1045 0.248 0.91000003
0.1061 0.248 0.91000003
0.1076 0.24770001 0.90899998
0.1093 0.248 0.91000003
0.1108 0.248 0.91000003
0.119 0.24860001 0.912
0.1207 0.24879999 0.91299999
0.1221 0.24860001 0.912
0.1236 0.2483 0.91100001
0.125 0.248 0.91000003
0.1267 0.2483 0.91100001
0.1285 0.24860001 0.912
0.13779999 0.2456 0.90100002
0.1411 0.2458 0.90200001
0.1428 0.24609999 0.903
0.14470001 0.2467 0.90499997
0.14650001 0.24690001 0.90600002
0.1541 0.2491 0.91399997
0.15710001 0.24879999 0.91299999
0.15880001 0.2491 0.91399997
0.1603 0.24879999 0.91299999
0.162 0.2491 0.91399997
0.1636 0.2491 0.91399997
0.1655 0.24969999 0.91600001
0.1673 0.2499 0.917
0.1693 0.25049999 0.91900003
-0.39840001 0.2466 0.89899999
-0.3964 0.2463 0.898
-0.39489999 0.2463 0.898
-0.3933 0.2463 0.898
-0.3734 0.24250001 0.884
-0.37189999 0.24250001 0.884
-0.37079999 0.2427 0.88499999
-0.3696 0.243 0.88599998
-0.36770001 0.2427 0.88499999
-0.3662 0.2427 0.88499999
-0.3646 0.2427 0.88499999
-0.3527 0.2419 0.88200003
-0.35080001 0.24160001 0.88099998
-0.33199999 0.24250001 0.884
-0.33050001 0.24250001 0.884
-0.32929999 0.2427 0.88499999
-0.32780001 0.2427 0.88499999
-0.3263 0.2427 0.88499999
-0.3251 0.243 0.88599998
-0.32390001 0.24330001 0.88700002
-0.3231 0.2438 0.889
-0.32359999 0.2466 0.89899999
-0.32280001 0.2471 0.90100002
-0.32159999 0.2474 0.90200001
-0.31240001 0.2463 0.898
-0.30950001 0.24519999 0.89399999
-0.30649999 0.2441 0.88999999
-0.30430001 0.2436 0.88800001
-0.30239999 0.24330001 0.88700002
-0.30050001 0.243 0.88599998
-0.2987 0.2427 0.88499999
-0.29750001 0.243 0.88599998
-0.28830001 0.24439999 0.89099997
-0.28400001 0.24330001 0.88700002
-0.2818 0.2427 0.88499999
-0.28029999 0.2427 0.88499999
-0.27869999 0.2427 0.88499999
-0.27689999 0.24250001 0.884
-0.2757 0.2427 0.88499999
-0.27509999 0.2436 0.88800001
-0.2735 0.2436 0.88800001
-0.27410001 0.2455 0.89499998
-0.2723 0.24519999 0.89399999
-0.2701 0.2447 0.89200002
-0.2683 0.24439999 0.89099997
-0.2667 0.24439999 0.89099997
-0.2658 0.2449 0.89300001
-0.2651 0.2458 0.89600003
-0.2633 0.2455 0.89499998
-0.2617 0.2455 0.89499998
-0.25960001 0.2449 0.89300001
-0.25 0.2447 0.89200002
-0.24869999 0.2449 0.89300001
-0.24779999 0.2455 0.89499998
-0.2465 0.2458 0.89600003
-0.24600001 0.24690001 0.89999998
-0.2447 0.2471 0.90100002
-0.244 0.24789999 0.90399998
-0.22759999 0.2455 0.89499998
-0.22319999 0.2441 0.88999999
-0.2184 0.2438 0.889
-0.21709999 0.2441 0.88999999
-0.21619999 0.2449 0.89300001
-0.2159 0.2463 0.898
-0.21510001 0.2471 0.90100002
-0.2119 0.2471 0.90100002
-0.2104 0.2471 0.90100002
-0.2084 0.2466 0.89899999
-0.2066 0.2463 0.898
-0.2045 0.2458 0.89600003
-0.2023 0.2449 0.89300001
-0.20029999 0.24439999 0.89099997
-0.199 0.2447 0.89200002
-0.1972 0.24439999 0.89099997
-0.19589999 0.2447 0.89200002
-0.193 0.2449 0.89300001
-0.1919 0.2455 0.89499998
-0.1894 0.2463 0.898
-0.1883 0.24690001 0.89999998
-0.1867 0.24690001 0.89999998
-0.18539999 0.2471 0.90100002
-0.1797 0.2458 0.89600003
-0.17820001 0.2458 0.89600003
-0.17659999 0.2458 0.89600003
-0.17309999 0.24519999 0.89399999
-0.1716 0.24519999 0.89399999
-0.17020001 0.2455 0.89499998
-0.1688 0.2458 0.89600003
-0.1675 0.24600001 0.89700001
-0.1657 0.2458 0.89600003
-0.164 0.2455 0.89499998
-0.1621 0.2449 0.89300001
-0.1566 0.2436 0.88800001
-0.155 0.2436 0.88800001
-0.15350001 0.2436 0.88800001
-0.1523 0.2441 0.88999999
-0.15090001 0.24439999 0.89099997
-0.15019999 0.2458 0.89600003
-0.149 0.2463 0.898
-0.1477 0.24690001 0.89999998
-0.1464 0.2471 0.90100002
-0.145 0.2474 0.90200001
-0.1435 0.24770001 0.903
-0.1417 0.2471 0.90100002
-0.14 0.24690001 0.89999998
-0.1381 0.2463 0.898
-0.1364 0.24600001 0.89700001
-0.1345 0.2455 0.89499998
-0.1327 0.2449 0.89300001
-0.1313 0.24519999 0.89399999
-0.12970001 0.24519999 0.89399999
-0.12800001 0.2449 0.89300001
-0.127 0.24600001 0.89700001
-0.1259 0.24690001 0.89999998
-0.1246 0.2474 0.90200001
-0.1233 0.24789999 0.90399998
-0.1218 0.24789999 0.90399998
-0.1202 0.24789999 0.90399998
-0.1188 0.2482 0.90499997
-0.1155 0.24789999 0.90399998
-0.1138 0.24770001 0.903
-0.1121 0.2474 0.90200001
-0.1103 0.24690001 0.89999998
-0.1088 0.24690001 0.89999998
-0.1072 0.24690001 0.89999998
-0.1055 0.2466 0.89899999
-0.1038 0.2463 0.898
-0.1021 0.2458 0.89600003
-0.1004 0.2455 0.89499998
-0.098700002 0.24519999 0.89399999
-0.097199999 0.24519999 0.89399999
-0.0955 0.2449 0.89300001
-0.093999997 0.2449 0.89300001
-0.092600003 0.2455 0.89499998
-0.091200002 0.2458 0.89600003
-0.0898 0.2463 0.898
-0.088299997 0.2463 0.898
-0.085199997 0.2463 0.898
-0.0836 0.2463 0.898
-0.080499999 0.2463 0.898
-0.077399999 0.2463 0.898
-0.075800002 0.2463 0.898
-0.0744 0.2466 0.89899999
-0.072999999 0.2471 0.90100002
-0.071400002 0.2471 0.90100002
-0.069799997 0.2471 0.90100002
-0.068300001 0.2471 0.90100002
-0.0669 0.24770001 0.903
-0.065399997 0.24789999 0.90399998
-0.063900001 0.2482 0.90499997
-0.062399998 0.24879999 0.90700001
-0.060899999 0.24879999 0.90700001
-0.057799999 0.249 0.90799999
-0.056200001 0.249 0.90799999
-0.054699998 0.2493 0.90899998
-0.053100001 0.249 0.90799999
-0.051399998 0.24879999 0.90700001
-0.049899999 0.24879999 0.90700001
-0.0482 0.2482 0.90499997
-0.046500001 0.24770001 0.903
-0.0449 0.2471 0.90100002
-0.043299999 0.2471 0.90100002
-0.041700002 0.2471 0.90100002
-0.040199999 0.2471 0.90100002
-0.038600001 0.2471 0.90100002
-0.037 0.2471 0.90100002
-0.035500001 0.2471 0.90100002
-0.0276 0.24690001 0.89999998
-0.026000001 0.2458 0.89600003
-0.0244 0.2458 0.89600003
-0.0229 0.2458 0.89600003
-0.021299999 0.2455 0.89499998
-0.0198 0.2458 0.89600003
-0.018200001 0.2463 0.898
-0.0027000001 0.24879999 0.90700001
-0.0011 0.249 0.90799999
0.00039999999 0.24879999 0.90700001
0.0020000001 0.24879999 0.90700001
0.0035999999 0.24879999 0.90700001
0.0052 0.24879999 0.90700001
0.0066999998 0.24879999 0.90700001
0.0082999999 0.2485 0.90600002
0.0098000001 0.2482 0.90499997
0.0114 0.2482 0.90499997
0.013 0.2482 0.90499997
0.0146 0.2485 0.90600002
0.016100001 0.2482 0.90499997
0.0177 0.2482 0.90499997
0.019300001 0.2482 0.90499997
0.0208 0.2482 0.90499997
0.022399999 0.2482 0.90499997
0.0255 0.24789999 0.90399998
0.027100001 0.24789999 0.90399998
0.0286 0.24770001 0.903
0.0317 0.24770001 0.903
0.039799999 0.2493 0.90899998
0.0414 0.24959999 0.91000003
0.046 0.24879999 0.90700001
0.047499999 0.2485 0.90600002
0.0491 0.2485 0.90600002
0.0506 0.2482 0.90499997
0.052099999 0.24770001 0.903
0.053800002 0.2482 0.90499997
0.055300001 0.2482 0.90499997
0.058499999 0.2482 0.90499997
0.059999999 0.2482 0.90499997
0.061700001 0.2485 0.90600002
0.063199997 0.2485 0.90600002
0.066399999 0.2485 0.90600002
0.068000004 0.2485 0.90600002
0.069399998 0.2482 0.90499997
0.071199998 0.24879999 0.90700001
0.072700001 0.24879999 0.90700001
0.074199997 0.2485 0.90600002
0.075800002 0.2485 0.90600002
0.077399999 0.2485 0.90600002
0.078900002 0.2485 0.90600002
0.080399998 0.2482 0.90499997
0.082000002 0.2482 0.90499997
0.083400004 0.24770001 0.903
0.084899999 0.24770001 0.903
0.089599997 0.24770001 0.903
0.091300003 0.24789999 0.90399998
0.092799999 0.24770001 0.903
0.094499998 0.2482 0.90499997
0.096299998 0.24879999 0.90700001
0.097999997 0.249 0.90799999
0.099600002 0.249 0.90799999
0.1013 0.2493 0.90899998
0.1028 0.2493 0.90899998
0.1045 0.24959999 0.91000003
0.1061 0.24959999 0.91000003
0.1076 0.2493 0.90899998
0.1093 0.24959999 0.91000003
0.1108 0.24959999 0.91000003
0.1145 0.2507 0.91399997
0.1177 0.2507 0.91399997
0.1192 0.2507 0.91399997
0.1208 0.2507 0.91399997
0.1223 0.25040001 0.91299999
0.1237 0.25009999 0.912
0.1252 0.2499 0.91100001
0.1269 0.25009999 0.912
0.1285 0.25009999 0.912
0.13 0.25009999 0.912
0.13160001 0.25009999 0.912
0.14470001 0.2482 0.90499997
0.1463 0.2482 0.90499997
0.148 0.2485 0.90600002
0.15180001 0.24959999 0.91000003
0.155 0.24959999 0.91000003
0.1566 0.24959999 0.91000003
0.1583 0.2499 0.91100001
0.15970001 0.24959999 0.91000003
0.16150001 0.2499 0.91100001
0.1631 0.2499 0.91100001
0.1648 0.25009999 0.912
0.16680001 0.2507 0.91399997
0.16869999 0.25119999 0.91600001
-0.4215 0.24699999 0.89499998
-0.419 0.2465 0.89300001
-0.39750001 0.2476 0.89700001
-0.3964 0.24789999 0.898
-0.37189999 0.244 0.884
-0.37079999 0.24429999 0.88499999
-0.36269999 0.244 0.884
-0.3294 0.2432 0.88099998
-0.32820001 0.24339999 0.88200003
-0.3263 0.24429999 0.88499999
-0.32429999 0.24510001 0.88800001
-0.32350001 0.2457 0.88999999
-0.32280001 0.24869999 0.90100002
-0.3188 0.2492 0.903
-0.31659999 0.24869999 0.90100002
-0.31459999 0.2484 0.89999998
-0.3127 0.2481 0.89899999
-0.3098 0.24699999 0.89499998
-0.30649999 0.2457 0.88999999
-0.30430001 0.24510001 0.88800001
-0.30239999 0.2448 0.88700002
-0.30019999 0.24429999 0.88499999
-0.28799999 0.2457 0.88999999
-0.28400001 0.2448 0.88700002
-0.28209999 0.2445 0.88599998
-0.27869999 0.24429999 0.88499999
-0.2791 0.2473 0.89600003
-0.27779999 0.2476 0.89700001
-0.27599999 0.2473 0.89600003
-0.27469999 0.2476 0.89700001
-0.2726 0.24699999 0.89499998
-0.26980001 0.24590001 0.89099997
-0.26800001 0.2457 0.88999999
-0.26640001 0.2457 0.88999999
-0.26519999 0.24590001 0.89099997
-0.26480001 0.24699999 0.89499998
-0.2633 0.24699999 0.89499998
-0.26109999 0.2465 0.89300001
-0.25960001 0.2465 0.89300001
-0.25799999 0.2465 0.89300001
-0.2559 0.24590001 0.89099997
-0.25130001 0.24590001 0.89099997
-0.24969999 0.24590001 0.89099997
-0.2485 0.2462 0.89200002
-0.2472 0.2465 0.89300001
-0.2462 0.24699999 0.89499998
-0.2455 0.24789999 0.898
-0.2445 0.2484 0.89999998
-0.2437 0.2492 0.903
-0.2427 0.2498 0.90499997
-0.2367 0.25009999 0.90600002
-0.2348 0.2498 0.90499997
-0.23280001 0.2492 0.903
-0.23019999 0.2481 0.89899999
-0.22759999 0.24699999 0.89499998
-0.2199 0.2454 0.889
-0.21619999 0.2465 0.89300001
-0.2159 0.24789999 0.898
-0.21510001 0.24869999 0.90100002
-0.21349999 0.24869999 0.90100002
-0.2119 0.24869999 0.90100002
-0.2101 0.2484 0.89999998
-0.2084 0.2481 0.89899999
-0.2066 0.24789999 0.898
-0.2045 0.2473 0.89600003
-0.2025 0.24680001 0.89399999
-0.2008 0.2465 0.89300001
-0.1921 0.2473 0.89600003
-0.191 0.24789999 0.898
-0.18970001 0.2481 0.89899999
-0.1885 0.24869999 0.90100002
-0.18700001 0.24869999 0.90100002
-0.18359999 0.2484 0.89999998
-0.18170001 0.24789999 0.898
-0.1797 0.2473 0.89600003
-0.17479999 0.24699999 0.89499998
-0.1733 0.24699999 0.89499998
-0.1716 0.24680001 0.89399999
-0.17020001 0.24699999 0.89499998
-0.1688 0.2473 0.89600003
-0.1673 0.2473 0.89600003
-0.1655 0.24699999 0.89499998
-0.1636 0.2465 0.89300001
-0.1621 0.2465 0.89300001
-0.1602 0.24590001 0.89099997
-0.1569 0.2457 0.88999999
-0.1552 0.2454 0.889
-0.15360001 0.2454 0.889
-0.1523 0.2457 0.88999999
-0.15090001 0.24590001 0.89099997
-0.15019999 0.2473 0.89600003
-0.149 0.24789999 0.898
-0.1479 0.24869999 0.90100002
-0.1464 0.24869999 0.90100002
-0.145 0.249 0.90200001
-0.1435 0.2492 0.903
-0.1417 0.24869999 0.90100002
-0.14 0.2484 0.89999998
-0.1382 0.2481 0.89899999
-0.1367 0.2481 0.89899999
-0.13510001 0.2481 0.89899999
-0.1336 0.2481 0.89899999
-0.1322 0.2484 0.89999998
-0.1303 0.24789999 0.898
-0.1286 0.2476 0.89700001
-0.1275 0.2484 0.89999998
-0.1261 0.24869999 0.90100002
-0.1245 0.24869999 0.90100002
-0.1232 0.2492 0.903
-0.1216 0.2492 0.903
-0.1201 0.2492 0.903
-0.1185 0.2492 0.903
-0.1169 0.2492 0.903
-0.1154 0.2492 0.903
-0.1137 0.249 0.90200001
-0.112 0.24869999 0.90100002
-0.1103 0.2484 0.89999998
-0.1086 0.2481 0.89899999
-0.1071 0.2481 0.89899999
-0.1054 0.24789999 0.898
-0.1038 0.24789999 0.898
-0.1023 0.24789999 0.898
-0.1005 0.2473 0.89600003
-0.098999999 0.2473 0.89600003
-0.097400002 0.2473 0.89600003
-0.095799997 0.2473 0.89600003
-0.094300002 0.2473 0.89600003
-0.092799999 0.2476 0.89700001
-0.091499999 0.2481 0.89899999
-0.090000004 0.2484 0.89999998
-0.088500001 0.2484 0.89999998
-0.086900003 0.2484 0.89999998
-0.0836 0.24789999 0.898
-0.080499999 0.24789999 0.898
-0.077399999 0.24789999 0.898
-0.075800002 0.24789999 0.898
-0.0744 0.2484 0.89999998
-0.072999999 0.24869999 0.90100002
-0.071599998 0.2492 0.903
-0.069799997 0.24869999 0.90100002
-0.068300001 0.24869999 0.90100002
-0.0669 0.2492 0.903
-0.065399997 0.24950001 0.90399998
-0.063900001 0.2498 0.90499997
-0.0623 0.2498 0.90499997
-0.060899999 0.25029999 0.90700001
-0.0594 0.25060001 0.90799999
-0.057799999 0.25060001 0.90799999
-0.056299999 0.2509 0.90899998
-0.054699998 0.2509 0.90899998
-0.053100001 0.25060001 0.90799999
-0.0515 0.25060001 0.90799999
-0.0482 0.25009999 0.90600002
-0.046599999 0.2498 0.90499997
-0.045000002 0.2492 0.903
-0.043400001 0.2492 0.903
-0.0418 0.2492 0.903
-0.040199999 0.249 0.90200001
-0.038600001 0.24869999 0.90100002
-0.037099998 0.249 0.90200001
-0.035500001 0.24869999 0.90100002
-0.029300001 0.24950001 0.90399998
-0.0277 0.2492 0.903
-0.0261 0.2484 0.89999998
-0.0244 0.2476 0.89700001
-0.0229 0.2473 0.89600003
-0.021299999 0.24699999 0.89499998
-0.0198 0.2473 0.89600003
-0.018200001 0.24789999 0.898
-0.0043000001 0.25029999 0.90700001
-0.0027000001 0.25029999 0.90700001
-0.0011 0.25029999 0.90700001
0.00039999999 0.25029999 0.90700001
0.0020000001 0.25009999 0.90600002
0.0035999999 0.25029999 0.90700001
0.0052 0.25029999 0.90700001
0.0066999998 0.25009999 0.90600002
0.0082999999 0.25009999 0.90600002
0.0098000001 0.2498 0.90499997
0.0114 0.2498 0.90499997
0.013 0.25009999 0.90600002
0.0146 0.25029999 0.90700001
0.016100001 0.25009999 0.90600002
0.0177 0.25009999 0.90600002
0.019300001 0.2498 0.90499997
0.0208 0.25009999 0.90600002
0.022399999 0.25009999 0.90600002
0.0255 0.2498 0.90499997
0.027100001 0.2498 0.90499997
0.0286 0.2492 0.903
0.038199998 0.25029999 0.90700001
0.039900001 0.25119999 0.91000003
0.041499998 0.25170001 0.912
0.043000001 0.25119999 0.91000003
0.044500001 0.2509 0.90899998
0.046100002 0.25060001 0.90799999
0.047499999 0.25009999 0.90600002
0.0506 0.24950001 0.90399998
0.052099999 0.2492 0.903
0.061700001 0.25009999 0.90600002
0.063299999 0.25029999 0.90700001
0.066500001 0.25029999 0.90700001
0.068000004 0.25029999 0.90700001
0.072700001 0.25029999 0.90700001
0.074199997 0.2498 0.90499997
0.075800002 0.25009999 0.90600002
0.077500001 0.25029999 0.90700001
0.078900002 0.25009999 0.90600002
0.080399998 0.2498 0.90499997
0.082000002 0.2498 0.90499997
0.083499998 0.24950001 0.90399998
0.085000001 0.24950001 0.90399998
0.086599998 0.24950001 0.90399998
0.088100001 0.2492 0.903
0.089699998 0.24950001 0.90399998
0.091300003 0.24950001 0.90399998
0.092900001 0.24950001 0.90399998
0.094499998 0.2498 0.90499997
0.0964 0.25060001 0.90799999
0.097999997 0.25060001 0.90799999
0.099600002 0.25060001 0.90799999
0.1013 0.2509 0.90899998
0.1028 0.2509 0.90899998
0.1044 0.2509 0.90899998
0.106 0.2509 0.90899998
0.1076 0.2509 0.90899998
0.1093 0.25119999 0.91000003
0.111 0.25139999 0.91100001
0.1125 0.25139999 0.91100001
0.1165 0.25310001 0.917
0.1179 0.25279999 0.91600001
0.1194 0.25260001 0.91500002
0.1207 0.252 0.91299999
0.1221 0.25170001 0.912
0.1237 0.25170001 0.912
0.1252 0.25139999 0.91100001
0.1267 0.25139999 0.91100001
0.1285 0.25170001 0.912
0.13 0.25170001 0.912
0.13160001 0.25170001 0.912
0.1411 0.249 0.90200001
0.14470001 0.2498 0.90499997
0.14650001 0.25009999 0.90600002
0.1533 0.2509 0.90899998
0.1547 0.25060001 0.90799999
0.15620001 0.25060001 0.90799999
0.1582 0.25119999 0.91000003
0.1596 0.2509 0.90899998
0.1613 0.25119999 0.91000003
0.1629 0.25119999 0.91000003
0.1645 0.25119999 0.91000003
0.1664 0.25170001 0.912
0.17470001 0.25229999 0.91399997
-0.3951 0.24860001 0.89499998
-0.37380001 0.2458 0.88499999
-0.37079999 0.2458 0.88499999
-0.3274 0.2455 0.884
-0.32589999 0.2455 0.884
-0.32390001 0.2464 0.88700002
-0.3188 0.25080001 0.903
-0.31659999 0.2502 0.90100002
-0.31459999 0.25 0.89999998
-0.31310001 0.25 0.89999998
-0.30430001 0.2466 0.88800001
-0.30239999 0.2464 0.88700002
-0.30090001 0.2464 0.88700002
-0.29049999 0.248 0.89300001
-0.2877 0.24690001 0.889
-0.28330001 0.2458 0.88499999
-0.2818 0.2458 0.88499999
-0.28029999 0.2458 0.88499999
-0.28060001 0.2502 0.90100002
-0.27880001 0.25 0.89999998
-0.27630001 0.2491 0.89700001
-0.27469999 0.2491 0.89700001
-0.27200001 0.248 0.89300001
-0.26949999 0.2472 0.88999999
-0.26710001 0.2464 0.88700002
-0.26550001 0.2464 0.88700002
-0.26429999 0.2466 0.88800001
-0.26359999 0.2475 0.89099997
-0.26269999 0.248 0.89300001
-0.26109999 0.248 0.89300001
-0.26050001 0.2489 0.89600003
-0.25279999 0.2475 0.89099997
-0.25099999 0.2472 0.88999999
-0.24969999 0.2475 0.89099997
-0.2482 0.2475 0.89099997
-0.2472 0.248 0.89300001
-0.2457 0.248 0.89300001
-0.2447 0.24860001 0.89499998
-0.2436 0.2491 0.89700001
-0.2429 0.25 0.89999998
-0.2419 0.25049999 0.90200001
-0.2406 0.25080001 0.903
-0.2393 0.2511 0.90399998
-0.23280001 0.25080001 0.903
-0.2304 0.25 0.89999998
-0.2278 0.2489 0.89600003
-0.2255 0.248 0.89300001
-0.2186 0.2472 0.88999999
-0.21610001 0.24969999 0.89899999
-0.21510001 0.2502 0.90100002
-0.2137 0.25049999 0.90200001
-0.2122 0.25049999 0.90200001
-0.2104 0.2502 0.90100002
-0.2086 0.25 0.89999998
-0.2066 0.2494 0.898
-0.20479999 0.2491 0.89700001
-0.20299999 0.2489 0.89600003
-0.20119999 0.24860001 0.89499998
-0.1997 0.24860001 0.89499998
-0.193 0.248 0.89300001
-0.1917 0.2483 0.89399999
-0.19059999 0.2489 0.89600003
-0.1894 0.2494 0.898
-0.1883 0.25 0.89999998
-0.1846 0.25139999 0.90499997
-0.18269999 0.25080001 0.903
-0.17910001 0.2502 0.90100002
-0.1776 0.2502 0.90100002
-0.1758 0.25 0.89999998
-0.1741 0.24969999 0.89899999
-0.1723 0.2494 0.898
-0.1708 0.2494 0.898
-0.16940001 0.24969999 0.89899999
-0.16769999 0.2494 0.898
-0.1657 0.2489 0.89600003
-0.16419999 0.2489 0.89600003
-0.16240001 0.24860001 0.89499998
-0.1605 0.248 0.89300001
-0.1569 0.2472 0.88999999
-0.1552 0.24690001 0.889
-0.15360001 0.24690001 0.889
-0.1524 0.2475 0.89099997
-0.1512 0.248 0.89300001
-0.15090001 0.25 0.89999998
-0.1495 0.2502 0.90100002
-0.14820001 0.25080001 0.903
-0.14669999 0.25080001 0.903
-0.14030001 0.25049999 0.90200001
-0.13850001 0.2502 0.90100002
-0.13699999 0.2502 0.90100002
-0.1354 0.2502 0.90100002
-0.13420001 0.25080001 0.903
-0.13259999 0.25080001 0.903
-0.13060001 0.25 0.89999998
-0.12899999 0.25 0.89999998
-0.1276 0.2502 0.90100002
-0.1261 0.2502 0.90100002
-0.1246 0.25049999 0.90200001
-0.1231 0.25049999 0.90200001
-0.1216 0.25080001 0.903
-0.1201 0.25080001 0.903
-0.1185 0.25080001 0.903
-0.1169 0.25080001 0.903
-0.1152 0.25049999 0.90200001
-0.1136 0.2502 0.90100002
-0.112 0.2502 0.90100002
-0.1103 0.25 0.89999998
-0.1088 0.25 0.89999998
-0.1072 0.25 0.89999998
-0.1041 0.25 0.89999998
-0.1025 0.25 0.89999998
-0.1008 0.24969999 0.89899999
-0.099200003 0.2494 0.898
-0.096000001 0.2491 0.89700001
-0.092900001 0.2494 0.898
