# .PCD v0.7 - Point Cloud Data file format
VERSION 0.7
FIELDS x y z
SIZE 4 4 4
TYPE F F F
COUNT 1 1 1
WIDTH 1531
HEIGHT 1
VIEWPOINT 0 0 0 1 0 0 0
POINTS 1531
DATA ascii
-0.21520001 0.068700001 0.87599999
-0.1979 0.065499999 0.83499998
-0.19589999 0.065300003 0.833
-0.1943 0.065300003 0.83200002
-0.1926 0.065200001 0.83099997
-0.19140001 0.065300003 0.83200002
-0.18970001 0.065200001 0.83099997
-0.1883 0.065200001 0.83099997
-0.1866 0.065099999 0.82999998
-0.18539999 0.065200001 0.83099997
-0.1839 0.065200001 0.83099997
-0.1825 0.065200001 0.83099997
-0.1811 0.065200001 0.83099997
-0.17839999 0.065300003 0.83200002
-0.177 0.065300003 0.83200002
-0.1753 0.065200001 0.83099997
-0.17389999 0.065200001 0.83099997
-0.17219999 0.065099999 0.82999998
-0.1708 0.065099999 0.82999998
-0.1693 0.065099999 0.82999998
-0.1681 0.065200001 0.83099997
-0.16670001 0.065200001 0.83099997
-0.1652 0.065200001 0.83099997
-0.1636 0.065099999 0.82999998
-0.1622 0.065099999 0.82999998
-0.16069999 0.065099999 0.82999998
-0.1593 0.065099999 0.82999998
-0.1578 0.065099999 0.82999998
-0.1564 0.065099999 0.82999998
-0.155 0.065099999 0.82999998
-0.15350001 0.065099999 0.82999998
-0.1523 0.065200001 0.83099997
-0.1508 0.065200001 0.83099997
-0.1494 0.065200001 0.83099997
-0.1479 0.065200001 0.83099997
-0.1463 0.065099999 0.82999998
-0.1451 0.065200001 0.83099997
-0.13789999 0.065200001 0.83099997
-0.1364 0.065200001 0.83099997
-0.13349999 0.065200001 0.83099997
-0.1323 0.065300003 0.83200002
-0.13070001 0.065200001 0.83099997
-0.12909999 0.065099999 0.82999998
-0.1276 0.065099999 0.82999998
-0.12620001 0.065099999 0.82999998
-0.1247 0.065099999 0.82999998
-0.1232 0.064999998 0.829
-0.1216 0.064900003 0.82800001
-0.1203 0.064999998 0.829
-0.1189 0.064999998 0.829
-0.1176 0.065099999 0.82999998
-0.1161 0.065099999 0.82999998
-0.1148 0.065200001 0.83099997
-0.1137 0.065300003 0.833
-0.1123 0.065399997 0.83399999
-0.1109 0.065399997 0.83399999
-0.1093 0.065300003 0.833
-0.1079 0.065300003 0.833
-0.1064 0.065300003 0.833
-0.105 0.065300003 0.833
-0.1035 0.065300003 0.833
-0.102 0.065300003 0.83200002
-0.1007 0.065300003 0.833
-0.099200003 0.065300003 0.833
-0.097800002 0.065300003 0.833
-0.096299998 0.065300003 0.833
-0.094899997 0.065300003 0.833
-0.093400002 0.065300003 0.833
-0.091899998 0.065300003 0.83200002
-0.090300001 0.065200001 0.83099997
-0.0889 0.065200001 0.83099997
-0.084399998 0.064999998 0.829
-0.082900003 0.064999998 0.829
-0.078699999 0.065099999 0.82999998
-0.077299997 0.065099999 0.82999998
-0.075900003 0.065200001 0.83099997
-0.074500002 0.065200001 0.83099997
-0.073100001 0.065200001 0.83099997
-0.071500003 0.065099999 0.82999998
-0.070200004 0.065200001 0.83099997
-0.068700001 0.065200001 0.83099997
-0.067299999 0.065200001 0.83099997
-0.065899998 0.065200001 0.83099997
-0.064400002 0.065200001 0.83099997
-0.063000001 0.065200001 0.83099997
-0.0616 0.065300003 0.83200002
-0.060199998 0.065300003 0.83200002
-0.058699999 0.065300003 0.83200002
-0.057300001 0.065300003 0.833
-0.0559 0.065300003 0.833
-0.054499999 0.065399997 0.83399999
-0.053100001 0.065499999 0.83499998
-0.0517 0.065499999 0.83499998
-0.050299998 0.0656 0.83600003
-0.048900001 0.0656 0.83600003
-0.047400001 0.0656 0.83600003
-0.046 0.065700002 0.83700001
-0.044599999 0.065700002 0.83700001
-0.043099999 0.065700002 0.83700001
-0.041700002 0.065700002 0.838
-0.0403 0.065700002 0.838
-0.038800001 0.065700002 0.838
-0.0374 0.065800004 0.83899999
-0.035999998 0.065899998 0.83999997
-0.034499999 0.065899998 0.83999997
-0.033199999 0.066100001 0.84299999
-0.031800002 0.066200003 0.84399998
-0.030300001 0.066200003 0.84399998
-0.028899999 0.066299997 0.84500003
-0.0275 0.070100002 0.89399999
-0.026000001 0.0704 0.898
-0.024499999 0.070600003 0.89999998
-0.023 0.070600003 0.89999998
-0.021400001 0.070699997 0.90100002
-0.0199 0.070799999 0.90200001
-0.018300001 0.070799999 0.90200001
-0.016799999 0.070799999 0.90200001
-0.0152 0.070799999 0.90200001
-0.0136 0.070799999 0.90200001
-0.0121 0.070699997 0.90100002
-0.0105 0.070699997 0.90100002
-0.0088999998 0.070600003 0.89999998
-0.0074 0.070699997 0.90100002
-0.0057999999 0.070699997 0.90100002
-0.0043000001 0.070699997 0.90100002
-0.0027000001 0.070699997 0.90100002
-0.0011 0.070699997 0.90100002
0.00039999999 0.070600003 0.89999998
0.0020000001 0.070500001 0.89899999
0.0035000001 0.0704 0.898
0.0051000002 0.0704 0.89700001
0.0066 0.0704 0.89700001
0.0082 0.070299998 0.89600003
0.0097000003 0.070200004 0.89499998
0.0113 0.070299998 0.89600003
0.0129 0.070299998 0.89600003
0.0144 0.0704 0.898
0.016000001 0.0704 0.898
0.0176 0.0704 0.898
0.019099999 0.0704 0.898
0.0207 0.0704 0.898
0.0222 0.070299998 0.89600003
0.023700001 0.070200004 0.89499998
0.0252 0.070200004 0.89499998
0.026799999 0.070200004 0.89499998
0.0284 0.0704 0.898
0.030099999 0.070600003 0.89999998
0.0317 0.070699997 0.90100002
0.033300001 0.070799999 0.90200001
0.034899998 0.070799999 0.903
0.036400001 0.070799999 0.903
0.037999999 0.070799999 0.903
0.0396 0.070799999 0.903
0.041099999 0.070799999 0.90200001
0.042599998 0.070799999 0.90200001
0.044199999 0.070699997 0.90100002
0.045699999 0.070699997 0.90100002
0.047200002 0.070600003 0.89999998
0.048700001 0.070500001 0.89899999
0.0502 0.0704 0.898
0.051800001 0.070500001 0.89899999
0.053300001 0.0704 0.898
0.055 0.070600003 0.89999998
0.056600001 0.070600003 0.89999998
0.0581 0.070600003 0.89999998
0.059799999 0.070699997 0.90100002
0.061299998 0.070600003 0.89999998
0.062600002 0.0704 0.89700001
0.064099997 0.070299998 0.89600003
0.0656 0.070200004 0.89499998
0.067100003 0.070200004 0.89499998
0.068700001 0.070200004 0.89499998
0.070200004 0.070200004 0.89499998
0.071900003 0.0704 0.89700001
0.073600002 0.0704 0.898
0.075300001 0.070600003 0.89999998
0.076899998 0.070699997 0.90100002
0.078500003 0.070699997 0.90100002
0.0801 0.070699997 0.90100002
0.081699997 0.070799999 0.90200001
0.083300002 0.070799999 0.90200001
0.086400002 0.070799999 0.90200001
0.088100001 0.070799999 0.903
0.089699998 0.070900001 0.90399998
0.091300003 0.070900001 0.90399998
0.092799999 0.070799999 0.903
0.094300002 0.070799999 0.903
0.095899999 0.070799999 0.903
0.097499996 0.070799999 0.903
0.098999999 0.070799999 0.903
0.1004 0.070699997 0.90100002
0.1019 0.070699997 0.90100002
0.1035 0.070699997 0.90100002
0.1051 0.070699997 0.90100002
0.1067 0.070799999 0.90200001
0.1084 0.070799999 0.903
0.1097 0.070699997 0.90100002
0.1113 0.070699997 0.90100002
0.1129 0.070699997 0.90100002
0.1144 0.070699997 0.90100002
0.116 0.070699997 0.90100002
0.1175 0.070699997 0.90100002
0.1191 0.070699997 0.90100002
0.1205 0.070600003 0.89999998
0.1222 0.070699997 0.90100002
0.1238 0.070699997 0.90100002
0.12540001 0.070699997 0.90100002
0.1268 0.070600003 0.89999998
0.1283 0.070600003 0.89999998
0.1296 0.0704 0.898
0.131 0.0704 0.89700001
0.13240001 0.070299998 0.89600003
0.134 0.070299998 0.89600003
0.1358 0.0704 0.898
0.1374 0.0704 0.898
0.1388 0.0704 0.89700001
0.14 0.070200004 0.89499998
0.14129999 0.07 0.89300001
0.1459 0.07 0.89300001
0.14749999 0.07 0.89300001
0.14929999 0.070200004 0.89499998
0.1514 0.0704 0.898
0.15350001 0.070699997 0.90100002
0.1552 0.070799999 0.90200001
0.1569 0.070799999 0.903
0.1587 0.070900001 0.90399998
0.1604 0.071000002 0.90499997
0.1618 0.070900001 0.90399998
0.1648 0.070799999 0.903
0.1663 0.070799999 0.903
0.1679 0.070799999 0.903
0.16949999 0.070799999 0.903
0.17120001 0.070900001 0.90399998
0.17299999 0.071000002 0.90499997
0.1745 0.071000002 0.90499997
0.1763 0.071099997 0.90600002
0.1777 0.071000002 0.90499997
0.17919999 0.071000002 0.90499997
0.18080001 0.071000002 0.90499997
0.1824 0.071000002 0.90499997
0.1839 0.071000002 0.90499997
0.1857 0.071099997 0.90600002
0.18709999 0.071000002 0.90499997
0.1891 0.071099997 0.90700001
0.1909 0.071199998 0.90799999
-0.41960001 0.0704 0.87800002
-0.40360001 0.070799999 0.88300002
-0.36809999 0.070100002 0.875
-0.34889999 0.071199998 0.88800001
-0.34740001 0.071199998 0.88800001
-0.34549999 0.071099997 0.88700002
-0.32659999 0.071000002 0.88599998
-0.3251 0.071000002 0.88599998
-0.3098 0.071000002 0.88599998
-0.30860001 0.071099997 0.88700002
-0.30739999 0.071199998 0.88800001
-0.30649999 0.071400002 0.88999999
-0.30500001 0.071400002 0.88999999
-0.30340001 0.071400002 0.88999999
-0.3019 0.071400002 0.88999999
-0.30039999 0.071400002 0.88999999
-0.29730001 0.071400002 0.88999999
-0.29570001 0.071400002 0.88999999
-0.29260001 0.071400002 0.88999999
-0.29139999 0.071400002 0.89099997
-0.2902 0.071500003 0.89200002
-0.289 0.071599998 0.89300001
-0.28780001 0.071699999 0.89399999
-0.28650001 0.071800001 0.89499998
-0.28529999 0.071800001 0.89600003
-0.2775 0.071800001 0.89600003
-0.27599999 0.071800001 0.89600003
-0.26980001 0.071400002 0.89099997
-0.2683 0.071400002 0.89099997
-0.25279999 0.071400002 0.89099997
-0.2499 0.071900003 0.89700001
-0.248 0.071800001 0.89600003
-0.24699999 0.071999997 0.898
-0.2457 0.072099999 0.89899999
-0.2439 0.071999997 0.898
-0.2418 0.071800001 0.89600003
-0.23999999 0.071800001 0.89499998
-0.2379 0.071599998 0.89300001
-0.23639999 0.071599998 0.89300001
-0.2343 0.071400002 0.89099997
-0.2325 0.071400002 0.88999999
-0.2304 0.071199998 0.88800001
-0.2286 0.071099997 0.88700002
-0.22149999 0.070799999 0.88300002
-0.2192 0.070500001 0.88
-0.2167 0.070200004 0.87599999
-0.2142 0.069899999 0.87199998
-0.19589999 0.066799998 0.833
-0.19400001 0.066600002 0.83099997
-0.1926 0.066600002 0.83099997
-0.1912 0.066600002 0.83099997
-0.1895 0.066500001 0.82999998
-0.18799999 0.066500001 0.82999998
-0.1866 0.066500001 0.82999998
-0.18520001 0.066500001 0.82999998
-0.1839 0.066600002 0.83099997
-0.1825 0.066600002 0.83099997
-0.1811 0.066600002 0.83099997
-0.18009999 0.066799998 0.833
-0.177 0.066699997 0.83200002
-0.17550001 0.066699997 0.83200002
-0.17389999 0.066600002 0.83099997
-0.17219999 0.066500001 0.82999998
-0.1708 0.066500001 0.82999998
-0.1693 0.066500001 0.82999998
-0.1679 0.066500001 0.82999998
-0.1665 0.066500001 0.82999998
-0.1652 0.066600002 0.83099997
-0.1636 0.066500001 0.82999998
-0.1622 0.066500001 0.82999998
-0.16069999 0.066500001 0.82999998
-0.1591 0.066500001 0.829
-0.1576 0.066500001 0.829
-0.15620001 0.066500001 0.829
-0.155 0.066500001 0.82999998
-0.15350001 0.066500001 0.82999998
-0.1523 0.066600002 0.83099997
-0.1508 0.066600002 0.83099997
-0.1494 0.066600002 0.83099997
-0.1479 0.066600002 0.83099997
-0.14650001 0.066600002 0.83099997
-0.1451 0.066600002 0.83099997
-0.1436 0.066600002 0.83099997
-0.1366 0.066699997 0.83200002
-0.13510001 0.066699997 0.83200002
-0.1337 0.066699997 0.83200002
-0.13240001 0.066799998 0.833
-0.13079999 0.066699997 0.83200002
-0.1292 0.066600002 0.83099997
-0.1278 0.066600002 0.83099997
-0.12630001 0.066600002 0.83099997
-0.1247 0.066500001 0.82999998
-0.1232 0.066500001 0.829
-0.1217 0.066500001 0.829
-0.1189 0.066500001 0.829
-0.1176 0.066500001 0.82999998
-0.1161 0.066500001 0.82999998
-0.1148 0.066600002 0.83099997
-0.1138 0.0669 0.83399999
-0.1125 0.0669 0.83499998
-0.111 0.0669 0.83499998
-0.1095 0.0669 0.83399999
-0.108 0.0669 0.83399999
-0.1064 0.066799998 0.833
-0.105 0.066799998 0.833
-0.1034 0.066699997 0.83200002
-0.102 0.066699997 0.83200002
-0.1005 0.066699997 0.83200002
-0.099200003 0.066799998 0.833
-0.097800002 0.066799998 0.833
-0.0964 0.0669 0.83399999
-0.094899997 0.066799998 0.833
-0.093400002 0.066799998 0.833
-0.092 0.066799998 0.833
-0.090400003 0.066699997 0.83200002
-0.089000002 0.066699997 0.83200002
-0.087499999 0.066600002 0.83099997
-0.085900001 0.066500001 0.82999998
-0.0845 0.066500001 0.82999998
-0.082999997 0.066500001 0.82999998
-0.081699997 0.066600002 0.83099997
-0.080200002 0.066500001 0.82999998
-0.0788 0.066600002 0.83099997
-0.077399999 0.066600002 0.83099997
-0.075900003 0.066600002 0.83099997
-0.074500002 0.066600002 0.83099997
-0.073100001 0.066600002 0.83099997
-0.071500003 0.066500001 0.82999998
-0.070200004 0.066600002 0.83099997
-0.068700001 0.066600002 0.83099997
-0.067400001 0.066699997 0.83200002
-0.065899998 0.066699997 0.83200002
-0.064599998 0.066799998 0.833
-0.063100003 0.066799998 0.833
-0.061799999 0.0669 0.83399999
-0.0603 0.0669 0.83399999
-0.058899999 0.0669 0.83399999
-0.057399999 0.0669 0.83399999
-0.056000002 0.0669 0.83399999
-0.054499999 0.0669 0.83399999
-0.053100001 0.0669 0.83499998
-0.0517 0.0669 0.83499998
-0.0502 0.0669 0.83499998
-0.048799999 0.0669 0.83499998
-0.047400001 0.0669 0.83499998
-0.046 0.067100003 0.83700001
-0.044599999 0.067100003 0.83700001
-0.043200001 0.067199998 0.838
-0.041700002 0.067199998 0.838
-0.0403 0.067199998 0.838
-0.038899999 0.067299999 0.83899999
-0.0374 0.067299999 0.83899999
-0.035999998 0.067299999 0.83999997
-0.034600001 0.067400001 0.84100002
-0.033199999 0.067599997 0.84299999
-0.031800002 0.067699999 0.84500003
-0.0275 0.071800001 0.89600003
-0.0261 0.072099999 0.89899999
-0.024499999 0.0722 0.89999998
-0.023 0.0722 0.89999998
-0.021400001 0.0722 0.90100002
-0.0199 0.0722 0.90100002
-0.018300001 0.0722 0.90100002
-0.0167 0.0722 0.90100002
-0.0152 0.0722 0.90100002
-0.0136 0.0722 0.90100002
-0.0121 0.0722 0.90100002
-0.0105 0.0722 0.90100002
-0.0088999998 0.0722 0.89999998
-0.0074 0.0722 0.90100002
-0.0057999999 0.0722 0.89999998
-0.0041999999 0.0722 0.89999998
-0.0027000001 0.0722 0.89999998
-0.0011 0.0722 0.89999998
0.00039999999 0.0722 0.89999998
0.0020000001 0.0722 0.89999998
0.0035000001 0.072099999 0.89899999
0.0051000002 0.072099999 0.89899999
0.0066999998 0.072099999 0.89899999
0.0082 0.071999997 0.898
0.0098000001 0.071900003 0.89700001
0.0113 0.071800001 0.89600003
0.0129 0.071900003 0.89700001
0.0144 0.071900003 0.89700001
0.016000001 0.071999997 0.898
0.0175 0.071900003 0.89700001
0.019099999 0.071900003 0.89700001
0.0206 0.071900003 0.89700001
0.0222 0.071800001 0.89600003
0.023700001 0.071800001 0.89499998
0.0252 0.071699999 0.89399999
0.026799999 0.071699999 0.89399999
0.0284 0.071800001 0.89600003
0.029999999 0.071999997 0.898
0.031599998 0.0722 0.89999998
0.033199999 0.0722 0.90100002
0.034899998 0.072400004 0.903
0.036400001 0.072400004 0.903
0.037999999 0.072400004 0.903
0.0396 0.072400004 0.903
0.041099999 0.072300002 0.90200001
0.042599998 0.0722 0.90100002
0.044199999 0.0722 0.90100002
0.045699999 0.0722 0.89999998
0.048700001 0.071999997 0.898
0.0502 0.071999997 0.898
0.051800001 0.071999997 0.898
0.053300001 0.071999997 0.898
0.055 0.0722 0.89999998
0.056600001 0.0722 0.89999998
0.058200002 0.0722 0.90100002
0.059799999 0.072300002 0.90200001
0.061299998 0.0722 0.90100002
0.062799998 0.0722 0.89999998
0.064300001 0.072099999 0.89899999
0.065800004 0.071999997 0.898
0.067199998 0.071800001 0.89600003
0.068800002 0.071800001 0.89600003
0.0704 0.071900003 0.89700001
0.071999997 0.071999997 0.898
0.073700003 0.0722 0.89999998
0.075400002 0.0722 0.90100002
0.077100001 0.072400004 0.903
0.078699999 0.072400004 0.903
0.0801 0.0722 0.90100002
0.081600003 0.0722 0.90100002
0.083300002 0.072300002 0.90200001
0.084799998 0.0722 0.90100002
0.086300001 0.0722 0.90100002
0.088 0.072300002 0.90200001
0.089599997 0.072400004 0.903
0.091300003 0.072499998 0.90399998
0.092799999 0.072400004 0.903
0.0942 0.072300002 0.90200001
0.095799997 0.072300002 0.90200001
0.097400002 0.072300002 0.90200001
0.098899998 0.072300002 0.90200001
0.1003 0.0722 0.89999998
0.1018 0.0722 0.89999998
0.1035 0.0722 0.90100002
0.1051 0.0722 0.90100002
0.1067 0.072300002 0.90200001
0.1083 0.072300002 0.90200001
0.1097 0.0722 0.90100002
0.1113 0.0722 0.90100002
0.1129 0.0722 0.90100002
0.1143 0.0722 0.89999998
0.116 0.0722 0.90100002
0.1175 0.0722 0.90100002
0.1191 0.0722 0.90100002
0.1222 0.0722 0.90100002
0.1238 0.0722 0.90100002
0.12540001 0.0722 0.90100002
0.1269 0.0722 0.90100002
0.1285 0.0722 0.90100002
0.12989999 0.0722 0.89999998
0.13150001 0.0722 0.89999998
0.133 0.0722 0.89999998
0.1346 0.0722 0.89999998
0.13609999 0.0722 0.89999998
0.13770001 0.0722 0.89999998
0.1393 0.0722 0.89999998
0.14049999 0.071999997 0.898
0.148 0.071800001 0.89600003
0.1498 0.071999997 0.898
0.1517 0.0722 0.89999998
0.15360001 0.072300002 0.90200001
0.15539999 0.072400004 0.903
0.1569 0.072400004 0.903
0.1587 0.072499998 0.90399998
0.1604 0.0726 0.90499997
0.1618 0.072499998 0.90399998
0.16320001 0.072400004 0.903
0.1648 0.072400004 0.903
0.1663 0.072400004 0.903
0.1679 0.072400004 0.903
0.16949999 0.072400004 0.903
0.171 0.072400004 0.903
0.17299999 0.0726 0.90499997
0.1745 0.0726 0.90499997
0.1761 0.0726 0.90499997
0.17749999 0.072499998 0.90399998
0.17900001 0.072499998 0.90399998
0.1806 0.072499998 0.90399998
0.1824 0.0726 0.90499997
0.1839 0.0726 0.90499997
0.1855 0.0726 0.90499997
0.18709999 0.0726 0.90499997
0.1891 0.072700001 0.90700001
0.1909 0.072800003 0.90799999
-0.41960001 0.071900003 0.87800002
-0.40759999 0.072499998 0.88499999
-0.40560001 0.072400004 0.884
-0.40360001 0.072300002 0.88300002
-0.4016 0.0722 0.88200003
-0.39820001 0.073299997 0.89499998
-0.398 0.0735 0.898
-0.3698 0.071999997 0.87900001
-0.352 0.072700001 0.88800001
-0.35049999 0.072700001 0.88800001
-0.347 0.0726 0.88700002
-0.34549999 0.0726 0.88700002
-0.33050001 0.072700001 0.88800001
-0.3251 0.0726 0.88599998
-0.32359999 0.0726 0.88599998
-0.31009999 0.0726 0.88700002
-0.30700001 0.0726 0.88700002
-0.30579999 0.072700001 0.88800001
-0.3046 0.072800003 0.889
-0.30309999 0.072800003 0.889
-0.3019 0.072899997 0.88999999
-0.30039999 0.072899997 0.88999999
-0.29879999 0.072899997 0.88999999
-0.2911 0.072899997 0.88999999
-0.2902 0.073100001 0.89200002
-0.289 0.073100001 0.89300001
-0.27599999 0.073399998 0.89600003
-0.27070001 0.073200002 0.89399999
-0.26949999 0.073299997 0.89499998
-0.2491 0.073700003 0.89999998
-0.24600001 0.073700003 0.89999998
-0.24420001 0.073600002 0.89899999
-0.2421 0.0735 0.89700001
-0.23999999 0.073299997 0.89499998
-0.2379 0.073100001 0.89300001
-0.2361 0.073100001 0.89200002
-0.2343 0.072999999 0.89099997
-0.2325 0.072899997 0.88999999
-0.2304 0.072700001 0.88800001
-0.2286 0.0726 0.88700002
-0.22679999 0.0726 0.88599998
-0.2212 0.0722 0.88200003
-0.21870001 0.071900003 0.87800002
-0.2157 0.071400002 0.87199998
-0.21340001 0.071199998 0.86900002
-0.21070001 0.070799999 0.86400002
-0.1912 0.068099998 0.83099997
-0.1895 0.068000004 0.82999998
-0.18799999 0.068000004 0.82999998
-0.1849 0.067900002 0.829
-0.1823 0.068000004 0.82999998
-0.1811 0.068099998 0.83099997
-0.1798 0.068099998 0.83200002
-0.177 0.068099998 0.83200002
-0.17550001 0.068099998 0.83200002
-0.17389999 0.068099998 0.83099997
-0.17219999 0.068000004 0.82999998
-0.1708 0.068000004 0.82999998
-0.1691 0.067900002 0.829
-0.1679 0.068000004 0.82999998
-0.1665 0.068000004 0.82999998
-0.16500001 0.068000004 0.82999998
-0.1636 0.068000004 0.82999998
-0.162 0.067900002 0.829
-0.1605 0.067900002 0.829
-0.1591 0.067900002 0.829
-0.1575 0.0678 0.82800001
-0.156 0.0678 0.82800001
-0.15440001 0.067699999 0.82700002
-0.1531 0.0678 0.82800001
-0.15189999 0.067900002 0.829
-0.1506 0.068000004 0.82999998
-0.14920001 0.068000004 0.82999998
-0.1476 0.067900002 0.829
-0.1463 0.068000004 0.82999998
-0.1451 0.068099998 0.83099997
-0.1424 0.068099998 0.83200002
-0.1409 0.068099998 0.83200002
-0.13950001 0.068099998 0.83200002
-0.1382 0.0682 0.833
-0.1355 0.068300001 0.83399999
-0.134 0.068300001 0.83399999
-0.13259999 0.068300001 0.83399999
-0.1279 0.068099998 0.83200002
-0.1265 0.068099998 0.83200002
-0.1249 0.068099998 0.83099997
-0.1235 0.068099998 0.83099997
-0.1219 0.068000004 0.82999998
-0.119 0.068000004 0.82999998
-0.1176 0.068000004 0.82999998
-0.115 0.068099998 0.83200002
-0.1138 0.068300001 0.83399999
-0.1127 0.068599999 0.83700001
-0.1113 0.068599999 0.83700001
-0.1097 0.068499997 0.83600003
-0.1081 0.068400003 0.83499998
-0.1067 0.068400003 0.83499998
-0.1051 0.068300001 0.83399999
-0.1035 0.0682 0.833
-0.1021 0.0682 0.833
-0.1007 0.0682 0.833
-0.099200003 0.0682 0.833
-0.097900003 0.068300001 0.83399999
-0.0964 0.068300001 0.83399999
-0.094999999 0.068300001 0.83399999
-0.093599997 0.068300001 0.83399999
-0.092 0.0682 0.833
-0.090599999 0.0682 0.833
-0.089100003 0.0682 0.833
-0.087499999 0.068099998 0.83099997
-0.086000003 0.068099998 0.83099997
-0.0845 0.068000004 0.82999998
-0.083099999 0.068099998 0.83099997
-0.081699997 0.068099998 0.83099997
-0.0788 0.068099998 0.83099997
-0.077399999 0.068099998 0.83099997
-0.075900003 0.068099998 0.83099997
-0.074500002 0.068099998 0.83099997
-0.072999999 0.068000004 0.82999998
-0.071500003 0.068000004 0.82999998
-0.070200004 0.068099998 0.83099997
-0.068700001 0.068099998 0.83099997
-0.067400001 0.068099998 0.83200002
-0.065899998 0.068099998 0.83200002
-0.064599998 0.0682 0.833
-0.063100003 0.0682 0.833
-0.061799999 0.068300001 0.83399999
-0.0603 0.068300001 0.83399999
-0.058899999 0.068300001 0.83399999
-0.057399999 0.068300001 0.83399999
-0.056000002 0.068300001 0.83399999
-0.0546 0.068400003 0.83499998
-0.053100001 0.068400003 0.83499998
-0.0517 0.068400003 0.83499998
-0.0502 0.068400003 0.83499998
-0.048799999 0.068400003 0.83499998
-0.047400001 0.068400003 0.83499998
-0.046 0.068599999 0.83700001
-0.044599999 0.068599999 0.83700001
-0.043200001 0.068599999 0.838
-0.0418 0.068700001 0.83899999
-0.0403 0.068700001 0.83899999
-0.038899999 0.068700001 0.83899999
-0.0374 0.068800002 0.83999997
-0.035999998 0.068899997 0.84100002
-0.034699999 0.068999998 0.84299999
-0.033300001 0.069200002 0.84500003
-0.0319 0.069300003 0.84600002
-0.0275 0.073399998 0.89600003
-0.0261 0.073600002 0.89899999
-0.024499999 0.073700003 0.89999998
-0.023 0.073700003 0.89999998
-0.021400001 0.073799998 0.90100002
-0.0198 0.073700003 0.89999998
-0.018300001 0.073700003 0.89999998
-0.0167 0.073700003 0.89999998
-0.0152 0.073700003 0.89999998
-0.0136 0.073700003 0.89999998
-0.012 0.073700003 0.89999998
-0.0105 0.073600002 0.89899999
-0.0088999998 0.073600002 0.89899999
-0.0074 0.073700003 0.89999998
-0.0057999999 0.073700003 0.89999998
-0.0041999999 0.073700003 0.89999998
-0.0027000001 0.073700003 0.89999998
-0.0011 0.073700003 0.89999998
0.00039999999 0.073700003 0.89999998
0.0020000001 0.073700003 0.89999998
0.0035999999 0.073700003 0.89999998
0.0051000002 0.073700003 0.89999998
0.0066999998 0.073600002 0.89899999
0.0082 0.0735 0.898
0.0098000001 0.0735 0.898
0.0113 0.0735 0.89700001
0.0129 0.0735 0.89700001
0.0144 0.073399998 0.89600003
0.016000001 0.073399998 0.89600003
0.0175 0.073399998 0.89600003
0.019099999 0.073399998 0.89600003
0.0206 0.073399998 0.89600003
0.0221 0.073299997 0.89499998
0.023700001 0.073200002 0.89399999
0.0252 0.073100001 0.89300001
0.026699999 0.073100001 0.89300001
0.0283 0.073200002 0.89399999
0.029899999 0.073399998 0.89600003
0.031599998 0.0735 0.898
0.033199999 0.073700003 0.89999998
0.0348 0.073799998 0.90100002
0.036400001 0.073899999 0.90200001
0.037999999 0.073899999 0.90200001
0.039500002 0.073799998 0.90100002
0.041000001 0.073799998 0.90100002
0.0425 0.073700003 0.89999998
0.044100001 0.073700003 0.89999998
0.045699999 0.073700003 0.89999998
0.047200002 0.073700003 0.89999998
0.048700001 0.0735 0.898
0.0502 0.0735 0.898
0.0517 0.0735 0.89700001
0.053300001 0.0735 0.89700001
0.055 0.073600002 0.89899999
0.056600001 0.073700003 0.89999998
0.058200002 0.073799998 0.90100002
0.059900001 0.074000001 0.903
0.061299998 0.073799998 0.90100002
0.062799998 0.073700003 0.89999998
0.064400002 0.073700003 0.89999998
0.065899998 0.073600002 0.89899999
0.067400001 0.0735 0.898
0.068899997 0.0735 0.898
0.070500001 0.073600002 0.89899999
0.072300002 0.073799998 0.90100002
0.073899999 0.073899999 0.90200001
0.075499997 0.073899999 0.90200001
0.077100001 0.074000001 0.903
0.0788 0.074000001 0.90399998
0.080200002 0.074000001 0.903
0.081799999 0.074000001 0.903
0.083400004 0.074000001 0.903
0.084899999 0.073899999 0.90200001
0.086400002 0.073899999 0.90200001
0.088 0.073899999 0.90200001
0.089599997 0.074000001 0.903
0.091200002 0.074000001 0.903
0.092799999 0.074000001 0.903
0.094300002 0.074000001 0.903
0.095799997 0.073899999 0.90200001
0.097499996 0.074000001 0.903
0.098999999 0.074000001 0.903
0.1004 0.073799998 0.90100002
0.1019 0.073799998 0.90100002
0.1036 0.073899999 0.90200001
0.1052 0.073899999 0.90200001
0.1069 0.074000001 0.903
0.1083 0.073899999 0.90200001
0.1097 0.073799998 0.90100002
0.1113 0.073799998 0.90100002
0.1127 0.073700003 0.89999998
0.1142 0.073600002 0.89899999
0.1159 0.073700003 0.89999998
0.1174 0.073700003 0.89999998
0.119 0.073700003 0.89999998
0.1205 0.073700003 0.89999998
0.1222 0.073799998 0.90100002
0.1238 0.073799998 0.90100002
0.12549999 0.073899999 0.90200001
0.1269 0.073799998 0.90100002
0.1285 0.073799998 0.90100002
0.12989999 0.073700003 0.89999998
0.13150001 0.073700003 0.89999998
0.133 0.073700003 0.89999998
0.1346 0.073700003 0.89999998
0.1363 0.073799998 0.90100002
0.13770001 0.073700003 0.89999998
0.1393 0.073700003 0.89999998
0.1407 0.073600002 0.89899999
0.14210001 0.0735 0.898
0.1464 0.073399998 0.89600003
0.148 0.073399998 0.89600003
0.1498 0.0735 0.898
0.1517 0.073700003 0.89999998
0.15350001 0.073799998 0.90100002
0.1552 0.073899999 0.90200001
0.1569 0.074000001 0.903
0.1585 0.074000001 0.903
0.1602 0.074000001 0.90399998
0.1618 0.074000001 0.90399998
0.16320001 0.074000001 0.903
0.1648 0.074000001 0.903
0.1661 0.073899999 0.90200001
0.1679 0.074000001 0.903
0.1693 0.073899999 0.90200001
0.1708 0.073899999 0.90200001
0.1726 0.074000001 0.903
0.1742 0.074000001 0.903
0.1759 0.074000001 0.90399998
0.17749999 0.074000001 0.90399998
0.17900001 0.074000001 0.90399998
0.1806 0.074000001 0.90399998
0.1824 0.074100003 0.90499997
0.1842 0.074199997 0.90600002
0.18610001 0.0744 0.90799999
0.1877 0.0744 0.90799999
0.1901 0.074699998 0.912
-0.40759999 0.074000001 0.88499999
-0.40560001 0.073899999 0.884
-0.40310001 0.073799998 0.88200003
-0.4016 0.073799998 0.88200003
-0.3996 0.073700003 0.88099998
-0.3739 0.073399998 0.87800002
-0.37099999 0.073799998 0.88200003
-0.3527 0.074100003 0.88599998
-0.35159999 0.074199997 0.88700002
-0.35010001 0.074199997 0.88700002
-0.3439 0.074199997 0.88700002
-0.3351 0.073899999 0.884
-0.33160001 0.074199997 0.88700002
-0.3301 0.074199997 0.88700002
-0.32820001 0.074100003 0.88599998
-0.32359999 0.074100003 0.88599998
-0.31009999 0.074199997 0.88700002
-0.30860001 0.074199997 0.88700002
-0.30579999 0.074299999 0.88800001
-0.30500001 0.0744 0.88999999
-0.30309999 0.0744 0.889
-0.30039999 0.0744 0.88999999
-0.2782 0.074699998 0.89300001
-0.27289999 0.074900001 0.89600003
-0.271 0.074900001 0.89499998
-0.2701 0.075000003 0.89700001
-0.25440001 0.074500002 0.89099997
-0.2463 0.075400002 0.90100002
-0.2445 0.075300001 0.89999998
-0.24240001 0.075099997 0.898
-0.2403 0.074900001 0.89600003
-0.23819999 0.0748 0.89399999
-0.2361 0.074600004 0.89200002
-0.2343 0.074500002 0.89099997
-0.2325 0.0744 0.88999999
-0.2304 0.074299999 0.88800001
-0.22840001 0.074100003 0.88599998
-0.22660001 0.074000001 0.88499999
-0.21799999 0.073200002 0.875
-0.21520001 0.072800003 0.87
-0.2102 0.072099999 0.86199999
-0.1981 0.069899999 0.83600003
-0.1912 0.069499999 0.83099997
-0.1895 0.069399998 0.82999998
-0.1798 0.069600001 0.83200002
-0.17839999 0.069600001 0.83200002
-0.1753 0.069499999 0.83099997
-0.1737 0.069399998 0.82999998
-0.17200001 0.069300003 0.829
-0.1706 0.069300003 0.829
-0.1689 0.069300003 0.82800001
-0.16769999 0.069300003 0.829
-0.1663 0.069300003 0.829
-0.16500001 0.069399998 0.82999998
-0.1636 0.069399998 0.82999998
-0.1576 0.069300003 0.829
-0.15620001 0.069300003 0.829
-0.15459999 0.069300003 0.82800001
-0.1531 0.069300003 0.82800001
-0.15189999 0.069300003 0.829
-0.1506 0.069399998 0.82999998
-0.14920001 0.069399998 0.82999998
-0.1478 0.069399998 0.82999998
-0.14650001 0.069499999 0.83099997
-0.1451 0.069499999 0.83099997
-0.14380001 0.069600001 0.83200002
-0.1424 0.069600001 0.83200002
-0.1409 0.069600001 0.83200002
-0.13959999 0.069700003 0.833
-0.1356 0.069799997 0.83499998
-0.1265 0.069600001 0.83200002
-0.1235 0.069499999 0.83099997
-0.1219 0.069399998 0.82999998
-0.1204 0.069399998 0.82999998
-0.1189 0.069300003 0.829
-0.1176 0.069399998 0.82999998
-0.1161 0.069399998 0.82999998
-0.1148 0.069499999 0.83099997
-0.1137 0.069700003 0.833
-0.1125 0.069799997 0.83499998
-0.1112 0.069899999 0.83600003
-0.1097 0.069899999 0.83600003
-0.1083 0.069899999 0.83600003
-0.1068 0.069899999 0.83600003
-0.1052 0.069799997 0.83499998
-0.1037 0.069799997 0.83399999
-0.1021 0.069700003 0.833
-0.1005 0.069600001 0.83200002
-0.099100001 0.069600001 0.83200002
-0.097800002 0.069700003 0.833
-0.096299998 0.069700003 0.833
-0.094899997 0.069700003 0.833
-0.093599997 0.069799997 0.83399999
-0.092 0.069700003 0.833
-0.090599999 0.069700003 0.833
-0.089100003 0.069700003 0.833
-0.087499999 0.069499999 0.83099997
-0.086000003 0.069499999 0.83099997
-0.084600002 0.069499999 0.83099997
-0.083099999 0.069499999 0.83099997
-0.081699997 0.069499999 0.83099997
-0.080300003 0.069499999 0.83099997
-0.0788 0.069499999 0.83099997
-0.077399999 0.069499999 0.83099997
-0.075900003 0.069499999 0.83099997
-0.074500002 0.069499999 0.83099997
-0.072999999 0.069399998 0.82999998
-0.071500003 0.069399998 0.82999998
-0.070200004 0.069499999 0.83099997
-0.068700001 0.069499999 0.83099997
-0.067400001 0.069600001 0.83200002
-0.065899998 0.069600001 0.83200002
-0.064599998 0.069700003 0.833
-0.063199997 0.069799997 0.83399999
-0.061799999 0.069799997 0.83399999
-0.0603 0.069799997 0.83399999
-0.058899999 0.069799997 0.83399999
-0.057500001 0.069799997 0.83499998
-0.056000002 0.069799997 0.83499998
-0.054699998 0.069899999 0.83600003
-0.053199999 0.069899999 0.83600003
-0.051800001 0.069899999 0.83600003
-0.050299998 0.069899999 0.83600003
-0.048799999 0.069799997 0.83499998
-0.047400001 0.069799997 0.83499998
-0.045899998 0.069799997 0.83499998
-0.044500001 0.069899999 0.83600003
-0.043099999 0.07 0.83700001
-0.041700002 0.070100002 0.838
-0.0403 0.070100002 0.838
-0.038899999 0.070200004 0.83899999
-0.0374 0.070299998 0.83999997
-0.035999998 0.070299998 0.84100002
-0.034699999 0.070600003 0.84399998
-0.033300001 0.070799999 0.84600002
-0.0319 0.070799999 0.847
-0.0305 0.074500002 0.89099997
-0.028999999 0.074900001 0.89499998
-0.0276 0.075000003 0.89700001
-0.0261 0.075300001 0.89999998
-0.024499999 0.075300001 0.89999998
-0.023 0.075300001 0.89999998
-0.021400001 0.075300001 0.89999998
-0.0198 0.075300001 0.89999998
-0.018300001 0.075199999 0.89899999
-0.0167 0.075199999 0.89899999
-0.0151 0.075199999 0.89899999
-0.0136 0.075199999 0.89899999
-0.012 0.075199999 0.89899999
-0.0105 0.075099997 0.898
-0.0088999998 0.075099997 0.898
-0.0074 0.075300001 0.89999998
-0.0057999999 0.075199999 0.89899999
-0.0041999999 0.075300001 0.89999998
-0.0027000001 0.075300001 0.89999998
-0.0011 0.075300001 0.89999998
0.00039999999 0.075300001 0.89999998
0.0020000001 0.075300001 0.89999998
0.0035999999 0.075300001 0.89999998
0.0051000002 0.075300001 0.89999998
0.0066999998 0.075199999 0.89899999
0.0082 0.075199999 0.89899999
0.0098000001 0.075099997 0.898
0.0113 0.075099997 0.898
0.0129 0.075099997 0.898
0.0144 0.075000003 0.89700001
0.016000001 0.075099997 0.898
0.0176 0.075099997 0.898
0.019099999 0.075000003 0.89700001
0.0206 0.074900001 0.89600003
0.0221 0.074900001 0.89499998
0.023600001 0.074699998 0.89300001
0.0252 0.074699998 0.89300001
0.026699999 0.074600004 0.89200002
0.0283 0.074699998 0.89300001
0.029899999 0.0748 0.89399999
0.031500001 0.075000003 0.89700001
0.033100002 0.075099997 0.898
0.0348 0.075400002 0.90100002
0.0363 0.075400002 0.90100002
0.037900001 0.075400002 0.90100002
0.039500002 0.075400002 0.90100002
0.041000001 0.075400002 0.90100002
0.0425 0.075300001 0.89999998
0.044100001 0.075300001 0.89999998
0.045699999 0.075300001 0.89999998
0.047200002 0.075300001 0.89999998
0.048799999 0.075300001 0.89999998
0.0502 0.075099997 0.898
0.051800001 0.075099997 0.898
0.0535 0.075300001 0.89999998
0.055100001 0.075400002 0.90200001
0.0568 0.075499997 0.903
0.0583 0.075499997 0.903
0.059900001 0.075499997 0.903
0.061500002 0.075499997 0.903
0.063000001 0.075499997 0.903
0.064499997 0.075400002 0.90100002
0.065899998 0.075300001 0.89999998
0.067400001 0.075099997 0.898
0.0691 0.075300001 0.89999998
0.070600003 0.075300001 0.89999998
0.072300002 0.075400002 0.90200001
0.074000001 0.075499997 0.903
0.075599998 0.075499997 0.903
0.077200003 0.075599998 0.90399998
0.078900002 0.0757 0.90499997
0.080200002 0.075499997 0.903
0.081799999 0.075499997 0.903
0.083400004 0.075499997 0.903
0.084899999 0.075499997 0.903
0.086499996 0.075499997 0.903
0.088 0.075400002 0.90200001
0.089599997 0.075499997 0.903
0.091300003 0.075599998 0.90399998
0.092900001 0.075599998 0.90399998
0.094300002 0.075499997 0.903
0.097400002 0.075400002 0.90200001
0.098999999 0.075499997 0.903
0.1004 0.075400002 0.90100002
0.1019 0.075400002 0.90100002
0.1035 0.075400002 0.90100002
0.1051 0.075400002 0.90100002
0.1066 0.075400002 0.90100002
0.1082 0.075400002 0.90100002
0.1097 0.075400002 0.90100002
0.1112 0.075300001 0.89999998
0.1126 0.075199999 0.89899999
0.114 0.075099997 0.898
0.1156 0.075099997 0.898
0.1172 0.075099997 0.898
0.1187 0.075099997 0.898
0.1203 0.075099997 0.898
0.1221 0.075300001 0.89999998
0.1238 0.075400002 0.90100002
0.12540001 0.075400002 0.90100002
0.1269 0.075400002 0.90100002
0.1285 0.075400002 0.90100002
0.12989999 0.075300001 0.89999998
0.13150001 0.075300001 0.89999998
0.133 0.075300001 0.89999998
0.1346 0.075300001 0.89999998
0.13609999 0.075300001 0.89999998
0.13770001 0.075300001 0.89999998
0.1393 0.075300001 0.89999998
0.1408 0.075300001 0.89999998
0.1424 0.075300001 0.89999998
0.14390001 0.075300001 0.89999998
0.14830001 0.075099997 0.898
0.15000001 0.075199999 0.89899999
0.15189999 0.075400002 0.90100002
0.15360001 0.075400002 0.90200001
0.15539999 0.075499997 0.903
0.1569 0.075499997 0.903
0.1585 0.075499997 0.903
0.1601 0.075499997 0.903
0.1618 0.075599998 0.90399998
0.16320001 0.075499997 0.903
0.1644 0.075400002 0.90100002
0.16580001 0.075300001 0.89999998
0.1673 0.075300001 0.89999998
0.1689 0.075300001 0.89999998
0.1705 0.075300001 0.89999998
0.17219999 0.075400002 0.90100002
0.17399999 0.075400002 0.90200001
0.17569999 0.075499997 0.903
0.17730001 0.075499997 0.903
0.1788 0.075499997 0.903
0.1824 0.0757 0.90499997
0.1839 0.0757 0.90499997
0.1859 0.075900003 0.90700001
0.1883 0.076200001 0.91100001
0.1918 0.076899998 0.92000002
-0.41100001 0.075900003 0.889
-0.40849999 0.0757 0.88700002
-0.40599999 0.075599998 0.88499999
-0.40400001 0.075499997 0.884
-0.4021 0.075400002 0.88300002
-0.40009999 0.075300001 0.88200003
-0.3985 0.075300001 0.88200003
-0.38260001 0.075499997 0.884
-0.3802 0.075300001 0.88200003
-0.37239999 0.075000003 0.87800002
-0.3524 0.075599998 0.88499999
-0.3439 0.0757 0.88700002
-0.33930001 0.0757 0.88700002
-0.33739999 0.075599998 0.88599998
-0.33320001 0.0757 0.88700002
-0.33160001 0.0757 0.88700002
-0.33050001 0.075800002 0.88800001
-0.31009999 0.0757 0.88700002
-0.3089 0.075800002 0.88800001
-0.30739999 0.075800002 0.88800001
-0.30500001 0.075999998 0.88999999
-0.30340001 0.075999998 0.88999999
-0.30039999 0.075999998 0.88999999
-0.289 0.076200001 0.89300001
-0.27379999 0.076300003 0.89399999
-0.2723 0.076300003 0.89399999
-0.271 0.076399997 0.89499998
-0.26980001 0.076499999 0.89600003
-0.25560001 0.075999998 0.88999999
-0.2518 0.076200001 0.89300001
-0.2511 0.076499999 0.89600003
-0.2439 0.076700002 0.898
-0.2418 0.076499999 0.89600003
-0.2397 0.076300003 0.89399999
-0.2374 0.076099999 0.89099997
-0.23559999 0.075999998 0.88999999
-0.234 0.075999998 0.88999999
-0.2322 0.075900003 0.889
-0.2304 0.075800002 0.88800001
-0.2286 0.0757 0.88700002
-0.22679999 0.075599998 0.88599998
-0.2233 0.075499997 0.884
-0.221 0.075199999 0.88099998
-0.21799999 0.074699998 0.875
-0.2102 0.073600002 0.86199999
-0.1811 0.070900001 0.83099997
-0.1798 0.071000002 0.83200002
-0.17820001 0.070900001 0.83099997
-0.1753 0.070900001 0.83099997
-0.1737 0.070900001 0.82999998
-0.17200001 0.070799999 0.829
-0.1706 0.070799999 0.829
-0.1689 0.070699997 0.82800001
-0.16769999 0.070799999 0.829
-0.1665 0.070900001 0.82999998
-0.16500001 0.070900001 0.82999998
-0.1636 0.070900001 0.82999998
-0.1548 0.070799999 0.829
-0.1531 0.070699997 0.82800001
-0.1521 0.070900001 0.82999998
-0.1508 0.070900001 0.83099997
-0.1494 0.070900001 0.83099997
-0.1479 0.070900001 0.83099997
-0.14650001 0.070900001 0.83099997
-0.1452 0.071000002 0.83200002
-0.14399999 0.071099997 0.833
-0.1425 0.071099997 0.833
-0.1411 0.071099997 0.833
-0.13959999 0.071099997 0.833
-0.1384 0.071199998 0.83399999
-0.1371 0.0713 0.83499998
-0.1356 0.0713 0.83499998
-0.1329 0.071400002 0.83600003
-0.1313 0.0713 0.83499998
-0.12809999 0.071099997 0.833
-0.1219 0.070900001 0.82999998
-0.1204 0.070900001 0.82999998
-0.1148 0.070900001 0.83099997
-0.1125 0.0713 0.83499998
-0.1112 0.071400002 0.83600003
-0.1097 0.071400002 0.83600003
-0.1083 0.071400002 0.83600003
-0.1068 0.071400002 0.83600003
-0.1052 0.0713 0.83499998
-0.1037 0.071199998 0.83399999
-0.1021 0.071099997 0.833
-0.1007 0.071099997 0.833
-0.099200003 0.071099997 0.833
-0.097800002 0.071099997 0.833
-0.096299998 0.071099997 0.833
-0.094899997 0.071099997 0.833
-0.093400002 0.071099997 0.833
-0.092100002 0.071199998 0.83399999
-0.090700001 0.071199998 0.83399999
-0.089100003 0.071099997 0.833
-0.0876 0.071000002 0.83200002
-0.086000003 0.070900001 0.83099997
-0.084600002 0.070900001 0.83099997
-0.083099999 0.070900001 0.83099997
-0.081699997 0.070900001 0.83099997
-0.080300003 0.070900001 0.83099997
-0.0788 0.070900001 0.83099997
-0.077399999 0.070900001 0.83099997
-0.075900003 0.070900001 0.83099997
-0.074500002 0.070900001 0.83099997
-0.073100001 0.070900001 0.83099997
-0.071599998 0.070900001 0.83099997
-0.070200004 0.070900001 0.83099997
-0.068800002 0.071000002 0.83200002
-0.067400001 0.071000002 0.83200002
-0.066 0.071099997 0.833
-0.064599998 0.071199998 0.83399999
-0.063199997 0.071199998 0.83399999
-0.061799999 0.0713 0.83499998
-0.060400002 0.0713 0.83499998
-0.058899999 0.0713 0.83499998
-0.057500001 0.0713 0.83499998
-0.056000002 0.0713 0.83499998
-0.054699998 0.071400002 0.83600003
-0.053199999 0.071400002 0.83600003
-0.051800001 0.071500003 0.83700001
-0.050299998 0.071400002 0.83600003
-0.048900001 0.071500003 0.83700001
-0.047499999 0.071500003 0.83700001
-0.046100002 0.071500003 0.838
-0.043299999 0.071699999 0.83999997
-0.041900001 0.071800001 0.84100002
-0.040399998 0.071800001 0.84100002
-0.038899999 0.071699999 0.83999997
-0.037500001 0.071800001 0.84100002
-0.0361 0.071900003 0.84200001
-0.034699999 0.071999997 0.84299999
-0.033300001 0.072099999 0.84500003
-0.0319 0.0722 0.84600002
-0.0307 0.0766 0.89700001
-0.029200001 0.076700002 0.89899999
-0.0276 0.076800004 0.89999998
-0.0261 0.076800004 0.89999998
-0.024499999 0.076800004 0.89999998
-0.023 0.076800004 0.89999998
-0.021400001 0.076800004 0.89999998
-0.0198 0.076700002 0.89899999
-0.018200001 0.076700002 0.898
-0.0167 0.076700002 0.898
-0.0151 0.076700002 0.898
-0.0136 0.076700002 0.898
-0.012 0.076700002 0.898
-0.0105 0.076700002 0.898
-0.0088999998 0.076700002 0.898
-0.0074 0.076800004 0.89999998
-0.0057999999 0.076800004 0.89999998
-0.0041999999 0.076800004 0.89999998
-0.0027000001 0.076800004 0.89999998
-0.0011 0.076800004 0.89999998
0.00039999999 0.076800004 0.89999998
0.0020000001 0.076800004 0.89999998
0.0035999999 0.076800004 0.89999998
0.0051000002 0.076800004 0.89999998
0.0066999998 0.076700002 0.89899999
0.0082 0.076700002 0.89899999
0.0098000001 0.076700002 0.898
0.0113 0.076700002 0.898
0.0129 0.076700002 0.898
0.0144 0.0766 0.89700001
0.016000001 0.076700002 0.898
0.0176 0.076700002 0.898
0.019099999 0.076700002 0.898
0.0206 0.076499999 0.89600003
0.0222 0.076499999 0.89600003
0.023700001 0.076399997 0.89499998
0.0252 0.076200001 0.89300001
0.026699999 0.076200001 0.89300001
0.0283 0.076200001 0.89300001
0.029899999 0.076300003 0.89399999
0.031500001 0.076499999 0.89600003
0.033100002 0.0766 0.89700001
0.034699999 0.076700002 0.898
0.0363 0.076800004 0.89999998
0.037900001 0.076800004 0.89999998
0.0394 0.076800004 0.89999998
0.041000001 0.076800004 0.89999998
0.0425 0.076800004 0.89999998
0.044100001 0.076800004 0.89999998
0.045699999 0.076800004 0.89999998
0.047200002 0.076800004 0.89999998
0.048799999 0.076800004 0.89999998
0.050299998 0.076800004 0.89999998
0.051800001 0.076700002 0.89899999
0.0535 0.076800004 0.89999998
0.055100001 0.077 0.90200001
0.0568 0.077100001 0.903
0.0583 0.077100001 0.903
0.059900001 0.077100001 0.903
0.061500002 0.077100001 0.903
0.063000001 0.077100001 0.903
0.064499997 0.076899998 0.90100002
0.066 0.076899998 0.90100002
0.067500003 0.076800004 0.89999998
0.0691 0.076800004 0.89999998
0.070699997 0.076899998 0.90100002
0.072300002 0.076899998 0.90100002
0.074000001 0.077100001 0.903
0.075599998 0.077100001 0.903
0.077200003 0.077200003 0.90399998
0.0788 0.077200003 0.90399998
0.080200002 0.077100001 0.903
0.081799999 0.077100001 0.903
0.083499998 0.077200003 0.90399998
0.084899999 0.077100001 0.903
0.086499996 0.077100001 0.903
0.088100001 0.077100001 0.903
0.089699998 0.077200003 0.90399998
0.091300003 0.077200003 0.90399998
0.092900001 0.077200003 0.90399998
0.094300002 0.077100001 0.903
0.095799997 0.077 0.90200001
0.097199999 0.076899998 0.90100002
0.098800004 0.076899998 0.90100002
0.1003 0.076800004 0.89999998
0.1019 0.076899998 0.90100002
0.1035 0.076899998 0.90100002
0.1051 0.076899998 0.90100002
0.1069 0.077100001 0.903
0.1084 0.077100001 0.903
0.1097 0.076899998 0.90100002
0.1113 0.076899998 0.90100002
0.1127 0.076800004 0.89999998
0.1142 0.076700002 0.89899999
0.1156 0.076700002 0.898
0.1172 0.076700002 0.898
0.1186 0.0766 0.89700001
0.1203 0.076700002 0.898
0.1221 0.076800004 0.89999998
0.1237 0.076800004 0.89999998
0.12540001 0.076899998 0.90100002
0.1269 0.076899998 0.90100002
0.1285 0.076899998 0.90100002
0.13 0.076899998 0.90100002
0.13150001 0.076800004 0.89999998
0.133 0.076800004 0.89999998
0.1346 0.076800004 0.89999998
0.13609999 0.076800004 0.89999998
0.13779999 0.076899998 0.90100002
0.13940001 0.076899998 0.90100002
0.1424 0.076800004 0.89999998
0.14390001 0.076800004 0.89999998
0.1455 0.076800004 0.89999998
0.1471 0.076800004 0.89999998
0.1486 0.076800004 0.89999998
0.1522 0.077100001 0.903
0.1538 0.077100001 0.903
0.15549999 0.077200003 0.90399998
0.15710001 0.077200003 0.90399998
0.1587 0.077200003 0.90399998
0.1602 0.077200003 0.90399998
0.1618 0.077200003 0.90399998
0.16320001 0.077100001 0.903
0.1646 0.077 0.90200001
0.16580001 0.076800004 0.89999998
0.167 0.076700002 0.898
0.16850001 0.076700002 0.898
0.17030001 0.076700002 0.89899999
0.17200001 0.076800004 0.89999998
0.17380001 0.076899998 0.90100002
0.17550001 0.077 0.90200001
0.17730001 0.077100001 0.903
0.1788 0.077100001 0.903
0.1804 0.077100001 0.903
0.1824 0.077299997 0.90499997
0.1839 0.077299997 0.90499997
0.1859 0.077399999 0.90700001
0.1892 0.078100003 0.91500002
-0.40759999 0.077100001 0.88499999
-0.40400001 0.077 0.884
-0.4005 0.076899998 0.88300002
-0.39140001 0.077500001 0.88999999
-0.3854 0.077299997 0.88700002
-0.38260001 0.077 0.884
-0.3802 0.076800004 0.88200003
-0.37239999 0.076499999 0.87800002
-0.34810001 0.077200003 0.88599998
-0.34079999 0.077299997 0.88700002
-0.3389 0.077200003 0.88599998
-0.33739999 0.077200003 0.88599998
-0.3362 0.077299997 0.88700002
-0.33469999 0.077299997 0.88700002
-0.3335 0.077299997 0.88800001
-0.33050001 0.077299997 0.88800001
-0.32859999 0.077299997 0.88700002
-0.31009999 0.077299997 0.88700002
-0.30860001 0.077299997 0.88700002
-0.30770001 0.077399999 0.889
-0.30649999 0.077500001 0.88999999
-0.30340001 0.077500001 0.88999999
-0.3019 0.077500001 0.88999999
-0.28279999 0.077799998 0.89300001
-0.2775 0.077600002 0.89099997
-0.27599999 0.077600002 0.89099997
-0.2735 0.077799998 0.89300001
-0.2723 0.0779 0.89399999
-0.271 0.078000002 0.89499998
-0.26730001 0.078199998 0.898
-0.26300001 0.0779 0.89399999
-0.25749999 0.077600002 0.89099997
-0.25440001 0.077600002 0.89099997
-0.25279999 0.077600002 0.89099997
-0.2518 0.077799998 0.89300001
-0.2509 0.078000002 0.89499998
-0.2483 0.078100003 0.89700001
-0.2465 0.078000002 0.89600003
-0.24519999 0.078100003 0.89700001
-0.2374 0.077600002 0.89099997
-0.23379999 0.077399999 0.889
-0.23199999 0.077299997 0.88800001
-0.23019999 0.077299997 0.88700002
-0.2286 0.077299997 0.88700002
-0.22679999 0.077200003 0.88599998
-0.2233 0.077 0.884
-0.221 0.076700002 0.88099998
-0.2177 0.076099999 0.87400001
-0.20999999 0.075000003 0.861
-0.1909 0.072300002 0.82999998
-0.1895 0.072300002 0.82999998
-0.18780001 0.0722 0.829
-0.1811 0.072400004 0.83099997
-0.17820001 0.072400004 0.83099997
-0.1753 0.072400004 0.83099997
-0.17219999 0.072300002 0.82999998
-0.1706 0.0722 0.829
-0.1689 0.072099999 0.82800001
-0.16769999 0.0722 0.829
-0.1665 0.072300002 0.82999998
-0.16500001 0.072300002 0.82999998
-0.1591 0.0722 0.829
-0.1508 0.072400004 0.83099997
-0.1494 0.072400004 0.83099997
-0.1479 0.072400004 0.83099997
-0.14669999 0.072499998 0.83200002
-0.1452 0.072499998 0.83200002
-0.14399999 0.0726 0.833
-0.1425 0.0726 0.833
-0.1411 0.0726 0.833
-0.13959999 0.0726 0.833
-0.13850001 0.072700001 0.83499998
-0.1371 0.072700001 0.83499998
-0.1356 0.072700001 0.83499998
-0.1331 0.072899997 0.83700001
-0.1313 0.072700001 0.83499998
-0.1236 0.072499998 0.83200002
-0.1123 0.0726 0.83399999
-0.1109 0.0726 0.83399999
-0.1095 0.0726 0.83399999
-0.1079 0.0726 0.833
-0.1066 0.0726 0.83399999
-0.1051 0.0726 0.83399999
-0.1035 0.0726 0.833
-0.1021 0.0726 0.833
-0.1005 0.072499998 0.83200002
-0.099100001 0.072499998 0.83200002
-0.097800002 0.0726 0.833
-0.0964 0.0726 0.83399999
-0.094899997 0.0726 0.833
-0.093599997 0.0726 0.83399999
-0.092200004 0.072700001 0.83499998
-0.090800002 0.072700001 0.83499998
-0.089199997 0.0726 0.83399999
-0.087700002 0.0726 0.833
-0.086099997 0.072499998 0.83200002
-0.084700003 0.072499998 0.83200002
-0.083099999 0.072400004 0.83099997
-0.081699997 0.072400004 0.83099997
-0.080300003 0.072400004 0.83099997
-0.078699999 0.072300002 0.82999998
-0.077299997 0.072300002 0.82999998
-0.075800002 0.072300002 0.82999998
-0.074500002 0.072400004 0.83099997
-0.072999999 0.072300002 0.82999998
-0.071500003 0.072300002 0.82999998
-0.070200004 0.072400004 0.83099997
-0.068700001 0.072400004 0.83099997
-0.067400001 0.072499998 0.83200002
-0.066 0.0726 0.833
-0.064599998 0.0726 0.833
-0.063199997 0.0726 0.83399999
-0.061799999 0.072700001 0.83499998
-0.060400002 0.072700001 0.83499998
-0.058899999 0.072700001 0.83499998
-0.057500001 0.072700001 0.83499998
-0.056000002 0.072700001 0.83499998
-0.0546 0.072700001 0.83499998
-0.053199999 0.072800003 0.83600003
-0.051800001 0.072899997 0.83700001
-0.0504 0.072899997 0.83700001
-0.048900001 0.072899997 0.83700001
-0.047499999 0.072899997 0.83700001
-0.046100002 0.072999999 0.838
-0.0447 0.073100001 0.83899999
-0.043299999 0.073299997 0.84100002
-0.041900001 0.073299997 0.84100002
-0.040399998 0.073299997 0.84100002
-0.038899999 0.073200002 0.83999997
-0.037500001 0.073299997 0.84100002
-0.0361 0.073399998 0.84299999
-0.033199999 0.0735 0.84399998
-0.0307 0.078299999 0.89899999
-0.029200001 0.078400001 0.89999998
-0.0276 0.078400001 0.89999998
-0.0261 0.078500003 0.90100002
-0.024499999 0.078400001 0.89999998
-0.023 0.078400001 0.89999998
-0.021400001 0.078199998 0.898
-0.0198 0.078100003 0.89700001
-0.018200001 0.078000002 0.89600003
-0.0167 0.078000002 0.89600003
-0.0151 0.078000002 0.89600003
-0.0135 0.078000002 0.89600003
-0.012 0.078100003 0.89700001
-0.0105 0.078199998 0.898
-0.0088999998 0.078299999 0.89899999
-0.0074 0.078400001 0.89999998
-0.0057999999 0.078400001 0.89999998
-0.0041999999 0.078400001 0.89999998
-0.0027000001 0.078500003 0.90100002
-0.0011 0.078500003 0.90100002
0.00039999999 0.078500003 0.90100002
0.0020000001 0.078400001 0.89999998
0.0035999999 0.078400001 0.89999998
0.0051000002 0.078400001 0.89999998
0.0066999998 0.078299999 0.89899999
0.0082 0.078199998 0.898
0.0098000001 0.078199998 0.898
0.0113 0.078199998 0.898
0.0129 0.078199998 0.898
0.0144 0.078199998 0.898
0.016000001 0.078199998 0.898
0.0176 0.078299999 0.89899999
0.019099999 0.078199998 0.898
0.0206 0.078100003 0.89700001
