# .PCD v0.7 - Point Cloud Data file format
VERSION 0.7
FIELDS x y z
SIZE 4 4 4
TYPE F F F
COUNT 1 1 1
WIDTH 1617
HEIGHT 1
VIEWPOINT 0 0 0 1 0 0 0
POINTS 1617
DATA ascii
0.044300001 0.27770001 0.90399998
0.045899998 0.27770001 0.90399998
0.047400001 0.27770001 0.90399998
0.048999999 0.27770001 0.90399998
0.052200001 0.278 0.90499997
0.053800002 0.278 0.90499997
0.069600001 0.27860001 0.90700001
0.071199998 0.27860001 0.90700001
0.072899997 0.2793 0.90899998
0.074900001 0.28080001 0.91399997
0.078299999 0.28169999 0.917
0.081299998 0.2811 0.91500002
0.082599998 0.2802 0.912
0.083999999 0.27959999 0.91000003
0.0854 0.2789 0.90799999
0.086999997 0.2789 0.90799999
0.088500001 0.27860001 0.90700001
0.090000004 0.27860001 0.90700001
0.091600001 0.27860001 0.90700001
0.093199998 0.27860001 0.90700001
0.094899997 0.2789 0.90799999
0.0964 0.2789 0.90799999
0.099600002 0.2789 0.90799999
0.1012 0.2789 0.90799999
0.1028 0.2793 0.90899998
0.1045 0.27959999 0.91000003
0.1059 0.2789 0.90799999
0.1191 0.27680001 0.90100002
0.1207 0.27680001 0.90100002
0.1224 0.2771 0.90200001
0.1258 0.27770001 0.90399998
0.1276 0.27829999 0.90600002
0.1293 0.27860001 0.90700001
0.1311 0.2789 0.90799999
0.13259999 0.2789 0.90799999
0.13420001 0.2789 0.90799999
0.1358 0.2789 0.90799999
0.1373 0.2789 0.90799999
0.1388 0.27860001 0.90700001
0.14030001 0.27860001 0.90700001
0.1419 0.27860001 0.90700001
0.1435 0.27860001 0.90700001
0.14489999 0.27829999 0.90600002
0.1477 0.27770001 0.90399998
0.1517 0.27649999 0.89999998
0.15350001 0.27680001 0.90100002
0.1557 0.278 0.90499997
0.1575 0.27829999 0.90600002
0.1596 0.2793 0.90899998
0.1618 0.28049999 0.91299999
0.1645 0.2823 0.91900003
0.1661 0.2823 0.91900003
0.1759 0.2802 0.912
-0.3716 0.27399999 0.88700002
-0.3612 0.27430001 0.88800001
-0.3601 0.2746 0.889
-0.359 0.27500001 0.88999999
-0.35699999 0.2746 0.889
-0.35510001 0.27430001 0.88800001
-0.35350001 0.27430001 0.88800001
-0.352 0.27430001 0.88800001
-0.3466 0.2737 0.88599998
-0.34470001 0.27340001 0.88499999
-0.34310001 0.27340001 0.88499999
-0.33970001 0.27309999 0.884
-0.33849999 0.27340001 0.88499999
-0.3339 0.2746 0.889
-0.33000001 0.27649999 0.89499998
-0.32409999 0.27680001 0.89600003
-0.3222 0.27649999 0.89499998
-0.32069999 0.27649999 0.89499998
-0.31869999 0.2762 0.89399999
-0.3168 0.27590001 0.89300001
-0.31569999 0.2762 0.89399999
-0.3145 0.27649999 0.89499998
-0.3134 0.2784 0.90100002
-0.31259999 0.27900001 0.903
-0.31099999 0.27900001 0.903
-0.30939999 0.27900001 0.903
-0.30790001 0.27900001 0.903
-0.30599999 0.27869999 0.90200001
-0.30410001 0.2784 0.90100002
-0.30219999 0.278 0.89999998
-0.2999 0.27739999 0.898
-0.29769999 0.27680001 0.89600003
-0.2958 0.27649999 0.89499998
-0.29300001 0.2753 0.89099997
-0.28979999 0.2737 0.88599998
-0.2491 0.278 0.89999998
-0.24680001 0.2771 0.89700001
-0.2447 0.27649999 0.89499998
-0.2428 0.2762 0.89399999
-0.241 0.27590001 0.89300001
-0.2395 0.27590001 0.89300001
-0.23819999 0.2762 0.89399999
-0.2369 0.27649999 0.89499998
-0.2361 0.27739999 0.898
-0.2348 0.27770001 0.89899999
-0.233 0.27739999 0.898
-0.2315 0.27739999 0.898
-0.2297 0.2771 0.89700001
-0.22679999 0.27739999 0.898
-0.2252 0.27739999 0.898
-0.2242 0.278 0.89999998
-0.2234 0.27900001 0.903
-0.222 0.2793 0.90399998
-0.2207 0.27959999 0.90499997
-0.2192 0.27959999 0.90499997
-0.2142 0.2793 0.90399998
-0.2104 0.2784 0.90100002
-0.20370001 0.27770001 0.89899999
-0.2023 0.278 0.89999998
-0.2008 0.278 0.89999998
-0.1992 0.278 0.89999998
-0.1974 0.27770001 0.89899999
-0.1868 0.28049999 0.90799999
-0.18350001 0.2802 0.90700001
-0.1815 0.27959999 0.90499997
-0.1795 0.27900001 0.903
-0.178 0.27900001 0.903
-0.17640001 0.27900001 0.903
-0.17479999 0.27900001 0.903
-0.17309999 0.27869999 0.90200001
-0.1698 0.2784 0.90100002
-0.1665 0.278 0.89999998
-0.1649 0.278 0.89999998
-0.1635 0.2784 0.90100002
-0.16060001 0.27869999 0.90200001
-0.1489 0.2802 0.90700001
-0.1473 0.2802 0.90700001
-0.1459 0.28049999 0.90799999
-0.1443 0.28049999 0.90799999
-0.1426 0.2802 0.90700001
-0.1409 0.27990001 0.90600002
-0.1392 0.27959999 0.90499997
-0.13420001 0.27900001 0.903
-0.1327 0.2793 0.90399998
-0.1313 0.27959999 0.90499997
-0.1283 0.27990001 0.90600002
-0.125 0.27959999 0.90499997
-0.1232 0.27900001 0.903
-0.1181 0.278 0.89999998
-0.1168 0.27869999 0.90200001
-0.1156 0.27959999 0.90499997
-0.1141 0.27959999 0.90499997
-0.1125 0.27959999 0.90499997
-0.1109 0.27959999 0.90499997
-0.1094 0.27959999 0.90499997
-0.1078 0.27959999 0.90499997
-0.106 0.27900001 0.903
-0.1042 0.2784 0.90100002
-0.1026 0.2784 0.90100002
-0.1011 0.2784 0.90100002
-0.099600002 0.27869999 0.90200001
-0.097900003 0.2784 0.90100002
-0.0964 0.2784 0.90100002
-0.094800003 0.2784 0.90100002
-0.0933 0.2784 0.90100002
-0.091600001 0.278 0.89999998
-0.090000004 0.278 0.89999998
-0.088500001 0.278 0.89999998
-0.086900003 0.278 0.89999998
-0.085299999 0.27770001 0.89899999
-0.083800003 0.278 0.89999998
-0.082500003 0.27900001 0.903
-0.080899999 0.27869999 0.90200001
-0.0792 0.2784 0.90100002
-0.077500001 0.27770001 0.89899999
-0.075800002 0.27739999 0.898
-0.072700001 0.27739999 0.898
-0.071199998 0.27739999 0.898
-0.068400003 0.27900001 0.903
-0.0669 0.27900001 0.903
-0.065399997 0.27959999 0.90499997
-0.063900001 0.27959999 0.90499997
-0.062399998 0.27990001 0.90600002
-0.060699999 0.27959999 0.90499997
-0.059099998 0.2793 0.90399998
-0.057599999 0.27959999 0.90499997
-0.056000002 0.27959999 0.90499997
-0.054499999 0.27959999 0.90499997
-0.0528 0.2793 0.90399998
-0.0513 0.27959999 0.90499997
-0.049800001 0.27959999 0.90499997
-0.0482 0.27959999 0.90499997
-0.046599999 0.27959999 0.90499997
-0.0451 0.27990001 0.90600002
-0.043499999 0.27990001 0.90600002
-0.041999999 0.2802 0.90700001
-0.040399998 0.27990001 0.90600002
-0.038800001 0.27959999 0.90499997
-0.0372 0.27959999 0.90499997
-0.035599999 0.27959999 0.90499997
-0.0341 0.27959999 0.90499997
-0.032499999 0.27959999 0.90499997
-0.0309 0.27959999 0.90499997
-0.0294 0.27959999 0.90499997
-0.027799999 0.27959999 0.90499997
-0.0263 0.27990001 0.90600002
-0.024700001 0.2802 0.90700001
-0.0231 0.27990001 0.90600002
-0.021500001 0.27990001 0.90600002
-0.02 0.27959999 0.90499997
-0.0152 0.27959999 0.90499997
-0.0137 0.27959999 0.90499997
-0.0121 0.27959999 0.90499997
-0.0105 0.2793 0.90399998
-0.0089999996 0.2793 0.90399998
-0.0074 0.27959999 0.90499997
-0.0057999999 0.27959999 0.90499997
-0.0043000001 0.2793 0.90399998
-0.0027000001 0.2793 0.90399998
0.034899998 0.27900001 0.903
0.036499999 0.2793 0.90399998
0.0381 0.27959999 0.90499997
0.039700001 0.27990001 0.90600002
0.041299999 0.27990001 0.90600002
0.042800002 0.27959999 0.90499997
0.044399999 0.27959999 0.90499997
0.045899998 0.27959999 0.90499997
0.047499999 0.27959999 0.90499997
0.0491 0.27959999 0.90499997
0.0506 0.27959999 0.90499997
0.052200001 0.27959999 0.90499997
0.053800002 0.27959999 0.90499997
0.060199998 0.2802 0.90700001
0.072800003 0.28049999 0.90799999
0.074900001 0.28240001 0.91399997
0.078500003 0.28389999 0.91900003
0.079999998 0.2836 0.91799998
0.0814 0.28299999 0.91600001
0.082699999 0.28209999 0.91299999
0.084100001 0.2814 0.91100001
0.0854 0.28049999 0.90799999
0.086999997 0.28049999 0.90799999
0.088600002 0.28049999 0.90799999
0.090000004 0.2802 0.90700001
0.091700003 0.28049999 0.90799999
0.0933 0.28049999 0.90799999
0.094999999 0.28080001 0.90899998
0.096500002 0.28080001 0.90899998
0.098099999 0.28080001 0.90899998
0.099699996 0.28080001 0.90899998
0.1014 0.2811 0.91000003
0.103 0.2811 0.91000003
0.1046 0.2814 0.91100001
0.1061 0.2811 0.91000003
0.1074 0.28049999 0.90799999
0.1292 0.27990001 0.90600002
0.1309 0.2802 0.90700001
0.13259999 0.28049999 0.90799999
0.13420001 0.28049999 0.90799999
0.1358 0.28049999 0.90799999
0.1373 0.28049999 0.90799999
0.1388 0.2802 0.90700001
0.14030001 0.2802 0.90700001
0.1419 0.2802 0.90700001
0.14650001 0.27990001 0.90600002
0.1479 0.27959999 0.90499997
0.15099999 0.27959999 0.90499997
0.1522 0.27900001 0.903
0.1541 0.27959999 0.90499997
0.1559 0.27990001 0.90600002
0.1576 0.2802 0.90700001
0.15970001 0.2811 0.91000003
0.1618 0.28209999 0.91299999
0.164 0.28299999 0.91600001
0.16590001 0.2836 0.91799998
-0.37239999 0.2762 0.889
-0.36939999 0.2762 0.889
-0.3624 0.27559999 0.88700002
-0.3608 0.27559999 0.88700002
-0.35969999 0.27590001 0.88800001
-0.35820001 0.27590001 0.88800001
-0.35659999 0.27590001 0.88800001
-0.35510001 0.27590001 0.88800001
-0.35350001 0.27590001 0.88800001
-0.34850001 0.27559999 0.88700002
-0.34740001 0.27590001 0.88800001
-0.34549999 0.27559999 0.88700002
-0.3439 0.27559999 0.88700002
-0.33930001 0.27559999 0.88700002
-0.3378 0.27559999 0.88700002
-0.3362 0.27559999 0.88700002
-0.3355 0.2762 0.889
-0.33000001 0.27810001 0.89499998
-0.32879999 0.2784 0.89600003
-0.31909999 0.27810001 0.89499998
-0.3168 0.27739999 0.89300001
-0.31529999 0.27739999 0.89300001
-0.3145 0.27810001 0.89499998
-0.31400001 0.27900001 0.898
-0.3134 0.27990001 0.90100002
-0.31220001 0.2802 0.90200001
-0.3107 0.2802 0.90200001
-0.3091 0.2802 0.90200001
-0.3075 0.2802 0.90200001
-0.30559999 0.27990001 0.90100002
-0.30410001 0.27990001 0.90100002
-0.30219999 0.27959999 0.89999998
-0.2999 0.27900001 0.898
-0.2974 0.27810001 0.89499998
-0.29449999 0.27680001 0.89099997
-0.292 0.27590001 0.88800001
-0.28909999 0.2746 0.884
-0.2489 0.2793 0.89899999
-0.2465 0.2784 0.89600003
-0.2447 0.27810001 0.89499998
-0.24259999 0.27739999 0.89300001
-0.24070001 0.2771 0.89200002
-0.2392 0.2771 0.89200002
-0.2379 0.27739999 0.89300001
-0.2366 0.27770001 0.89399999
-0.23559999 0.2784 0.89600003
-0.2343 0.27869999 0.89700001
-0.23280001 0.27869999 0.89700001
-0.2309 0.2784 0.89600003
-0.2291 0.27810001 0.89499998
-0.22759999 0.27810001 0.89499998
-0.226 0.27810001 0.89499998
-0.2245 0.27810001 0.89499998
-0.2237 0.27900001 0.898
-0.22310001 0.2802 0.90200001
-0.2218 0.28049999 0.903
-0.2207 0.28119999 0.90499997
-0.2192 0.28119999 0.90499997
-0.2176 0.28119999 0.90499997
-0.214 0.28049999 0.903
-0.2101 0.27959999 0.89999998
-0.20209999 0.2793 0.89899999
-0.2008 0.27959999 0.89999998
-0.1992 0.27959999 0.89999998
-0.1981 0.2802 0.90200001
-0.19679999 0.28049999 0.903
-0.18350001 0.2818 0.90700001
-0.17990001 0.28119999 0.90499997
-0.17839999 0.28119999 0.90499997
-0.1768 0.28119999 0.90499997
-0.1752 0.28119999 0.90499997
-0.1735 0.2809 0.90399998
-0.1717 0.28049999 0.903
-0.17020001 0.28049999 0.903
-0.1684 0.2802 0.90200001
-0.1649 0.27959999 0.89999998
-0.162 0.27990001 0.90100002
-0.1604 0.27990001 0.90100002
-0.1459 0.28209999 0.90799999
-0.1442 0.2818 0.90700001
-0.1426 0.2818 0.90700001
-0.1409 0.28150001 0.90600002
-0.1392 0.28119999 0.90499997
-0.1313 0.28119999 0.90499997
-0.125 0.28119999 0.90499997
-0.1195 0.2793 0.89899999
-0.118 0.2793 0.89899999
-0.1169 0.28049999 0.903
-0.1158 0.28150001 0.90600002
-0.1142 0.28150001 0.90600002
-0.1127 0.2818 0.90700001
-0.1112 0.2818 0.90700001
-0.1095 0.28150001 0.90600002
-0.1078 0.28119999 0.90499997
-0.106 0.28049999 0.903
-0.1042 0.27990001 0.90100002
-0.1025 0.27959999 0.89999998
-0.101 0.27959999 0.89999998
-0.099399999 0.27959999 0.89999998
-0.097800002 0.27959999 0.89999998
-0.096299998 0.27959999 0.89999998
-0.094599999 0.2793 0.89899999
-0.093099996 0.2793 0.89899999
-0.091399997 0.27900001 0.898
-0.0898 0.27900001 0.898
-0.088299997 0.27900001 0.898
-0.086800002 0.2793 0.89899999
-0.0854 0.27959999 0.89999998
-0.083899997 0.27990001 0.90100002
-0.082500003 0.28049999 0.903
-0.080899999 0.28049999 0.903
-0.079499997 0.2809 0.90399998
-0.077799998 0.28049999 0.903
-0.076200001 0.2802 0.90200001
-0.07 0.28049999 0.903
-0.068599999 0.28119999 0.90499997
-0.067000002 0.28119999 0.90499997
-0.065399997 0.28119999 0.90499997
-0.063900001 0.28119999 0.90499997
-0.0623 0.28119999 0.90499997
-0.060699999 0.2809 0.90399998
-0.059099998 0.2809 0.90399998
-0.057500001 0.28049999 0.903
-0.056000002 0.2809 0.90399998
-0.054299999 0.28049999 0.903
-0.0528 0.28049999 0.903
-0.0513 0.28119999 0.90499997
-0.049800001 0.28119999 0.90499997
-0.0482 0.28119999 0.90499997
-0.046599999 0.28119999 0.90499997
-0.0451 0.28150001 0.90600002
-0.0436 0.2818 0.90700001
-0.042100001 0.28209999 0.90799999
-0.040399998 0.2818 0.90700001
-0.038800001 0.28150001 0.90600002
-0.0372 0.28119999 0.90499997
-0.035599999 0.28119999 0.90499997
-0.034000002 0.2809 0.90399998
-0.032400001 0.28049999 0.903
-0.0309 0.28049999 0.903
-0.029300001 0.28049999 0.903
-0.0277 0.28049999 0.903
-0.0262 0.28119999 0.90499997
-0.024700001 0.28150001 0.90600002
-0.0231 0.28150001 0.90600002
-0.02 0.28119999 0.90499997
-0.0184 0.28119999 0.90499997
-0.016799999 0.28119999 0.90499997
-0.0137 0.2809 0.90399998
-0.0121 0.2809 0.90399998
-0.0105 0.2809 0.90399998
-0.0089999996 0.28119999 0.90499997
-0.0074 0.28119999 0.90499997
-0.0057999999 0.2809 0.90399998
-0.0043000001 0.28049999 0.903
-0.0027000001 0.28119999 0.90499997
0.034899998 0.28049999 0.903
0.036499999 0.28119999 0.90499997
0.039700001 0.2818 0.90700001
0.041299999 0.2818 0.90700001
0.0429 0.2818 0.90700001
0.044500001 0.2818 0.90700001
0.046 0.2818 0.90700001
0.047499999 0.28150001 0.90600002
0.0491 0.28150001 0.90600002
0.050700001 0.28150001 0.90600002
0.052200001 0.28119999 0.90499997
0.055500001 0.2818 0.90700001
0.057 0.2818 0.90700001
0.058699999 0.28209999 0.90799999
0.064900003 0.2818 0.90700001
0.071199998 0.2818 0.90700001
0.084200002 0.28330001 0.912
0.085600004 0.2827 0.91000003
0.087099999 0.28240001 0.90899998
0.088699996 0.28240001 0.90899998
0.090099998 0.28209999 0.90799999
0.095100001 0.2827 0.91000003
0.098200001 0.2827 0.91000003
0.099699996 0.28240001 0.90899998
0.1014 0.2827 0.91000003
0.103 0.2827 0.91000003
0.1046 0.28299999 0.91100001
0.1062 0.28299999 0.91100001
0.1076 0.28240001 0.90899998
0.1175 0.27990001 0.90100002
0.1207 0.27990001 0.90100002
0.1239 0.2802 0.90200001
0.1256 0.28049999 0.903
0.1276 0.28150001 0.90600002
0.1293 0.2818 0.90700001
0.1309 0.2818 0.90700001
0.13259999 0.28209999 0.90799999
0.13429999 0.28240001 0.90899998
0.1358 0.28209999 0.90799999
0.1373 0.28209999 0.90799999
0.1388 0.2818 0.90700001
0.14030001 0.2818 0.90700001
0.1419 0.2818 0.90700001
0.1435 0.2818 0.90700001
0.148 0.28150001 0.90600002
0.1496 0.28150001 0.90600002
0.1512 0.28150001 0.90600002
0.15270001 0.28150001 0.90600002
0.15449999 0.2818 0.90700001
0.15620001 0.28209999 0.90799999
0.1578 0.28209999 0.90799999
0.15970001 0.2827 0.91000003
0.1617 0.28330001 0.912
0.1636 0.28400001 0.91399997
0.1673 0.28490001 0.917
-0.3628 0.27739999 0.88800001
-0.3612 0.27739999 0.88800001
-0.35969999 0.27739999 0.88800001
-0.35820001 0.27739999 0.88800001
-0.35659999 0.27739999 0.88800001
-0.35510001 0.27739999 0.88800001
-0.35389999 0.27770001 0.889
-0.34619999 0.27770001 0.889
-0.3432 0.27770001 0.889
-0.34119999 0.27739999 0.88800001
-0.33700001 0.27770001 0.889
-0.33579999 0.278 0.88999999
-0.32800001 0.2793 0.89399999
-0.31650001 0.27869999 0.89200002
-0.31459999 0.2784 0.89099997
-0.31369999 0.27900001 0.89300001
-0.31330001 0.27990001 0.89600003
-0.31310001 0.28119999 0.89999998
-0.31189999 0.28150001 0.90100002
-0.31029999 0.28150001 0.90100002
-0.30840001 0.28119999 0.89999998
-0.30689999 0.28119999 0.89999998
-0.3053 0.28119999 0.89999998
-0.30309999 0.28049999 0.898
-0.3008 0.27990001 0.89600003
-0.29890001 0.27959999 0.89499998
-0.29609999 0.2784 0.89099997
-0.29390001 0.27770001 0.889
-0.29170001 0.2771 0.88700002
-0.28909999 0.2762 0.884
-0.25130001 0.2818 0.90200001
-0.2489 0.2809 0.89899999
-0.2465 0.27990001 0.89600003
-0.2441 0.27900001 0.89300001
-0.2405 0.2784 0.89099997
-0.23890001 0.2784 0.89099997
-0.2376 0.27869999 0.89200002
-0.2361 0.27869999 0.89200002
-0.2353 0.27959999 0.89499998
-0.23379999 0.27959999 0.89499998
-0.2322 0.27959999 0.89499998
-0.2307 0.27959999 0.89499998
-0.2289 0.2793 0.89399999
-0.2273 0.2793 0.89399999
-0.22400001 0.27900001 0.89300001
-0.2221 0.28049999 0.898
-0.2211 0.28119999 0.89999998
-0.21870001 0.28209999 0.903
-0.21709999 0.28209999 0.903
-0.2014 0.27990001 0.89600003
-0.1988 0.28049999 0.898
-0.1979 0.28150001 0.90100002
-0.19679999 0.28209999 0.903
-0.1866 0.2834 0.90700001
-0.1848 0.28299999 0.90600002
-0.18350001 0.2834 0.90700001
-0.18170001 0.28299999 0.90600002
-0.17990001 0.2827 0.90499997
-0.17839999 0.2827 0.90499997
-0.1768 0.2827 0.90499997
-0.1752 0.2827 0.90499997
-0.1735 0.28240001 0.90399998
-0.1717 0.28209999 0.903
-0.16859999 0.28209999 0.903
-0.16670001 0.28150001 0.90100002
-0.1602 0.28119999 0.89999998
-0.1569 0.2809 0.89899999
-0.1473 0.2834 0.90700001
-0.14579999 0.2834 0.90700001
-0.1442 0.2834 0.90700001
-0.1425 0.28299999 0.90600002
-0.1409 0.28299999 0.90600002
-0.1392 0.2827 0.90499997
-0.1198 0.28150001 0.90100002
-0.1182 0.28150001 0.90100002
-0.1169 0.28209999 0.903
-0.1156 0.2827 0.90499997
-0.1142 0.28299999 0.90600002
-0.1127 0.2834 0.90700001
-0.111 0.28299999 0.90600002
-0.1094 0.2827 0.90499997
-0.1078 0.2827 0.90499997
-0.1059 0.2818 0.90200001
-0.1041 0.28119999 0.89999998
-0.1025 0.28119999 0.89999998
-0.1008 0.2809 0.89899999
-0.099200003 0.28049999 0.898
-0.097599998 0.28049999 0.898
-0.096000001 0.2802 0.89700001
-0.094300002 0.27990001 0.89600003
-0.092699997 0.27990001 0.89600003
-0.091200002 0.27990001 0.89600003
-0.089699998 0.2802 0.89700001
-0.088299997 0.28049999 0.898
-0.086900003 0.28119999 0.89999998
-0.085500002 0.28150001 0.90100002
-0.083999999 0.2818 0.90200001
-0.082599998 0.28240001 0.90399998
-0.081100002 0.2827 0.90499997
-0.078000002 0.2827 0.90499997
-0.07 0.28209999 0.903
-0.068499997 0.28240001 0.90399998
-0.0669 0.28240001 0.90399998
-0.065399997 0.28240001 0.90399998
-0.0638 0.28240001 0.90399998
-0.062199999 0.28240001 0.90399998
-0.060600001 0.28209999 0.903
-0.059 0.28209999 0.903
-0.057500001 0.28209999 0.903
-0.056000002 0.28240001 0.90399998
-0.054400001 0.28240001 0.90399998
-0.0513 0.2827 0.90499997
-0.049800001 0.2827 0.90499997
-0.0482 0.28299999 0.90600002
-0.046700001 0.28299999 0.90600002
-0.045200001 0.2834 0.90700001
-0.0436 0.2834 0.90700001
-0.042100001 0.28400001 0.90899998
-0.0405 0.28369999 0.90799999
-0.038899999 0.28369999 0.90799999
-0.037300002 0.2834 0.90700001
-0.0341 0.28299999 0.90600002
-0.032499999 0.2827 0.90499997
-0.0309 0.28240001 0.90399998
-0.029300001 0.28209999 0.903
-0.0277 0.28209999 0.903
-0.0262 0.28240001 0.90399998
-0.024700001 0.2827 0.90499997
-0.0231 0.2827 0.90499997
-0.021500001 0.2827 0.90499997
-0.0199 0.28240001 0.90399998
-0.0184 0.28240001 0.90399998
-0.016799999 0.2827 0.90499997
-0.0152 0.2827 0.90499997
-0.0137 0.28240001 0.90399998
-0.0121 0.28240001 0.90399998
-0.0105 0.28240001 0.90399998
-0.0089999996 0.2827 0.90499997
-0.0074 0.2827 0.90499997
-0.0057999999 0.28240001 0.90399998
-0.0043000001 0.28209999 0.903
-0.0027000001 0.2827 0.90499997
0.033300001 0.28209999 0.903
0.038199998 0.2834 0.90700001
0.039799999 0.28369999 0.90799999
0.0414 0.28369999 0.90799999
0.0429 0.28369999 0.90799999
0.044500001 0.2834 0.90700001
0.046 0.2834 0.90700001
0.047600001 0.2834 0.90700001
0.0491 0.28299999 0.90600002
0.050700001 0.28299999 0.90600002
0.052200001 0.2827 0.90499997
0.0539 0.2834 0.90700001
0.057 0.2834 0.90700001
0.058600001 0.2834 0.90700001
0.060199998 0.2834 0.90700001
0.063199997 0.2827 0.90499997
0.0647 0.2827 0.90499997
0.076800004 0.2868 0.91799998
0.078500003 0.28709999 0.91900003
0.087200001 0.2843 0.91000003
0.088799998 0.2843 0.91000003
0.0902 0.28400001 0.90899998
0.092 0.28459999 0.91100001
0.093599997 0.28459999 0.91100001
0.096699998 0.28459999 0.91100001
0.098200001 0.2843 0.91000003
0.099600002 0.28369999 0.90799999
0.1014 0.2843 0.91000003
0.103 0.2843 0.91000003
0.1045 0.2843 0.91000003
0.1061 0.2843 0.91000003
0.1074 0.28369999 0.90799999
0.1089 0.2834 0.90700001
0.1131 0.28209999 0.903
0.1146 0.2818 0.90200001
0.116 0.28150001 0.90100002
0.1174 0.28119999 0.89999998
0.1191 0.28150001 0.90100002
0.1207 0.28150001 0.90100002
0.1222 0.28150001 0.90100002
0.1239 0.2818 0.90200001
0.1256 0.28209999 0.903
0.12909999 0.2827 0.90499997
0.13079999 0.28299999 0.90600002
0.13249999 0.2834 0.90700001
0.13420001 0.28369999 0.90799999
0.1358 0.28369999 0.90799999
0.1373 0.28369999 0.90799999
0.1389 0.28369999 0.90799999
0.14049999 0.28369999 0.90799999
0.14210001 0.28369999 0.90799999
0.1435 0.2834 0.90700001
0.14659999 0.2834 0.90700001
0.14820001 0.2834 0.90700001
0.1498 0.2834 0.90700001
0.1513 0.2834 0.90700001
0.1529 0.2834 0.90700001
0.1547 0.28369999 0.90799999
0.1566 0.2843 0.91000003
0.15800001 0.28400001 0.90899998
0.15970001 0.2843 0.91000003
0.1617 0.28490001 0.912
0.1636 0.28549999 0.91399997
0.1655 0.28619999 0.91600001
-0.3628 0.27900001 0.88800001
-0.3612 0.27900001 0.88800001
-0.35969999 0.27900001 0.88800001
-0.35820001 0.27900001 0.88800001
-0.35659999 0.27900001 0.88800001
-0.35550001 0.2793 0.889
-0.35280001 0.27959999 0.88999999
-0.347 0.27990001 0.89099997
-0.34509999 0.27959999 0.88999999
-0.34349999 0.27959999 0.88999999
-0.34200001 0.27959999 0.88999999
-0.33739999 0.27959999 0.88999999
-0.33579999 0.27959999 0.88999999
-0.33430001 0.27959999 0.88999999
-0.31349999 0.27900001 0.88800001
-0.3123 0.2793 0.889
-0.31150001 0.27990001 0.89099997
-0.31099999 0.28080001 0.89399999
-0.31009999 0.28150001 0.89600003
-0.30930001 0.28209999 0.898
-0.30770001 0.28209999 0.898
-0.3062 0.28209999 0.898
-0.3046 0.28209999 0.898
-0.30239999 0.28150001 0.89600003
-0.30050001 0.28119999 0.89499998
-0.2983 0.28049999 0.89300001
-0.29609999 0.27990001 0.89099997
-0.29350001 0.27900001 0.88800001
-0.29170001 0.27860001 0.88700002
-0.28909999 0.27770001 0.884
-0.25150001 0.28369999 0.903
-0.24590001 0.28080001 0.89399999
-0.2438 0.2802 0.89200002
-0.2387 0.27959999 0.88999999
-0.23710001 0.27959999 0.88999999
-0.2358 0.27990001 0.89099997
-0.23459999 0.2802 0.89200002
-0.233 0.2802 0.89200002
-0.2315 0.2802 0.89200002
-0.23019999 0.28049999 0.89300001
-0.2286 0.28049999 0.89300001
-0.22679999 0.2802 0.89200002
-0.2253 0.2802 0.89200002
-0.2237 0.2802 0.89200002
-0.2227 0.28080001 0.89399999
-0.2216 0.28150001 0.89600003
-0.22059999 0.28209999 0.898
-0.2193 0.28240001 0.89899999
-0.2166 0.28299999 0.90100002
-0.2133 0.2827 0.89999998
-0.1992 0.2827 0.89999998
-0.1983 0.28369999 0.903
-0.1972 0.2843 0.90499997
-0.1864 0.28459999 0.90600002
-0.1846 0.2843 0.90499997
-0.18350001 0.28490001 0.90700001
-0.18170001 0.28459999 0.90600002
-0.18009999 0.28459999 0.90600002
-0.1788 0.28490001 0.90700001
-0.1737 0.2843 0.90499997
-0.17209999 0.2843 0.90499997
-0.1705 0.2843 0.90499997
-0.169 0.2843 0.90499997
-0.167 0.28369999 0.903
-0.1653 0.2834 0.90200001
-0.162 0.28299999 0.90100002
-0.1604 0.28299999 0.90100002
-0.1585 0.28240001 0.89899999
-0.1568 0.28209999 0.898
-0.15549999 0.2827 0.89999998
-0.15090001 0.2827 0.89999998
-0.14820001 0.28369999 0.903
-0.1453 0.28400001 0.90399998
-0.1437 0.28400001 0.90399998
-0.14229999 0.2843 0.90499997
-0.1407 0.2843 0.90499997
-0.1389 0.28369999 0.903
-0.1373 0.28369999 0.903
-0.1198 0.28299999 0.90100002
-0.1181 0.2827 0.89999998
-0.1168 0.2834 0.90200001
-0.1155 0.28400001 0.90399998
-0.1141 0.2843 0.90499997
-0.1125 0.2843 0.90499997
-0.1109 0.2843 0.90499997
-0.1094 0.2843 0.90499997
-0.1059 0.2834 0.90200001
-0.1024 0.28240001 0.89899999
-0.1007 0.28209999 0.898
-0.099100001 0.2818 0.89700001
-0.097400002 0.28150001 0.89600003
-0.095700003 0.28119999 0.89499998
-0.0942 0.28119999 0.89499998
-0.092600003 0.28119999 0.89499998
-0.091200002 0.28150001 0.89600003
-0.089599997 0.28150001 0.89600003
-0.088200003 0.2818 0.89700001
-0.086900003 0.2827 0.89999998
-0.085500002 0.28299999 0.90100002
-0.083999999 0.2834 0.90200001
-0.082599998 0.28400001 0.90399998
-0.081100002 0.2843 0.90499997
-0.079599999 0.2843 0.90499997
-0.076300003 0.28400001 0.90399998
-0.072999999 0.2834 0.90200001
-0.069899999 0.2834 0.90200001
-0.068400003 0.28369999 0.903
-0.0669 0.28369999 0.903
-0.065399997 0.28400001 0.90399998
-0.0638 0.28400001 0.90399998
-0.062199999 0.28400001 0.90399998
-0.060600001 0.28369999 0.903
-0.059 0.28369999 0.903
-0.057500001 0.28369999 0.903
-0.0559 0.28369999 0.903
-0.054299999 0.28369999 0.903
-0.0528 0.28369999 0.903
-0.049800001 0.2843 0.90499997
-0.0482 0.28459999 0.90600002
-0.046700001 0.28459999 0.90600002
-0.045200001 0.28490001 0.90700001
-0.0436 0.28490001 0.90700001
-0.042100001 0.28560001 0.90899998
-0.0405 0.28560001 0.90899998
-0.037300002 0.2852 0.90799999
-0.032499999 0.2843 0.90499997
-0.0309 0.28369999 0.903
-0.029300001 0.28369999 0.903
-0.027799999 0.28400001 0.90399998
-0.0262 0.2843 0.90499997
-0.024700001 0.2843 0.90499997
-0.0231 0.28400001 0.90399998
-0.021500001 0.28400001 0.90399998
-0.0199 0.28400001 0.90399998
-0.0184 0.2843 0.90499997
-0.016799999 0.28400001 0.90399998
-0.0152 0.2843 0.90499997
-0.0137 0.28400001 0.90399998
-0.0121 0.2843 0.90499997
-0.0105 0.2843 0.90499997
-0.0089999996 0.28459999 0.90600002
-0.0074 0.2843 0.90499997
-0.0057999999 0.2843 0.90499997
-0.0043000001 0.28400001 0.90399998
-0.0027000001 0.2843 0.90499997
0.033300001 0.28400001 0.90399998
0.036600001 0.28490001 0.90700001
0.038199998 0.2852 0.90799999
0.039799999 0.28560001 0.90899998
0.0414 0.2859 0.91000003
0.0429 0.2852 0.90799999
0.044500001 0.2852 0.90799999
0.046 0.28490001 0.90700001
0.047600001 0.28490001 0.90700001
0.049199998 0.28490001 0.90700001
0.053800002 0.28459999 0.90600002
0.057 0.28490001 0.90700001
0.058600001 0.28490001 0.90700001
0.0601 0.28459999 0.90600002
0.061700001 0.28459999 0.90600002
0.063199997 0.2843 0.90499997
0.0647 0.2843 0.90499997
0.066299997 0.2843 0.90499997
0.067900002 0.2843 0.90499997
0.069499999 0.28459999 0.90600002
0.071199998 0.28490001 0.90700001
0.0766 0.28780001 0.91600001
0.088699996 0.28560001 0.90899998
0.0902 0.28560001 0.90899998
0.092100002 0.28650001 0.912
0.093699999 0.28650001 0.912
0.095299996 0.28650001 0.912
0.096900001 0.28650001 0.912
0.098200001 0.2859 0.91000003
0.099699996 0.28560001 0.90899998
0.1014 0.2859 0.91000003
0.103 0.2859 0.91000003
0.1045 0.2859 0.91000003
0.1061 0.2859 0.91000003
0.1074 0.2852 0.90799999
0.1089 0.28490001 0.90700001
0.1105 0.28490001 0.90700001
0.1131 0.28369999 0.903
0.1144 0.28299999 0.90100002
0.1159 0.2827 0.89999998
0.1174 0.2827 0.89999998
0.1191 0.28299999 0.90100002
0.1207 0.28299999 0.90100002
0.1222 0.28299999 0.90100002
0.1241 0.28369999 0.903
0.1258 0.28400001 0.90399998
0.1275 0.2843 0.90499997
0.12909999 0.2843 0.90499997
0.13079999 0.28459999 0.90600002
0.13420001 0.2852 0.90799999
0.1358 0.2852 0.90799999
0.1373 0.2852 0.90799999
0.1388 0.28490001 0.90700001
0.14049999 0.2852 0.90799999
0.1419 0.28490001 0.90700001
0.1435 0.28490001 0.90700001
0.1451 0.28490001 0.90700001
0.14659999 0.28490001 0.90700001
0.14820001 0.28490001 0.90700001
0.1499 0.2852 0.90799999
0.1517 0.28560001 0.90899998
0.1533 0.28560001 0.90899998
0.155 0.2859 0.91000003
0.1569 0.28650001 0.912
0.1585 0.28650001 0.912
0.1601 0.28650001 0.912
0.1618 0.2868 0.91299999
0.1636 0.28709999 0.91399997
0.1654 0.28740001 0.91500002
0.1761 0.2868 0.91299999
-0.3856 0.2814 0.89099997
-0.37099999 0.28209999 0.89300001
-0.3651 0.2811 0.88999999
-0.36320001 0.28080001 0.889
-0.3612 0.28049999 0.88800001
-0.35969999 0.28049999 0.88800001
-0.35820001 0.28049999 0.88800001
-0.35659999 0.28049999 0.88800001
-0.3493 0.28080001 0.889
-0.34549999 0.2814 0.89099997
-0.3439 0.2814 0.89099997
-0.34240001 0.2814 0.89099997
-0.34079999 0.2814 0.89099997
-0.3105 0.28049999 0.88800001
-0.3096 0.2811 0.88999999
-0.30759999 0.28209999 0.89300001
-0.3064 0.28240001 0.89399999
-0.30509999 0.2827 0.89499998
-0.30360001 0.2827 0.89499998
-0.3017 0.28240001 0.89399999
-0.29980001 0.28209999 0.89300001
-0.29789999 0.2818 0.89200002
-0.29570001 0.2811 0.88999999
-0.29350001 0.28049999 0.88800001
-0.29170001 0.2802 0.88700002
-0.2895 0.27950001 0.88499999
-0.25099999 0.28459999 0.90100002
-0.24779999 0.2827 0.89499998
-0.24510001 0.2814 0.89099997
-0.2353 0.28080001 0.889
-0.234 0.2811 0.88999999
-0.2325 0.2811 0.88999999
-0.2309 0.2811 0.88999999
-0.22939999 0.2811 0.88999999
-0.2281 0.2814 0.89099997
-0.22679999 0.2818 0.89200002
-0.2253 0.2818 0.89200002
-0.22400001 0.28209999 0.89300001
-0.2227 0.28240001 0.89399999
-0.22139999 0.2827 0.89499998
-0.2201 0.28299999 0.89600003
-0.21879999 0.28330001 0.89700001
-0.21699999 0.28299999 0.89600003
-0.2157 0.28330001 0.89700001
-0.2036 0.2818 0.89200002
-0.20209999 0.2818 0.89200002
-0.2008 0.28209999 0.89300001
-0.19939999 0.28240001 0.89399999
-0.1983 0.28299999 0.89600003
-0.1979 0.28459999 0.90100002
-0.186 0.28560001 0.90399998
-0.18440001 0.28560001 0.90399998
-0.1831 0.2859 0.90499997
-0.17990001 0.2859 0.90499997
-0.1788 0.28650001 0.90700001
-0.17399999 0.28650001 0.90700001
-0.17209999 0.2859 0.90499997
-0.1705 0.2859 0.90499997
-0.169 0.2859 0.90499997
-0.1653 0.28490001 0.90200001
-0.162 0.28459999 0.90100002
-0.1568 0.28369999 0.898
-0.15539999 0.28400001 0.89899999
-0.1495 0.28459999 0.90100002
-0.1479 0.28459999 0.90100002
-0.14650001 0.28490001 0.90200001
-0.145 0.28490001 0.90200001
-0.1432 0.28459999 0.90100002
-0.1418 0.28490001 0.90200001
-0.14030001 0.28490001 0.90200001
-0.13850001 0.28459999 0.90100002
-0.1354 0.28459999 0.90100002
-0.1167 0.28459999 0.90100002
-0.1152 0.28490001 0.90200001
-0.1122 0.2852 0.903
-0.1108 0.28560001 0.90399998
-0.1092 0.28560001 0.90399998
-0.1076 0.2852 0.903
-0.1058 0.28459999 0.90100002
-0.1042 0.28459999 0.90100002
-0.1025 0.2843 0.89999998
-0.1008 0.28400001 0.89899999
-0.099100001 0.28330001 0.89700001
-0.097400002 0.28299999 0.89600003
-0.094099998 0.28240001 0.89399999
-0.092600003 0.2827 0.89499998
-0.0911 0.2827 0.89499998
-0.089500003 0.2827 0.89499998
-0.088100001 0.28299999 0.89600003
-0.0867 0.28369999 0.898
-0.0854 0.2843 0.89999998
-0.083899997 0.28459999 0.90100002
-0.082500003 0.2852 0.903
-0.081 0.28560001 0.90399998
-0.079599999 0.2859 0.90499997
-0.0779 0.28560001 0.90399998
-0.076300003 0.28560001 0.90399998
-0.0748 0.28560001 0.90399998
-0.073100001 0.2852 0.903
-0.071599998 0.2852 0.903
-0.07 0.2852 0.903
-0.068400003 0.2852 0.903
-0.0669 0.28560001 0.90399998
-0.065300003 0.2852 0.903
-0.063699998 0.2852 0.903
-0.062199999 0.2852 0.903
-0.060600001 0.2852 0.903
-0.059 0.2852 0.903
-0.057500001 0.2852 0.903
-0.0559 0.2852 0.903
-0.054299999 0.2852 0.903
-0.0528 0.2852 0.903
-0.0513 0.2859 0.90499997
-0.049800001 0.2859 0.90499997
-0.0482 0.2859 0.90499997
-0.046700001 0.28619999 0.90600002
-0.045200001 0.28650001 0.90700001
-0.0436 0.28650001 0.90700001
-0.042100001 0.28709999 0.90899998
-0.0405 0.2868 0.90799999
-0.035799999 0.2868 0.90799999
-0.0341 0.28650001 0.90700001
-0.032499999 0.28619999 0.90600002
-0.0309 0.2859 0.90499997
-0.029300001 0.28560001 0.90399998
-0.027799999 0.2859 0.90499997
-0.0262 0.2859 0.90499997
-0.024700001 0.2859 0.90499997
-0.0231 0.28560001 0.90399998
-0.021500001 0.2852 0.903
-0.0199 0.2852 0.903
-0.0184 0.28560001 0.90399998
-0.016799999 0.2852 0.903
-0.0152 0.28560001 0.90399998
-0.0137 0.28560001 0.90399998
-0.0121 0.2859 0.90499997
-0.0106 0.28619999 0.90600002
-0.0089999996 0.28650001 0.90700001
-0.0074 0.2859 0.90499997
-0.0057999999 0.2859 0.90499997
-0.0043000001 0.28560001 0.90399998
-0.0027000001 0.2852 0.903
0.035 0.28619999 0.90600002
0.036600001 0.2868 0.90799999
0.038199998 0.2868 0.90799999
0.039799999 0.28709999 0.90899998
0.0414 0.28740001 0.91000003
0.0429 0.2868 0.90799999
0.044500001 0.2868 0.90799999
0.046 0.28650001 0.90700001
0.047600001 0.28650001 0.90700001
0.049199998 0.28650001 0.90700001
0.0539 0.28650001 0.90700001
0.055500001 0.28650001 0.90700001
0.057 0.28650001 0.90700001
0.058600001 0.28650001 0.90700001
0.0601 0.28619999 0.90600002
0.061700001 0.28619999 0.90600002
0.063199997 0.2859 0.90499997
0.0647 0.2859 0.90499997
0.066299997 0.2859 0.90499997
0.067900002 0.2859 0.90499997
0.069399998 0.2859 0.90499997
0.071099997 0.28619999 0.90600002
0.088799998 0.28740001 0.91000003
0.090300001 0.28740001 0.91000003
0.092100002 0.2881 0.912
0.093699999 0.2881 0.912
0.095200002 0.28780001 0.91100001
0.096600004 0.28740001 0.91000003
0.098099999 0.28709999 0.90899998
0.099600002 0.2868 0.90799999
0.1013 0.28709999 0.90899998
0.1028 0.28709999 0.90899998
0.1045 0.28740001 0.91000003
0.1076 0.28709999 0.90899998
0.1089 0.28650001 0.90700001
0.1105 0.28650001 0.90700001
0.1118 0.2859 0.90499997
0.1146 0.28490001 0.90200001
0.116 0.28459999 0.90100002
0.1175 0.28459999 0.90100002
0.1192 0.28490001 0.90200001
0.1209 0.2852 0.903
0.1225 0.2852 0.903
0.1242 0.28560001 0.90399998
0.1259 0.2859 0.90499997
0.1275 0.2859 0.90499997
0.1292 0.28619999 0.90600002
0.1309 0.28650001 0.90700001
0.13249999 0.28650001 0.90700001
0.1356 0.28650001 0.90700001
0.1372 0.28650001 0.90700001
0.1388 0.28650001 0.90700001
0.14049999 0.2868 0.90799999
0.14210001 0.2868 0.90799999
0.1436 0.2868 0.90799999
0.1451 0.28650001 0.90700001
0.14820001 0.28650001 0.90700001
0.1499 0.2868 0.90799999
0.1515 0.2868 0.90799999
0.1534 0.28740001 0.91000003
0.1552 0.28780001 0.91100001
0.1569 0.2881 0.912
0.1585 0.2881 0.912
0.1601 0.2881 0.912
0.1617 0.2881 0.912
0.17550001 0.28740001 0.91000003
-0.36750001 0.28330001 0.89200002
-0.36559999 0.28299999 0.89099997
-0.36399999 0.28299999 0.89099997
-0.36210001 0.2827 0.88999999
-0.3601 0.28240001 0.889
-0.35820001 0.28200001 0.88800001
-0.35659999 0.28200001 0.88800001
-0.34889999 0.28200001 0.88800001
-0.3443 0.28330001 0.89200002
-0.3432 0.2836 0.89300001
-0.3416 0.2836 0.89300001
-0.33970001 0.28330001 0.89200002
-0.3132 0.28169999 0.88700002
-0.3116 0.28169999 0.88700002
-0.3057 0.28330001 0.89200002
-0.30450001 0.2836 0.89300001
-0.30140001 0.2836 0.89300001
-0.29980001 0.2836 0.89300001
-0.2976 0.28299999 0.89099997
-0.29570001 0.2827 0.88999999
-0.29350001 0.28200001 0.88800001
-0.29170001 0.28169999 0.88700002
-0.2895 0.2811 0.88499999
-0.24690001 0.28330001 0.89200002
-0.2448 0.2827 0.88999999
-0.234 0.2827 0.88999999
-0.2325 0.2827 0.88999999
-0.2307 0.28240001 0.889
-0.22939999 0.2827 0.88999999
-0.2281 0.28299999 0.89099997
-0.22660001 0.28299999 0.89099997
-0.2253 0.28330001 0.89200002
-0.22400001 0.2836 0.89300001
-0.22239999 0.2836 0.89300001
-0.2211 0.28389999 0.89399999
-0.2198 0.2843 0.89499998
-0.2183 0.2843 0.89499998
-0.2165 0.28389999 0.89399999
-0.2147 0.2836 0.89300001
-0.2132 0.2836 0.89300001
-0.21160001 0.2836 0.89300001
-0.20649999 0.28299999 0.89099997
-0.2016 0.2827 0.88999999
-0.2001 0.2827 0.88999999
-0.1983 0.28240001 0.889
-0.19679999 0.28240001 0.889
-0.18700001 0.28619999 0.90100002
-0.1842 0.2868 0.903
-0.1831 0.28740001 0.90499997
-0.18170001 0.28780001 0.90600002
-0.17990001 0.28740001 0.90499997
-0.1788 0.2881 0.90700001
-0.17399999 0.2881 0.90700001
-0.1707 0.28780001 0.90600002
-0.169 0.28740001 0.90499997
-0.1672 0.28709999 0.90399998
-0.1655 0.2868 0.903
-0.1637 0.28650001 0.90200001
-0.162 0.28619999 0.90100002
-0.1587 0.28580001 0.89999998
-0.1481 0.28650001 0.90200001
-0.14669999 0.2868 0.903
-0.145 0.28650001 0.90200001
-0.1432 0.28619999 0.90100002
-0.1417 0.28619999 0.90100002
-0.1401 0.28619999 0.90100002
-0.1354 0.28619999 0.90100002
-0.13259999 0.2868 0.903
-0.131 0.2868 0.903
-0.1167 0.28619999 0.90100002
-0.1138 0.2868 0.903
-0.1108 0.28709999 0.90399998
-0.1092 0.28709999 0.90399998
-0.106 0.2868 0.903
-0.1042 0.28619999 0.90100002
-0.1026 0.28619999 0.90100002
-0.101 0.28580001 0.89999998
-0.099100001 0.28490001 0.89700001
-0.0973 0.2843 0.89499998
-0.0955 0.2836 0.89300001
-0.093999997 0.2836 0.89300001
-0.092500001 0.28389999 0.89399999
-0.0911 0.2843 0.89499998
-0.089500003 0.2843 0.89499998
-0.086900003 0.28580001 0.89999998
-0.085500002 0.28619999 0.90100002
-0.083999999 0.28650001 0.90200001
-0.082500003 0.2868 0.903
-0.081 0.28709999 0.90399998
-0.079599999 0.28740001 0.90499997
-0.0779 0.28709999 0.90399998
-0.0748 0.28709999 0.90399998
-0.071400002 0.28619999 0.90100002
-0.069899999 0.28650001 0.90200001
-0.068400003 0.2868 0.903
-0.0669 0.2868 0.903
-0.065300003 0.2868 0.903
-0.063699998 0.28650001 0.90200001
-0.062100001 0.28650001 0.90200001
-0.0605 0.28619999 0.90100002
-0.059 0.28650001 0.90200001
-0.057300001 0.28619999 0.90100002
-0.055799998 0.28619999 0.90100002
-0.054200001 0.28619999 0.90100002
-0.052700002 0.28650001 0.90200001
-0.051199999 0.2868 0.903
-0.049800001 0.28740001 0.90499997
-0.0482 0.28740001 0.90499997
-0.046700001 0.28780001 0.90600002
-0.045200001 0.2881 0.90700001
-0.0436 0.28839999 0.90799999
-0.042100001 0.28870001 0.90899998
-0.040600002 0.289 0.91000003
-0.039000001 0.289 0.91000003
-0.0374 0.289 0.91000003
-0.035799999 0.289 0.91000003
-0.0309 0.2868 0.903
-0.029300001 0.28650001 0.90200001
-0.027799999 0.28709999 0.90399998
-0.0262 0.28709999 0.90399998
-0.024599999 0.28709999 0.90399998
-0.023 0.2868 0.903
-0.021500001 0.2868 0.903
-0.0199 0.2868 0.903
-0.018300001 0.2868 0.903
-0.016799999 0.2868 0.903
-0.0137 0.28709999 0.90399998
-0.0121 0.28740001 0.90499997
-0.0105 0.28740001 0.90499997
-0.0089999996 0.28780001 0.90600002
-0.0074 0.28780001 0.90600002
-0.0057999999 0.28740001 0.90499997
-0.0043000001 0.28740001 0.90499997
0.034899998 0.28740001 0.90499997
0.036600001 0.2881 0.90700001
0.038199998 0.28839999 0.90799999
0.039799999 0.28839999 0.90799999
0.0414 0.28870001 0.90899998
0.043000001 0.28870001 0.90899998
0.044500001 0.28870001 0.90899998
0.046100002 0.28839999 0.90799999
0.047600001 0.28839999 0.90799999
0.049199998 0.2881 0.90700001
0.050700001 0.2881 0.90700001
0.055500001 0.2881 0.90700001
0.057 0.2881 0.90700001
0.058600001 0.2881 0.90700001
0.060199998 0.2881 0.90700001
0.061700001 0.28780001 0.90600002
0.063199997 0.28740001 0.90499997
0.0647 0.28740001 0.90499997
0.066200003 0.28709999 0.90399998
0.067699999 0.2868 0.903
0.069399998 0.28709999 0.90399998
0.091899998 0.289 0.91000003
0.093599997 0.28929999 0.91100001
0.095100001 0.289 0.91000003
0.096600004 0.289 0.91000003
0.098099999 0.28870001 0.90899998
0.099600002 0.28839999 0.90799999
0.1012 0.28839999 0.90799999
0.1027 0.28839999 0.90799999
0.1043 0.28839999 0.90799999
0.1059 0.28839999 0.90799999
0.1074 0.28839999 0.90799999
0.1089 0.2881 0.90700001
0.1105 0.2881 0.90700001
0.112 0.2881 0.90700001
0.1134 0.28740001 0.90499997
0.1147 0.2868 0.903
0.1161 0.28650001 0.90200001
0.1177 0.28650001 0.90200001
0.1194 0.2868 0.903
0.1211 0.28709999 0.90399998
0.1228 0.28740001 0.90499997
0.1243 0.28740001 0.90499997
0.12620001 0.2881 0.90700001
0.1278 0.2881 0.90700001
0.1309 0.2881 0.90700001
0.1388 0.2881 0.90700001
0.14030001 0.2881 0.90700001
0.1419 0.2881 0.90700001
0.1435 0.2881 0.90700001
0.1451 0.2881 0.90700001
0.14659999 0.2881 0.90700001
0.14820001 0.2881 0.90700001
0.1499 0.28839999 0.90799999
0.1515 0.28839999 0.90799999
0.1534 0.289 0.91000003
0.155 0.289 0.91000003
0.1569 0.2897 0.912
0.1585 0.2897 0.912
0.1601 0.2897 0.912
0.1617 0.2897 0.912
-0.41679999 0.28580001 0.89499998
-0.40759999 0.28259999 0.88499999
-0.40560001 0.2823 0.884
-0.3671 0.2845 0.89099997
-0.36559999 0.2845 0.89099997
-0.36359999 0.28420001 0.88999999
-0.36210001 0.28420001 0.88999999
-0.3601 0.28389999 0.889
-0.35820001 0.2836 0.88800001
-0.3443 0.28490001 0.89200002
-0.3432 0.2852 0.89300001
-0.34119999 0.28490001 0.89200002
-0.33930001 0.2845 0.89099997
-0.33579999 0.28420001 0.88999999
-0.31920001 0.2845 0.89099997
-0.3089 0.2836 0.88800001
-0.30809999 0.28420001 0.88999999
-0.30219999 0.2845 0.89099997
-0.301 0.28490001 0.89200002
-0.29949999 0.28490001 0.89200002
-0.29539999 0.28389999 0.889
-0.29350001 0.2836 0.88800001
-0.29170001 0.28330001 0.88700002
-0.2472 0.2852 0.89300001
-0.2448 0.28420001 0.88999999
-0.235 0.2836 0.88800001
-0.23379999 0.28389999 0.889
-0.2304 0.2836 0.88800001
-0.2291 0.28389999 0.889
-0.2281 0.2845 0.89099997
-0.22660001 0.2845 0.89099997
-0.22499999 0.2845 0.89099997
-0.22239999 0.2852 0.89300001
-0.2211 0.28549999 0.89399999
-0.21960001 0.28549999 0.89399999
-0.21799999 0.28549999 0.89399999
-0.21619999 0.2852 0.89300001
-0.2145 0.28490001 0.89200002
-0.2129 0.28490001 0.89200002
-0.20649999 0.2845 0.89099997
-0.2032 0.28420001 0.88999999
-0.2016 0.28420001 0.88999999
-0.1955 0.28420001 0.88999999
-0.1877 0.28639999 0.89700001
-0.18520001 0.28740001 0.89999998
-0.1838 0.2877 0.90100002
-0.18269999 0.28839999 0.903
-0.1815 0.289 0.90499997
-0.17990001 0.289 0.90499997
-0.1788 0.28960001 0.90700001
-0.1742 0.28999999 0.90799999
-0.1709 0.28960001 0.90700001
-0.1693 0.28960001 0.90700001
-0.1674 0.289 0.90499997
-0.1655 0.28839999 0.903
-0.1602 0.28740001 0.89999998
-0.1496 0.28799999 0.90200001
-0.1479 0.2877 0.90100002
-0.14650001 0.28799999 0.90200001
-0.14480001 0.2877 0.90100002
-0.1432 0.2877 0.90100002
-0.1417 0.2877 0.90100002
-0.14 0.28740001 0.89999998
-0.13680001 0.28740001 0.89999998
-0.1353 0.28740001 0.89999998
-0.1339 0.2877 0.90100002
-0.13259999 0.28839999 0.903
-0.131 0.28839999 0.903
-0.1295 0.28839999 0.903
-0.1151 0.2877 0.90100002
-0.1121 0.28799999 0.90200001
-0.1107 0.28839999 0.903
-0.1091 0.28839999 0.903
-0.1076 0.28839999 0.903
-0.1059 0.28799999 0.90200001
-0.1025 0.28740001 0.89999998
-0.1007 0.2868 0.898
-0.098999999 0.2861 0.89600003
-0.097199999 0.28549999 0.89399999
-0.0955 0.2852 0.89300001
-0.093999997 0.2852 0.89300001
-0.092500001 0.28549999 0.89399999
-0.0911 0.28580001 0.89499998
-0.086999997 0.2877 0.90100002
-0.085500002 0.2877 0.90100002
-0.084100001 0.28839999 0.903
-0.082500003 0.28839999 0.903
-0.081 0.28870001 0.90399998
-0.076300003 0.28839999 0.903
-0.074699998 0.28839999 0.903
-0.072999999 0.28799999 0.90200001
-0.069899999 0.28799999 0.90200001
-0.068400003 0.28839999 0.903
-0.0669 0.28839999 0.903
-0.065300003 0.28839999 0.903
-0.063699998 0.28799999 0.90200001
-0.061999999 0.2877 0.90100002
-0.0605 0.2877 0.90100002
-0.059 0.28839999 0.903
-0.057300001 0.2877 0.90100002
-0.055799998 0.2877 0.90100002
-0.054200001 0.2877 0.90100002
-0.052700002 0.2877 0.90100002
-0.051100001 0.2877 0.90100002
-0.049600001 0.28839999 0.903
-0.048099998 0.28839999 0.903
-0.046599999 0.28870001 0.90399998
-0.0451 0.28929999 0.90600002
-0.0436 0.28960001 0.90700001
-0.042100001 0.28999999 0.90799999
-0.0405 0.28999999 0.90799999
-0.038899999 0.29030001 0.90899998
-0.034200002 0.28999999 0.90799999
-0.032499999 0.289 0.90499997
-0.0309 0.28839999 0.903
-0.029200001 0.2877 0.90100002
-0.0277 0.28839999 0.903
-0.0262 0.28839999 0.903
-0.024599999 0.28839999 0.903
-0.023 0.28839999 0.903
-0.021500001 0.28799999 0.90200001
-0.0199 0.28839999 0.903
-0.018300001 0.28839999 0.903
-0.016799999 0.28839999 0.903
-0.0137 0.28870001 0.90399998
-0.0105 0.289 0.90499997
-0.0089999996 0.28929999 0.90600002
-0.0074 0.289 0.90499997
-0.0057999999 0.289 0.90499997
-0.0043000001 0.289 0.90499997
0.035100002 0.28999999 0.90799999
0.036699999 0.29030001 0.90899998
0.0383 0.2906 0.91000003
0.039900001 0.2906 0.91000003
0.0414 0.2906 0.91000003
0.043000001 0.2906 0.91000003
0.044599999 0.2906 0.91000003
0.046100002 0.29030001 0.90899998
0.047600001 0.28999999 0.90799999
0.049199998 0.28999999 0.90799999
0.052299999 0.28960001 0.90700001
0.0539 0.28999999 0.90799999
0.055500001 0.28999999 0.90799999
0.057100002 0.28999999 0.90799999
0.058699999 0.28999999 0.90799999
0.060199998 0.28999999 0.90799999
0.061700001 0.28960001 0.90700001
0.063299999 0.28960001 0.90700001
0.0647 0.289 0.90499997
0.066299997 0.289 0.90499997
0.067900002 0.289 0.90499997
0.069399998 0.28870001 0.90399998
0.079300001 0.2906 0.91000003
0.085299999 0.28960001 0.90700001
0.091600001 0.28960001 0.90700001
0.0933 0.28999999 0.90799999
0.094899997 0.28999999 0.90799999
0.0964 0.28999999 0.90799999
0.097999997 0.28999999 0.90799999
0.0995 0.28960001 0.90700001
0.101 0.28960001 0.90700001
0.1026 0.28960001 0.90700001
0.1042 0.28960001 0.90700001
0.1073 0.28960001 0.90700001
0.1106 0.28999999 0.90799999
0.112 0.28960001 0.90700001
0.1135 0.28929999 0.90600002
0.1149 0.289 0.90499997
0.1162 0.28839999 0.903
0.1178 0.28839999 0.903
0.1195 0.28870001 0.90399998
0.1212 0.289 0.90499997
0.1228 0.289 0.90499997
0.1245 0.28929999 0.90600002
0.12620001 0.28960001 0.90700001
0.1278 0.28960001 0.90700001
0.1311 0.28999999 0.90799999
0.13410001 0.28960001 0.90700001
0.1356 0.28960001 0.90700001
0.14049999 0.28999999 0.90799999
0.1436 0.28999999 0.90799999
0.1451 0.28960001 0.90700001
0.14659999 0.28960001 0.90700001
0.14820001 0.28960001 0.90700001
0.1499 0.28999999 0.90799999
0.1517 0.29030001 0.90899998
0.1534 0.2906 0.91000003
0.1552 0.29089999 0.91100001
0.1569 0.29120001 0.912
0.1585 0.29120001 0.912
0.16320001 0.29120001 0.912
0.1648 0.29120001 0.912
-0.40759999 0.28420001 0.88499999
-0.3838 0.287 0.89399999
-0.3671 0.2861 0.89099997
-0.36559999 0.2861 0.89099997
-0.36359999 0.28580001 0.88999999
-0.36210001 0.28580001 0.88999999
-0.3443 0.28639999 0.89200002
-0.34279999 0.28639999 0.89200002
-0.34119999 0.28639999 0.89200002
-0.3132 0.28479999 0.88700002
-0.31130001 0.2845 0.88599998
-0.30860001 0.28479999 0.88700002
-0.30700001 0.28479999 0.88700002
-0.3019 0.28580001 0.88999999
-0.30070001 0.2861 0.89099997
-0.29539999 0.2854 0.889
-0.25099999 0.28929999 0.90100002
-0.243 0.2854 0.889
-0.2353 0.2854 0.889
-0.2325 0.28580001 0.88999999
-0.2281 0.2861 0.89099997
-0.2255 0.28670001 0.89300001
-0.2227 0.287 0.89399999
-0.22139999 0.28740001 0.89499998
-0.2198 0.28740001 0.89499998
-0.21799999 0.287 0.89399999
-0.21619999 0.28670001 0.89300001
-0.2145 0.28639999 0.89200002
-0.2129 0.28639999 0.89200002
-0.207 0.28670001 0.89300001
-0.2052 0.28639999 0.89200002
-0.2034 0.2861 0.89099997
-0.20190001 0.2861 0.89099997
-0.2001 0.28580001 0.88999999
-0.1963 0.28479999 0.88700002
-0.19499999 0.28510001 0.88800001
-0.1935 0.28510001 0.88800001
-0.1868 0.28670001 0.89300001
-0.18529999 0.28670001 0.89300001
-0.18359999 0.289 0.89999998
-0.1825 0.28960001 0.90200001
-0.1811 0.2899 0.903
-0.17990001 0.2906 0.90499997
-0.1758 0.2915 0.90799999
-0.1727 0.2915 0.90799999
-0.1709 0.29120001 0.90700001
-0.1693 0.29120001 0.90700001
-0.1674 0.2906 0.90499997
-0.1656 0.29030001 0.90399998
-0.1637 0.28960001 0.90200001
-0.16 0.2886 0.89899999
-0.1552 0.28830001 0.898
-0.15099999 0.28929999 0.90100002
-0.1496 0.28960001 0.90200001
-0.1481 0.28960001 0.90200001
-0.14650001 0.28960001 0.90200001
-0.14480001 0.28929999 0.90100002
-0.1432 0.28929999 0.90100002
-0.1417 0.28929999 0.90100002
-0.1401 0.28929999 0.90100002
-0.13699999 0.28929999 0.90100002
-0.1354 0.28929999 0.90100002
-0.13420001 0.2899 0.903
-0.13259999 0.2899 0.903
-0.131 0.2899 0.903
-0.1295 0.2899 0.903
-0.12800001 0.29030001 0.90399998
-0.12630001 0.2899 0.903
-0.1138 0.2899 0.903
-0.1121 0.28960001 0.90200001
-0.1107 0.2899 0.903
-0.1091 0.2899 0.903
-0.1076 0.2899 0.903
-0.1042 0.28929999 0.90100002
-0.1007 0.28830001 0.898
-0.098800004 0.28740001 0.89499998
-0.097199999 0.287 0.89399999
-0.093999997 0.28670001 0.89300001
-0.088500001 0.289 0.89999998
-0.086999997 0.28929999 0.90100002
-0.085500002 0.28960001 0.90200001
-0.084100001 0.2899 0.903
-0.082599998 0.29030001 0.90399998
-0.081 0.29030001 0.90399998
-0.078100003 0.29089999 0.90600002
-0.076399997 0.2906 0.90499997
-0.074900001 0.2906 0.90499997
-0.073100001 0.2899 0.903
-0.069899999 0.28960001 0.90200001
-0.065200001 0.28929999 0.90100002
-0.063500002 0.289 0.89999998
-0.061999999 0.289 0.89999998
-0.0605 0.28929999 0.90100002
-0.059 0.2899 0.903
-0.057300001 0.28929999 0.90100002
-0.055799998 0.28929999 0.90100002
-0.054200001 0.28929999 0.90100002
-0.052700002 0.28929999 0.90100002
-0.0495 0.28929999 0.90100002
-0.048 0.28929999 0.90100002
-0.046500001 0.2899 0.903
-0.0451 0.2906 0.90499997
-0.0436 0.29120001 0.90700001
-0.042100001 0.2915 0.90799999
-0.0405 0.29190001 0.90899998
-0.038899999 0.29190001 0.90899998
-0.0374 0.29190001 0.90899998
-0.035799999 0.29190001 0.90899998
-0.0309 0.29030001 0.90399998
-0.029300001 0.2899 0.903
-0.0277 0.2899 0.903
-0.0262 0.2899 0.903
-0.024599999 0.28960001 0.90200001
-0.023 0.28960001 0.90200001
-0.021400001 0.28929999 0.90100002
-0.0199 0.2899 0.903
-0.018300001 0.2899 0.903
-0.016799999 0.2899 0.903
-0.0137 0.29030001 0.90399998
-0.0105 0.2906 0.90499997
-0.0089999996 0.29089999 0.90600002
-0.0074 0.29089999 0.90600002
-0.0057999999 0.2906 0.90499997
