# .PCD v0.7 - Point Cloud Data file format
VERSION 0.7
FIELDS x y z
SIZE 4 4 4
TYPE F F F
COUNT 1 1 1
WIDTH 1550
HEIGHT 1
VIEWPOINT 0 0 0 1 0 0 0
POINTS 1550
DATA ascii
0.0128 0.065499999 0.89499998
0.0145 0.065800004 0.89899999
0.016000001 0.066 0.90100002
0.0176 0.066100001 0.90200001
0.019200001 0.066200003 0.90399998
0.0208 0.066100001 0.903
0.022399999 0.066200003 0.90399998
0.024 0.066299997 0.90499997
0.025599999 0.066399999 0.90600002
0.027100001 0.066399999 0.90600002
0.0287 0.066399999 0.90700001
0.030200001 0.066299997 0.90499997
0.031800002 0.066399999 0.90600002
0.035 0.066399999 0.90700001
0.036600001 0.066500001 0.90799999
0.0383 0.066600002 0.91000003
0.039900001 0.066600002 0.91000003
0.0414 0.066600002 0.91000003
0.043000001 0.066600002 0.91000003
0.046 0.066399999 0.90700001
0.047499999 0.066299997 0.90499997
0.050299998 0.065899998 0.89999998
0.051600002 0.065499999 0.89499998
0.052900001 0.065300003 0.89099997
0.054499999 0.065300003 0.89099997
0.0561 0.065399997 0.89300001
0.071800001 0.065499999 0.89499998
0.073299997 0.065499999 0.89399999
0.074900001 0.065499999 0.89499998
0.076399997 0.065499999 0.89399999
0.077799998 0.065399997 0.89300001
0.079400003 0.065399997 0.89300001
0.082599998 0.065499999 0.89499998
0.084299996 0.0656 0.89600003
0.0858 0.0656 0.89600003
0.0876 0.065800004 0.898
0.089299999 0.065899998 0.89999998
0.090899996 0.065899998 0.89999998
0.092500001 0.065899998 0.89999998
0.093999997 0.065899998 0.89999998
0.095600002 0.065899998 0.89999998
0.097099997 0.065899998 0.89999998
0.098700002 0.065899998 0.89999998
0.1001 0.065800004 0.89899999
0.1016 0.065800004 0.898
0.1033 0.065800004 0.89899999
0.1047 0.065800004 0.898
0.1064 0.065800004 0.89899999
0.1081 0.065899998 0.89999998
0.1096 0.065899998 0.89999998
0.1112 0.065899998 0.89999998
0.1127 0.065899998 0.89999998
0.1143 0.065899998 0.89999998
0.116 0.066 0.90100002
0.1175 0.066 0.90100002
0.1192 0.066100001 0.90200001
0.1208 0.066100001 0.90200001
0.1225 0.066100001 0.903
0.1243 0.066299997 0.90499997
0.1259 0.066299997 0.90499997
0.12720001 0.066100001 0.903
0.12890001 0.066200003 0.90399998
0.1303 0.066100001 0.903
0.1319 0.066100001 0.903
0.13349999 0.066100001 0.903
0.1347 0.066 0.90100002
0.1363 0.066 0.90100002
0.13779999 0.066 0.90100002
0.13940001 0.066 0.90100002
0.141 0.066 0.90100002
0.1441 0.066 0.90100002
0.14749999 0.066100001 0.903
0.1488 0.066 0.90100002
0.15019999 0.065899998 0.89999998
0.15189999 0.066 0.90100002
0.15350001 0.066 0.90100002
0.1552 0.066100001 0.90200001
0.1568 0.066100001 0.90200001
0.15809999 0.066 0.90100002
0.1601 0.066100001 0.903
0.16150001 0.066100001 0.90200001
0.163 0.066100001 0.90200001
0.1646 0.066100001 0.90200001
0.1663 0.066100001 0.903
0.1683 0.066299997 0.90499997
0.17020001 0.066399999 0.90700001
0.17200001 0.066500001 0.90799999
0.17389999 0.066600002 0.91000003
0.17569999 0.066699997 0.91100001
0.17730001 0.066699997 0.91100001
0.1785 0.066600002 0.90899998
0.1796 0.066399999 0.90700001
0.1812 0.066399999 0.90700001
0.1824 0.066299997 0.90499997
0.1837 0.066200003 0.90399998
0.1851 0.066100001 0.903
0.1867 0.066100001 0.903
0.18870001 0.066299997 0.90499997
-0.405 0.066399999 0.88599998
-0.38240001 0.066500001 0.88700002
-0.3804 0.066399999 0.88599998
-0.34009999 0.066 0.88099998
-0.33849999 0.066 0.88099998
-0.33660001 0.066299997 0.884
-0.3312 0.066699997 0.88999999
-0.32929999 0.066600002 0.889
-0.3258 0.066600002 0.88800001
-0.32390001 0.066500001 0.88700002
-0.32049999 0.066399999 0.88599998
-0.31900001 0.066399999 0.88599998
-0.31810001 0.066600002 0.88800001
-0.31659999 0.066600002 0.88800001
-0.31510001 0.066600002 0.88800001
-0.30840001 0.066799998 0.89099997
-0.30340001 0.066699997 0.88999999
-0.3012 0.066600002 0.88800001
-0.29710001 0.066299997 0.88499999
-0.29530001 0.066299997 0.884
-0.29409999 0.066299997 0.88499999
-0.29249999 0.066299997 0.88499999
-0.29170001 0.066500001 0.88700002
-0.2904 0.066600002 0.88800001
-0.2859 0.0669 0.89300001
-0.28400001 0.0669 0.89200002
-0.28220001 0.066799998 0.89099997
-0.28060001 0.066799998 0.89099997
-0.27880001 0.066699997 0.88999999
-0.27689999 0.066600002 0.889
-0.27509999 0.066600002 0.88800001
-0.25819999 0.066200003 0.88300002
-0.257 0.066299997 0.884
-0.2554 0.066299997 0.884
-0.25420001 0.066299997 0.88499999
-0.2527 0.066299997 0.88499999
-0.2511 0.066299997 0.88499999
-0.2499 0.066399999 0.88599998
-0.24860001 0.066500001 0.88700002
-0.2474 0.066600002 0.88800001
-0.2464 0.066699997 0.88999999
-0.2446 0.066600002 0.889
-0.2427 0.066600002 0.88800001
-0.2412 0.066600002 0.88800001
-0.23989999 0.066600002 0.889
-0.2384 0.066600002 0.889
-0.2366 0.066600002 0.88800001
-0.235 0.066600002 0.88800001
-0.234 0.066699997 0.88999999
-0.2325 0.066699997 0.88999999
-0.2309 0.066699997 0.88999999
-0.22939999 0.066699997 0.88999999
-0.2281 0.066799998 0.89099997
-0.22660001 0.066799998 0.89099997
-0.22480001 0.066699997 0.88999999
-0.223 0.066600002 0.889
-0.19050001 0.062100001 0.82800001
-0.18880001 0.061999999 0.82700002
-0.1874 0.061999999 0.82700002
-0.18619999 0.062100001 0.82800001
-0.1847 0.062100001 0.82800001
-0.18350001 0.062199999 0.829
-0.1821 0.062199999 0.829
-0.18089999 0.062199999 0.82999998
-0.1796 0.0623 0.83099997
-0.17820001 0.0623 0.83099997
-0.177 0.062399998 0.83200002
-0.1753 0.0623 0.83099997
-0.1741 0.062399998 0.83200002
-0.1728 0.0625 0.833
-0.1714 0.0625 0.833
-0.17020001 0.0625 0.83399999
-0.16869999 0.0625 0.83399999
-0.1671 0.0625 0.833
-0.1654 0.062399998 0.83200002
-0.1638 0.0623 0.83099997
-0.1622 0.062199999 0.82999998
-0.16069999 0.062199999 0.82999998
-0.1591 0.062199999 0.829
-0.1576 0.062199999 0.829
-0.156 0.062100001 0.82800001
-0.15440001 0.061999999 0.82700002
-0.153 0.061999999 0.82700002
-0.1517 0.062100001 0.82800001
-0.1503 0.062100001 0.82800001
-0.1488 0.062100001 0.82800001
-0.1476 0.062199999 0.829
-0.1462 0.062199999 0.829
-0.14470001 0.062199999 0.829
-0.1435 0.062199999 0.82999998
-0.142 0.062199999 0.82999998
-0.1407 0.0623 0.83099997
-0.1393 0.0623 0.83099997
-0.13349999 0.0623 0.83099997
-0.1319 0.062199999 0.82999998
-0.1303 0.062199999 0.829
-0.12890001 0.062199999 0.829
-0.1275 0.062199999 0.829
-0.126 0.062199999 0.829
-0.1246 0.062199999 0.829
-0.1233 0.062199999 0.82999998
-0.1217 0.062199999 0.829
-0.1204 0.062199999 0.82999998
-0.119 0.062199999 0.82999998
-0.1177 0.0623 0.83099997
-0.1164 0.062399998 0.83200002
-0.1151 0.0625 0.833
-0.1137 0.0625 0.833
-0.1122 0.0625 0.833
-0.1108 0.0625 0.833
-0.1093 0.0625 0.833
-0.1077 0.062399998 0.83200002
-0.1063 0.062399998 0.83200002
-0.1049 0.062399998 0.83200002
-0.1035 0.0625 0.833
-0.1022 0.0625 0.83399999
-0.1009 0.062600002 0.83499998
-0.0995 0.062600002 0.83499998
-0.097999997 0.062600002 0.83499998
-0.096600004 0.062600002 0.83499998
-0.095100001 0.062600002 0.83499998
-0.093599997 0.0625 0.83399999
-0.092 0.0625 0.833
-0.090400003 0.062399998 0.83200002
-0.088799998 0.062199999 0.82999998
-0.087300003 0.062199999 0.82999998
-0.0858 0.062199999 0.829
-0.084399998 0.062199999 0.829
-0.082900003 0.062199999 0.829
-0.081600003 0.062199999 0.82999998
-0.076099999 0.0625 0.833
-0.074699998 0.0625 0.833
-0.073200002 0.0625 0.833
-0.071800001 0.0625 0.833
-0.070299998 0.0625 0.833
-0.068899997 0.0625 0.833
-0.067400001 0.062399998 0.83200002
-0.065899998 0.062399998 0.83200002
-0.064499997 0.062399998 0.83200002
-0.063000001 0.062399998 0.83200002
-0.0616 0.062399998 0.83200002
-0.0601 0.0623 0.83099997
-0.058699999 0.062399998 0.83200002
-0.057399999 0.0625 0.83399999
-0.056000002 0.062600002 0.83499998
-0.054699998 0.062799998 0.83700001
-0.053300001 0.062799998 0.83700001
-0.051899999 0.062799998 0.838
-0.0504 0.062799998 0.838
-0.048999999 0.062799998 0.838
-0.047600001 0.062899999 0.83899999
-0.046100002 0.062899999 0.83899999
-0.0447 0.063000001 0.83999997
-0.043299999 0.063000001 0.83999997
-0.041900001 0.063100003 0.84100002
-0.040399998 0.063100003 0.84100002
-0.038899999 0.063100003 0.84100002
-0.037599999 0.063199997 0.84299999
-0.0361 0.063199997 0.84299999
-0.034699999 0.063199997 0.84299999
-0.033199999 0.063299999 0.84399998
-0.031800002 0.063299999 0.84399998
-0.030300001 0.063299999 0.84399998
-0.028999999 0.063500002 0.847
-0.0261 0.067400001 0.89899999
-0.024599999 0.067500003 0.90100002
-0.023 0.067500003 0.90100002
-0.021400001 0.067500003 0.90100002
-0.0199 0.067599997 0.90200001
-0.018300001 0.067599997 0.90200001
-0.016799999 0.067599997 0.90200001
-0.0152 0.067500003 0.90100002
-0.0136 0.067500003 0.90100002
-0.0121 0.067500003 0.90100002
-0.0105 0.067500003 0.90100002
-0.0088999998 0.067599997 0.90200001
-0.0074 0.067699999 0.903
-0.0057999999 0.067699999 0.903
-0.0043000001 0.0678 0.90499997
-0.0027000001 0.068099998 0.90799999
-0.0011 0.068099998 0.90799999
0.0051000002 0.067699999 0.903
0.0066999998 0.067500003 0.90100002
0.0082 0.067299999 0.898
0.0097000003 0.067199998 0.89600003
0.0113 0.067199998 0.89600003
0.0129 0.067299999 0.898
0.0145 0.067500003 0.90100002
0.016100001 0.067599997 0.90200001
0.0176 0.067699999 0.903
0.019300001 0.0678 0.90499997
0.0208 0.0678 0.90399998
0.022399999 0.0678 0.90399998
0.024 0.0678 0.90499997
0.0255 0.0678 0.90499997
0.027100001 0.0678 0.90499997
0.0287 0.0678 0.90499997
0.030200001 0.0678 0.90499997
0.031800002 0.0678 0.90499997
0.033399999 0.068000004 0.90700001
0.035100002 0.068099998 0.90799999
0.036699999 0.068099998 0.90899998
0.0383 0.068300001 0.91100001
0.039999999 0.068400003 0.912
0.041499998 0.068400003 0.912
0.043000001 0.0682 0.91000003
0.044500001 0.068099998 0.90799999
0.047400001 0.0678 0.90399998
0.0502 0.067299999 0.898
0.051399998 0.0669 0.89200002
0.052900001 0.066699997 0.88999999
0.054400001 0.066699997 0.88999999
0.056000002 0.066799998 0.89099997
0.070500001 0.067400001 0.89899999
0.071900003 0.067199998 0.89700001
0.073299997 0.067100003 0.89499998
0.074900001 0.067100003 0.89499998
0.076300003 0.0669 0.89300001
0.077699997 0.0669 0.89200002
0.079300001 0.0669 0.89200002
0.080799997 0.0669 0.89200002
0.082500003 0.0669 0.89300001
0.084100001 0.067000002 0.89399999
0.085699998 0.067100003 0.89499998
0.0876 0.067299999 0.898
0.089400001 0.067500003 0.90100002
0.090999998 0.067500003 0.90100002
0.092500001 0.067500003 0.89999998
0.093999997 0.067500003 0.89999998
0.0955 0.067400001 0.89899999
0.097000003 0.067400001 0.89899999
0.0986 0.067400001 0.89899999
0.1 0.067299999 0.898
0.1016 0.067299999 0.898
0.1033 0.067400001 0.89899999
0.1049 0.067500003 0.89999998
0.1066 0.067500003 0.90100002
0.1082 0.067500003 0.90100002
0.1097 0.067500003 0.90100002
0.1113 0.067500003 0.90100002
0.1129 0.067500003 0.90100002
0.1144 0.067500003 0.90100002
0.1161 0.067599997 0.90200001
0.1177 0.067599997 0.90200001
0.1192 0.067599997 0.90200001
0.1209 0.067699999 0.903
0.1228 0.0678 0.90499997
0.1243 0.0678 0.90499997
0.1259 0.0678 0.90499997
0.1275 0.0678 0.90499997
0.12909999 0.0678 0.90499997
0.1305 0.0678 0.90399998
0.1319 0.067699999 0.903
0.13330001 0.067599997 0.90200001
0.1347 0.067500003 0.90100002
0.13779999 0.067500003 0.90100002
0.13940001 0.067500003 0.90100002
0.141 0.067500003 0.90100002
0.1425 0.067500003 0.90100002
0.14579999 0.067599997 0.90200001
0.14740001 0.067599997 0.90200001
0.1488 0.067500003 0.90100002
0.1503 0.067500003 0.90100002
0.15189999 0.067500003 0.90100002
0.15350001 0.067500003 0.90100002
0.1552 0.067599997 0.90200001
0.1569 0.067699999 0.903
0.1583 0.067599997 0.90200001
0.1601 0.067699999 0.903
0.16150001 0.067599997 0.90200001
0.16320001 0.067699999 0.903
0.1648 0.067699999 0.903
0.1665 0.0678 0.90399998
0.1684 0.067900002 0.90600002
0.17020001 0.068000004 0.90700001
0.17200001 0.068099998 0.90799999
0.1737 0.068099998 0.90899998
0.17550001 0.0682 0.91000003
0.1771 0.0682 0.91000003
0.17829999 0.068099998 0.90799999
0.1796 0.068000004 0.90700001
0.18099999 0.067900002 0.90600002
0.1824 0.0678 0.90499997
0.1837 0.0678 0.90399998
0.1851 0.067699999 0.903
0.1865 0.067599997 0.90200001
0.18870001 0.0678 0.90499997
-0.40849999 0.068000004 0.88700002
-0.39989999 0.067900002 0.88499999
-0.38240001 0.068000004 0.88700002
-0.34079999 0.067699999 0.88300002
-0.33930001 0.067699999 0.88300002
-0.3312 0.068300001 0.88999999
-0.32890001 0.068099998 0.88800001
-0.32699999 0.068000004 0.88700002
-0.322 0.068000004 0.88599998
-0.32010001 0.067900002 0.88499999
-0.3186 0.067900002 0.88499999
-0.31779999 0.068000004 0.88700002
-0.31659999 0.068099998 0.88800001
-0.31099999 0.068599999 0.89399999
-0.30340001 0.068300001 0.88999999
-0.3012 0.068099998 0.88800001
-0.29929999 0.068000004 0.88700002
-0.2956 0.067900002 0.88499999
-0.29249999 0.067900002 0.88499999
-0.2913 0.068000004 0.88599998
-0.29010001 0.068000004 0.88700002
-0.28799999 0.068300001 0.88999999
-0.2868 0.068300001 0.89099997
-0.28529999 0.068300001 0.89099997
-0.28220001 0.068300001 0.89099997
-0.28060001 0.068300001 0.89099997
-0.27720001 0.068300001 0.88999999
-0.27509999 0.068099998 0.88800001
-0.27320001 0.068000004 0.88700002
-0.25240001 0.0678 0.884
-0.2511 0.067900002 0.88499999
-0.2499 0.068000004 0.88599998
-0.2489 0.068099998 0.88800001
-0.24789999 0.068300001 0.88999999
-0.2472 0.068499997 0.89300001
-0.2454 0.068400003 0.89200002
-0.2438 0.068400003 0.89200002
-0.24259999 0.068499997 0.89300001
-0.241 0.068499997 0.89300001
-0.2392 0.068400003 0.89200002
-0.2374 0.068300001 0.89099997
-0.23559999 0.068300001 0.88999999
-0.234 0.068300001 0.88999999
-0.2325 0.068300001 0.88999999
-0.2309 0.068300001 0.88999999
-0.22939999 0.068300001 0.88999999
-0.2281 0.068300001 0.89099997
-0.22480001 0.068300001 0.88999999
-0.1981 0.064099997 0.83600003
-0.1921 0.063600004 0.829
-0.19050001 0.063500002 0.82800001
-0.18880001 0.0634 0.82700002
-0.1874 0.0634 0.82700002
-0.1859 0.0634 0.82700002
-0.1847 0.063500002 0.82800001
-0.18350001 0.063600004 0.829
-0.1823 0.063699998 0.82999998
-0.18089999 0.063699998 0.82999998
-0.1794 0.063699998 0.82999998
-0.17820001 0.063699998 0.83099997
-0.1767 0.063699998 0.83099997
-0.1753 0.063699998 0.83099997
-0.17389999 0.063699998 0.83099997
-0.1726 0.0638 0.83200002
-0.1714 0.063900001 0.833
-0.17 0.063900001 0.833
-0.16850001 0.063900001 0.833
-0.1671 0.063900001 0.833
-0.1656 0.063900001 0.833
-0.1638 0.063699998 0.83099997
-0.16230001 0.063699998 0.83099997
-0.16069999 0.063699998 0.82999998
-0.1591 0.063600004 0.829
-0.1575 0.063500002 0.82800001
-0.1558 0.0634 0.82700002
-0.15440001 0.0634 0.82700002
-0.153 0.0634 0.82700002
-0.1517 0.063500002 0.82800001
-0.1503 0.063500002 0.82800001
-0.149 0.063600004 0.829
-0.1476 0.063600004 0.829
-0.1462 0.063600004 0.829
-0.14470001 0.063600004 0.829
-0.1433 0.063600004 0.829
-0.1418 0.063600004 0.829
-0.1406 0.063699998 0.82999998
-0.1391 0.063699998 0.82999998
-0.13510001 0.0638 0.83200002
-0.13349999 0.063699998 0.83099997
-0.1319 0.063699998 0.82999998
-0.1303 0.063600004 0.829
-0.1288 0.063500002 0.82800001
-0.12729999 0.063500002 0.82800001
-0.1257 0.0634 0.82700002
-0.1246 0.063600004 0.829
-0.1232 0.063600004 0.829
-0.1217 0.063600004 0.829
-0.1204 0.063699998 0.82999998
-0.1191 0.063699998 0.83099997
-0.1176 0.063699998 0.82999998
-0.1163 0.063699998 0.83099997
-0.115 0.0638 0.83200002
-0.1138 0.064000003 0.83399999
-0.1123 0.064000003 0.83399999
-0.1108 0.063900001 0.833
-0.1093 0.063900001 0.833
-0.1079 0.063900001 0.833
-0.1064 0.063900001 0.833
-0.105 0.063900001 0.833
-0.1035 0.063900001 0.833
-0.1022 0.064000003 0.83399999
-0.1009 0.064000003 0.83499998
-0.0995 0.064000003 0.83499998
-0.097999997 0.064000003 0.83499998
-0.096699998 0.064099997 0.83600003
-0.095100001 0.064000003 0.83499998
-0.093400002 0.063900001 0.833
-0.092 0.063900001 0.833
-0.090400003 0.0638 0.83200002
-0.0889 0.063699998 0.83099997
-0.084399998 0.063600004 0.829
-0.082900003 0.063600004 0.829
-0.076099999 0.063900001 0.833
-0.074699998 0.063900001 0.833
-0.073200002 0.063900001 0.833
-0.071800001 0.063900001 0.833
-0.070299998 0.063900001 0.833
-0.068899997 0.063900001 0.833
-0.067500003 0.063900001 0.833
-0.066 0.063900001 0.833
-0.064499997 0.0638 0.83200002
-0.063000001 0.0638 0.83200002
-0.0616 0.0638 0.83200002
-0.0601 0.063699998 0.83099997
-0.058699999 0.0638 0.83200002
-0.057300001 0.063900001 0.833
-0.056000002 0.064000003 0.83399999
-0.0546 0.064000003 0.83499998
-0.053199999 0.064099997 0.83600003
-0.051800001 0.064199999 0.83700001
-0.0504 0.064199999 0.83700001
-0.048999999 0.064300001 0.838
-0.047499999 0.064300001 0.838
-0.046100002 0.064400002 0.83899999
-0.0447 0.064400002 0.83999997
-0.043299999 0.064400002 0.83999997
-0.041900001 0.064499997 0.84100002
-0.040399998 0.064499997 0.84100002
-0.038899999 0.064499997 0.84100002
-0.037500001 0.064599998 0.84200001
-0.0361 0.064599998 0.84200001
-0.034600001 0.064599998 0.84200001
-0.033199999 0.0647 0.84299999
-0.031800002 0.0647 0.84399998
-0.030300001 0.0647 0.84399998
-0.028899999 0.064900003 0.84600002
-0.026000001 0.068899997 0.898
-0.024599999 0.0691 0.90100002
-0.023 0.0691 0.90100002
-0.021400001 0.0691 0.90100002
-0.0199 0.0691 0.90100002
-0.018300001 0.0691 0.90100002
-0.0167 0.0691 0.90100002
-0.0152 0.068999998 0.89999998
-0.0136 0.068999998 0.89999998
-0.012 0.068999998 0.89999998
-0.0105 0.068999998 0.89999998
-0.0088999998 0.0691 0.90100002
-0.0074 0.069200002 0.90200001
-0.0057999999 0.069300003 0.903
-0.0043000001 0.069399998 0.90499997
-0.0027000001 0.069499999 0.90600002
-0.0011 0.069600001 0.90700001
0.00039999999 0.069499999 0.90600002
0.0020000001 0.069399998 0.90499997
0.0035999999 0.069300003 0.903
0.0051000002 0.069200002 0.90200001
0.0066999998 0.0691 0.90100002
0.0082 0.068999998 0.89999998
0.0098000001 0.068999998 0.89899999
0.0114 0.068999998 0.89999998
0.0129 0.068999998 0.89999998
0.0145 0.0691 0.90100002
0.016100001 0.069300003 0.903
0.0176 0.069300003 0.903
0.019200001 0.069300003 0.90399998
0.0208 0.069300003 0.90399998
0.022299999 0.069300003 0.903
0.024 0.069399998 0.90499997
0.0255 0.069300003 0.90399998
0.027100001 0.069300003 0.90399998
0.0286 0.069300003 0.90399998
0.030200001 0.069300003 0.90399998
0.031800002 0.069399998 0.90499997
0.033399999 0.069399998 0.90499997
0.035 0.069499999 0.90600002
0.036600001 0.069600001 0.90700001
0.038199998 0.069600001 0.90799999
0.039799999 0.069600001 0.90799999
0.0414 0.069799997 0.91000003
0.043000001 0.069700003 0.90899998
0.044500001 0.069600001 0.90799999
0.046 0.069499999 0.90600002
0.047400001 0.069300003 0.903
0.048799999 0.0691 0.90100002
0.0502 0.068899997 0.898
0.0515 0.068499997 0.89300001
0.052900001 0.068300001 0.88999999
0.054400001 0.068300001 0.88999999
0.056000002 0.068300001 0.89099997
0.0579 0.068700001 0.89600003
0.068000004 0.069499999 0.90600002
0.069399998 0.069399998 0.90499997
0.070699997 0.0691 0.90100002
0.0722 0.068999998 0.89999998
0.073700003 0.068999998 0.89899999
0.075099997 0.068899997 0.898
0.076499999 0.068700001 0.89600003
0.077799998 0.068499997 0.89300001
0.079300001 0.068400003 0.89200002
0.083800003 0.068300001 0.89099997
0.085500002 0.068400003 0.89200002
0.087300003 0.068599999 0.89499998
0.089100003 0.068899997 0.898
0.090700001 0.068899997 0.898
0.092399999 0.068999998 0.89899999
0.093800001 0.068899997 0.898
0.095200002 0.068700001 0.89600003
0.096699998 0.068700001 0.89600003
0.098399997 0.068800002 0.89700001
0.0999 0.068800002 0.89700001
0.1016 0.068899997 0.898
0.1033 0.068999998 0.89899999
0.1049 0.068999998 0.89999998
0.1066 0.0691 0.90100002
0.1083 0.069200002 0.90200001
0.1099 0.069200002 0.90200001
0.1113 0.0691 0.90100002
0.1129 0.0691 0.90100002
0.1144 0.0691 0.90100002
0.1162 0.069300003 0.903
0.1178 0.069300003 0.903
0.1194 0.069300003 0.903
0.1211 0.069300003 0.90399998
0.1228 0.069399998 0.90499997
0.1243 0.069399998 0.90499997
0.1259 0.069399998 0.90499997
0.12720001 0.069300003 0.903
0.1288 0.069300003 0.903
0.1302 0.069200002 0.90200001
0.13160001 0.0691 0.90100002
0.1332 0.0691 0.90100002
0.1346 0.068999998 0.89999998
0.1363 0.0691 0.90100002
0.13779999 0.0691 0.90100002
0.13959999 0.069200002 0.90200001
0.1411 0.069200002 0.90200001
0.1444 0.069300003 0.903
0.146 0.069300003 0.903
0.14749999 0.069300003 0.903
0.1488 0.0691 0.90100002
0.1503 0.0691 0.90100002
0.15189999 0.0691 0.90100002
0.15350001 0.0691 0.90100002
0.1552 0.069200002 0.90200001
0.1569 0.069300003 0.903
0.1585 0.069300003 0.903
0.1602 0.069300003 0.90399998
0.16159999 0.069300003 0.903
0.16320001 0.069300003 0.903
0.1648 0.069300003 0.903
0.1665 0.069300003 0.90399998
0.16859999 0.069600001 0.90700001
0.17020001 0.069600001 0.90700001
0.1718 0.069600001 0.90700001
0.1735 0.069600001 0.90799999
0.1753 0.069700003 0.90899998
0.1769 0.069700003 0.90899998
0.17829999 0.069600001 0.90799999
0.1794 0.069499999 0.90600002
0.18099999 0.069499999 0.90600002
0.1824 0.069399998 0.90499997
0.1837 0.069300003 0.90399998
0.1851 0.069300003 0.903
0.1865 0.069200002 0.90200001
0.1882 0.069300003 0.903
0.1902 0.069399998 0.90499997
-0.41429999 0.068000004 0.86699998
-0.40560001 0.069300003 0.884
-0.403 0.069399998 0.88499999
-0.40040001 0.069499999 0.88599998
-0.38350001 0.069499999 0.88599998
-0.34009999 0.069399998 0.88499999
-0.3247 0.069399998 0.88499999
-0.32319999 0.069399998 0.88499999
-0.31979999 0.069300003 0.884
-0.31819999 0.069300003 0.884
-0.31740001 0.069499999 0.88599998
-0.31389999 0.069700003 0.889
-0.3107 0.07 0.89300001
-0.30689999 0.069899999 0.89099997
-0.30309999 0.069700003 0.889
-0.29899999 0.069499999 0.88599998
-0.29710001 0.069399998 0.88499999
-0.29409999 0.069399998 0.88499999
-0.29249999 0.069399998 0.88499999
-0.28889999 0.069700003 0.88800001
-0.28799999 0.069799997 0.88999999
-0.28709999 0.07 0.89200002
-0.2843 0.07 0.89300001
-0.28279999 0.07 0.89300001
-0.2809 0.07 0.89200002
-0.27509999 0.069700003 0.88800001
-0.2714 0.069499999 0.88599998
-0.26949999 0.069399998 0.88499999
-0.26589999 0.069300003 0.88300002
-0.264 0.069200002 0.88200003
-0.2554 0.069300003 0.884
-0.25389999 0.069300003 0.884
-0.2527 0.069399998 0.88499999
-0.2511 0.069399998 0.88499999
-0.2502 0.069600001 0.88700002
-0.24950001 0.069799997 0.88999999
-0.2485 0.07 0.89200002
-0.2475 0.070100002 0.89399999
-0.2462 0.070200004 0.89499998
-0.2449 0.070299998 0.89600003
-0.2436 0.0704 0.89700001
-0.2418 0.070299998 0.89600003
-0.23999999 0.070200004 0.89499998
-0.2379 0.07 0.89300001
-0.2358 0.069899999 0.89099997
-0.2343 0.069899999 0.89099997
-0.2325 0.069799997 0.88999999
-0.2309 0.069799997 0.88999999
-0.22939999 0.069799997 0.88999999
-0.2279 0.069799997 0.88999999
-0.22480001 0.069799997 0.88999999
-0.1983 0.065700002 0.83700001
-0.1957 0.065300003 0.83200002
-0.1938 0.065099999 0.82999998
-0.1921 0.064999998 0.829
-0.19050001 0.064900003 0.82800001
-0.18880001 0.064900003 0.82700002
-0.1876 0.064900003 0.82800001
-0.1864 0.064999998 0.829
-0.1849 0.064999998 0.829
-0.1837 0.065099999 0.82999998
-0.1825 0.065200001 0.83099997
-0.1811 0.065200001 0.83099997
-0.17820001 0.065200001 0.83099997
-0.1767 0.065200001 0.83099997
-0.1753 0.065200001 0.83099997
-0.17389999 0.065200001 0.83099997
-0.1724 0.065200001 0.83099997
-0.17120001 0.065300003 0.83200002
-0.17 0.065300003 0.833
-0.16850001 0.065300003 0.833
-0.1671 0.065300003 0.833
-0.1654 0.065300003 0.83200002
-0.1638 0.065200001 0.83099997
-0.1622 0.065099999 0.82999998
-0.16069999 0.065099999 0.82999998
-0.1591 0.064999998 0.829
-0.1575 0.064900003 0.82800001
-0.1558 0.064900003 0.82700002
-0.15440001 0.064900003 0.82700002
-0.153 0.064900003 0.82700002
-0.15189999 0.064999998 0.829
-0.1505 0.064999998 0.829
-0.149 0.064999998 0.829
-0.1476 0.064999998 0.829
-0.1462 0.064999998 0.829
-0.14470001 0.064999998 0.829
-0.142 0.065099999 0.82999998
-0.1393 0.065200001 0.83099997
-0.1366 0.065300003 0.83200002
-0.13349999 0.065200001 0.83099997
-0.1318 0.064999998 0.829
-0.13 0.064900003 0.82700002
-0.1284 0.064800002 0.82599998
-0.12720001 0.064900003 0.82700002
-0.1257 0.064900003 0.82700002
-0.1243 0.064900003 0.82700002
-0.1229 0.064900003 0.82700002
-0.1216 0.064900003 0.82800001
-0.1203 0.064999998 0.829
-0.119 0.065099999 0.82999998
-0.1176 0.065099999 0.82999998
-0.1163 0.065200001 0.83099997
-0.115 0.065300003 0.83200002
-0.1138 0.065399997 0.83399999
-0.1125 0.065499999 0.83499998
-0.1109 0.065399997 0.83399999
-0.1095 0.065399997 0.83399999
-0.108 0.065399997 0.83399999
-0.1066 0.065399997 0.83399999
-0.1051 0.065399997 0.83399999
-0.1035 0.065300003 0.833
-0.1021 0.065300003 0.833
-0.1008 0.065399997 0.83399999
-0.099299997 0.065399997 0.83399999
-0.097999997 0.065499999 0.83499998
-0.096600004 0.065499999 0.83499998
-0.094999999 0.065399997 0.83399999
-0.093400002 0.065300003 0.833
-0.092 0.065300003 0.833
-0.0889 0.065200001 0.83099997
-0.0858 0.064999998 0.829
-0.084399998 0.064999998 0.829
-0.082900003 0.064999998 0.829
-0.081600003 0.065099999 0.82999998
-0.080300003 0.065200001 0.83099997
-0.078900002 0.065300003 0.83200002
-0.077600002 0.065300003 0.833
-0.076099999 0.065300003 0.833
-0.074699998 0.065300003 0.833
-0.073200002 0.065300003 0.833
-0.071800001 0.065300003 0.833
-0.070299998 0.065300003 0.833
-0.068899997 0.065300003 0.833
-0.067500003 0.065300003 0.833
-0.065899998 0.065300003 0.83200002
-0.064499997 0.065300003 0.83200002
-0.063000001 0.065300003 0.83200002
-0.0616 0.065300003 0.83200002
-0.0601 0.065200001 0.83099997
-0.058600001 0.065200001 0.83099997
-0.057300001 0.065300003 0.833
-0.056000002 0.065399997 0.83399999
-0.054699998 0.0656 0.83600003
-0.053199999 0.0656 0.83600003
-0.051800001 0.0656 0.83600003
-0.0504 0.065700002 0.83700001
-0.048999999 0.065700002 0.838
-0.047499999 0.065700002 0.838
-0.046100002 0.065800004 0.83899999
-0.0447 0.065800004 0.83899999
-0.043299999 0.065899998 0.83999997
-0.041900001 0.066 0.84100002
-0.0405 0.066 0.84200001
-0.038899999 0.066 0.84100002
-0.037500001 0.066 0.84200001
-0.0361 0.066100001 0.84299999
-0.034699999 0.066100001 0.84299999
-0.033199999 0.066200003 0.84399998
-0.0319 0.066399999 0.84600002
-0.030400001 0.066399999 0.84600002
-0.028999999 0.066600002 0.84899998
-0.0261 0.070500001 0.89899999
-0.024599999 0.070699997 0.90100002
-0.023 0.070699997 0.90100002
-0.021400001 0.070699997 0.90100002
-0.0199 0.070699997 0.90100002
-0.018300001 0.070600003 0.89999998
-0.0167 0.070600003 0.89999998
-0.0152 0.070600003 0.89999998
-0.0136 0.070600003 0.89999998
-0.012 0.070600003 0.89999998
-0.0105 0.070699997 0.90100002
-0.0088999998 0.070699997 0.90100002
-0.0074 0.070799999 0.90200001
-0.0057999999 0.070799999 0.90200001
-0.0043000001 0.070799999 0.903
-0.0027000001 0.071000002 0.90499997
-0.0011 0.071000002 0.90499997
0.00039999999 0.070900001 0.90399998
0.0020000001 0.070799999 0.903
0.0035999999 0.070799999 0.903
0.0051000002 0.070799999 0.903
0.0066999998 0.070699997 0.90100002
0.0082 0.070600003 0.89999998
0.0098000001 0.070600003 0.89999998
0.0114 0.070699997 0.90100002
0.0129 0.070699997 0.90100002
0.0145 0.070799999 0.90200001
0.016100001 0.070799999 0.903
0.0177 0.070900001 0.90399998
0.019200001 0.070900001 0.90399998
0.0208 0.070799999 0.903
0.022299999 0.070799999 0.903
0.0239 0.070799999 0.903
0.0254 0.070799999 0.90200001
0.027000001 0.070699997 0.90100002
0.0286 0.070799999 0.90200001
0.030099999 0.070799999 0.90200001
0.0317 0.070799999 0.903
0.033399999 0.071000002 0.90499997
0.034899998 0.071000002 0.90499997
0.036600001 0.071099997 0.90600002
0.038199998 0.071099997 0.90700001
0.039700001 0.071099997 0.90700001
0.0414 0.071199998 0.90799999
0.0429 0.071099997 0.90700001
0.044399999 0.071099997 0.90600002
0.045899998 0.071000002 0.90499997
0.047400001 0.070799999 0.903
0.048799999 0.070600003 0.89999998
0.0502 0.0704 0.898
0.051600002 0.070200004 0.89499998
0.052900001 0.069899999 0.89099997
0.054400001 0.069799997 0.88999999
0.056000002 0.069899999 0.89099997
0.057999998 0.0704 0.898
0.059799999 0.070799999 0.90200001
0.0614 0.070799999 0.90200001
0.063000001 0.070799999 0.903
0.064599998 0.070799999 0.903
0.066200003 0.070799999 0.903
0.0678 0.070900001 0.90399998
0.069300003 0.070799999 0.903
0.070699997 0.070699997 0.90100002
0.0722 0.070600003 0.89999998
0.073700003 0.070600003 0.89999998
0.075099997 0.0704 0.898
0.0766 0.0704 0.89700001
0.079400003 0.07 0.89300001
0.080700003 0.069899999 0.89099997
0.082199998 0.069799997 0.88999999
0.083800003 0.069899999 0.89099997
0.085500002 0.07 0.89200002
0.087099999 0.07 0.89300001
0.0889 0.070299998 0.89600003
0.090599999 0.0704 0.89700001
0.092299998 0.0704 0.898
0.093599997 0.070299998 0.89600003
0.095100001 0.070200004 0.89499998
0.096600004 0.070200004 0.89499998
0.098300003 0.070299998 0.89600003
0.099799998 0.070299998 0.89600003
0.1015 0.0704 0.89700001
0.1033 0.070500001 0.89899999
0.1049 0.070600003 0.89999998
0.1082 0.070699997 0.90100002
0.1097 0.070699997 0.90100002
0.1113 0.070699997 0.90100002
0.1129 0.070699997 0.90100002
0.1144 0.070699997 0.90100002
0.1162 0.070799999 0.903
0.1178 0.070799999 0.903
0.1194 0.070799999 0.903
0.1211 0.070900001 0.90399998
0.1228 0.071000002 0.90499997
0.1243 0.071000002 0.90499997
0.1259 0.071000002 0.90499997
0.12720001 0.070799999 0.903
0.1288 0.070799999 0.903
0.13 0.070699997 0.90100002
0.13150001 0.070600003 0.89999998
0.133 0.070600003 0.89999998
0.1346 0.070600003 0.89999998
0.1363 0.070699997 0.90100002
0.1382 0.070799999 0.903
0.1397 0.070799999 0.903
0.14129999 0.070799999 0.903
0.14300001 0.070900001 0.90399998
0.1446 0.070900001 0.90399998
0.1461 0.070900001 0.90399998
0.1486 0.070600003 0.89999998
0.15019999 0.070600003 0.89999998
0.1517 0.070600003 0.89999998
0.15350001 0.070699997 0.90100002
0.1552 0.070799999 0.90200001
0.1568 0.070799999 0.90200001
0.1585 0.070799999 0.903
0.1601 0.070799999 0.903
0.16159999 0.070799999 0.903
0.16339999 0.070900001 0.90399998
0.1648 0.070799999 0.903
0.1665 0.070900001 0.90399998
0.16859999 0.071099997 0.90700001
0.17020001 0.071099997 0.90700001
0.17200001 0.071199998 0.90799999
0.1735 0.071199998 0.90799999
0.1753 0.0713 0.90899998
0.1769 0.0713 0.90899998
0.17829999 0.071199998 0.90799999
0.1794 0.071099997 0.90600002
0.18080001 0.071000002 0.90499997
0.1822 0.070900001 0.90399998
0.18350001 0.070799999 0.903
0.1851 0.070799999 0.903
0.18629999 0.070699997 0.90100002
0.1882 0.070799999 0.903
-0.40470001 0.070699997 0.88200003
-0.40400001 0.070900001 0.884
-0.4025 0.070900001 0.884
-0.4014 0.071000002 0.88499999
-0.34580001 0.070900001 0.884
-0.34470001 0.071000002 0.88499999
-0.34310001 0.071000002 0.88499999
-0.3251 0.071000002 0.88599998
-0.32319999 0.071000002 0.88499999
-0.31819999 0.070900001 0.884
-0.31740001 0.071000002 0.88599998
-0.31389999 0.0713 0.889
-0.31150001 0.071400002 0.89099997
-0.30689999 0.071400002 0.89099997
-0.30500001 0.071400002 0.88999999
-0.3028 0.071199998 0.88800001
-0.30090001 0.071099997 0.88700002
-0.29899999 0.071000002 0.88599998
-0.29710001 0.071000002 0.88499999
-0.29370001 0.070900001 0.884
-0.2922 0.070900001 0.884
-0.29100001 0.071000002 0.88499999
-0.29010001 0.071099997 0.88700002
-0.28889999 0.071199998 0.88800001
-0.28799999 0.071400002 0.88999999
-0.28709999 0.071500003 0.89200002
-0.27320001 0.071099997 0.88700002
-0.2714 0.071000002 0.88599998
-0.26949999 0.071000002 0.88499999
-0.2665 0.071000002 0.88499999
-0.26460001 0.070900001 0.884
-0.24869999 0.071599998 0.89300001
-0.2462 0.071800001 0.89499998
-0.2447 0.071800001 0.89499998
-0.24339999 0.071800001 0.89600003
-0.24150001 0.071800001 0.89499998
-0.2395 0.071599998 0.89300001
-0.2374 0.071400002 0.89099997
-0.2358 0.071400002 0.89099997
-0.234 0.071400002 0.88999999
-0.2325 0.071400002 0.88999999
-0.2307 0.0713 0.889
-0.2291 0.0713 0.889
-0.2227 0.071199998 0.88800001
-0.1981 0.067000002 0.83600003
-0.1957 0.066699997 0.83200002
-0.1938 0.066500001 0.82999998
-0.1919 0.066399999 0.82800001
-0.19069999 0.066500001 0.829
-0.1893 0.066500001 0.829
-0.18799999 0.066500001 0.82999998
-0.1866 0.066500001 0.82999998
-0.18520001 0.066500001 0.82999998
-0.1837 0.066500001 0.82999998
-0.1825 0.066600002 0.83099997
-0.1796 0.066600002 0.83099997
-0.17649999 0.066500001 0.82999998
-0.1751 0.066500001 0.82999998
-0.1737 0.066500001 0.82999998
-0.17219999 0.066500001 0.82999998
-0.171 0.066600002 0.83099997
-0.1698 0.066699997 0.83200002
-0.16850001 0.066799998 0.833
-0.1671 0.066799998 0.833
-0.1654 0.066699997 0.83200002
-0.1638 0.066600002 0.83099997
-0.1622 0.066500001 0.82999998
-0.16069999 0.066500001 0.82999998
-0.1591 0.066500001 0.829
-0.1573 0.066299997 0.82700002
-0.1558 0.066299997 0.82700002
-0.15440001 0.066299997 0.82700002
-0.1533 0.066500001 0.829
-0.15189999 0.066500001 0.829
-0.1505 0.066500001 0.829
-0.149 0.066500001 0.829
-0.1476 0.066500001 0.829
-0.1462 0.066500001 0.829
-0.1433 0.066500001 0.829
-0.142 0.066500001 0.82999998
-0.138 0.066699997 0.83200002
-0.1366 0.066699997 0.83200002
-0.13349999 0.066600002 0.83099997
-0.1318 0.066500001 0.829
-0.12989999 0.066200003 0.82599998
-0.1283 0.066100001 0.82499999
-0.12720001 0.066299997 0.82700002
-0.1257 0.066299997 0.82700002
-0.1243 0.066299997 0.82700002
-0.1229 0.066299997 0.82700002
-0.1216 0.066399999 0.82800001
-0.1203 0.066500001 0.829
-0.119 0.066500001 0.82999998
-0.1176 0.066500001 0.82999998
-0.1163 0.066600002 0.83099997
-0.115 0.066699997 0.83200002
-0.1138 0.0669 0.83399999
-0.1125 0.0669 0.83499998
-0.111 0.0669 0.83499998
-0.1096 0.0669 0.83499998
-0.108 0.0669 0.83399999
-0.1066 0.0669 0.83399999
-0.1051 0.0669 0.83399999
-0.1035 0.066799998 0.833
-0.1021 0.066799998 0.833
-0.1007 0.066799998 0.833
-0.099200003 0.066799998 0.833
-0.097900003 0.0669 0.83399999
-0.0964 0.0669 0.83399999
-0.094999999 0.0669 0.83399999
-0.093400002 0.066799998 0.833
-0.085900001 0.066500001 0.82999998
-0.0845 0.066500001 0.82999998
-0.082999997 0.066500001 0.82999998
-0.081600003 0.066500001 0.82999998
-0.080300003 0.066600002 0.83099997
-0.078900002 0.066699997 0.83200002
-0.077500001 0.066699997 0.83200002
-0.076099999 0.066799998 0.833
-0.074699998 0.066799998 0.833
-0.073200002 0.066799998 0.833
-0.071800001 0.066799998 0.833
-0.070299998 0.066799998 0.833
-0.068899997 0.066799998 0.833
-0.067500003 0.066799998 0.833
-0.065899998 0.066699997 0.83200002
-0.064499997 0.066699997 0.83200002
-0.063000001 0.066699997 0.83200002
-0.0616 0.066699997 0.83200002
-0.060199998 0.066699997 0.83200002
-0.058699999 0.066699997 0.83200002
-0.057399999 0.0669 0.83399999
-0.056000002 0.0669 0.83499998
-0.054699998 0.067000002 0.83600003
-0.053300001 0.067100003 0.83700001
-0.051800001 0.067100003 0.83700001
-0.0504 0.067199998 0.838
-0.048999999 0.067199998 0.838
-0.047600001 0.067299999 0.83899999
-0.046100002 0.067299999 0.83899999
-0.0447 0.067299999 0.83999997
-0.043299999 0.067400001 0.84100002
-0.041900001 0.067500003 0.84200001
-0.0405 0.067500003 0.84200001
-0.039000001 0.067500003 0.84200001
-0.037599999 0.067599997 0.84299999
-0.0361 0.067599997 0.84299999
-0.034699999 0.067699999 0.84399998
-0.033300001 0.067699999 0.84500003
-0.0319 0.0678 0.84600002
-0.030400001 0.067900002 0.847
-0.0261 0.0722 0.89999998
-0.024599999 0.0722 0.90100002
-0.023 0.0722 0.90100002
-0.021400001 0.0722 0.90100002
-0.0199 0.0722 0.90100002
-0.018300001 0.0722 0.89999998
-0.0167 0.0722 0.89999998
-0.0152 0.0722 0.89999998
-0.0136 0.0722 0.89999998
-0.012 0.0722 0.89999998
-0.0105 0.0722 0.89999998
-0.0088999998 0.0722 0.90100002
-0.0074 0.0722 0.90100002
-0.0057999999 0.0722 0.90100002
-0.0043000001 0.072400004 0.903
-0.0027000001 0.072400004 0.903
-0.0011 0.072499998 0.90399998
0.00039999999 0.072400004 0.903
0.0020000001 0.072400004 0.903
0.0035999999 0.072300002 0.90200001
0.0051000002 0.072300002 0.90200001
0.0066999998 0.0722 0.90100002
0.0082 0.0722 0.89999998
0.0098000001 0.0722 0.89999998
0.0114 0.0722 0.90100002
0.0129 0.0722 0.90100002
0.0145 0.072400004 0.903
0.016100001 0.072400004 0.903
0.0176 0.072400004 0.903
0.019200001 0.072400004 0.903
0.0208 0.072400004 0.903
0.022299999 0.072300002 0.90200001
0.0239 0.0722 0.90100002
0.0254 0.0722 0.89999998
0.026900001 0.0722 0.89999998
0.0285 0.0722 0.89999998
0.030099999 0.0722 0.90100002
0.0317 0.072300002 0.90200001
0.033300001 0.072400004 0.903
0.034899998 0.0726 0.90499997
0.036499999 0.0726 0.90499997
0.038199998 0.072700001 0.90700001
0.039700001 0.072700001 0.90700001
0.041299999 0.072700001 0.90700001
0.0429 0.072700001 0.90700001
0.044399999 0.0726 0.90499997
0.045899998 0.072499998 0.90399998
0.0473 0.0722 0.90100002
0.048700001 0.072099999 0.89899999
0.050099999 0.071800001 0.89499998
0.051399998 0.071500003 0.89200002
0.056000002 0.071400002 0.89099997
0.0581 0.0722 0.89999998
0.059900001 0.072400004 0.903
0.061500002 0.072400004 0.903
0.063000001 0.072400004 0.903
0.064599998 0.072400004 0.903
0.066200003 0.072400004 0.903
0.067699999 0.072400004 0.903
0.069200002 0.072300002 0.90200001
0.070600003 0.0722 0.89999998
0.0722 0.0722 0.89999998
0.073799998 0.0722 0.90100002
0.075300001 0.0722 0.89999998
0.076800004 0.072099999 0.89899999
0.078199998 0.071900003 0.89700001
0.079499997 0.071800001 0.89499998
0.080799997 0.071500003 0.89200002
0.0823 0.071400002 0.89099997
0.083800003 0.071400002 0.89099997
0.085500002 0.071500003 0.89200002
0.086999997 0.071500003 0.89200002
0.088699996 0.071699999 0.89399999
0.090400003 0.071800001 0.89499998
0.092100002 0.071800001 0.89600003
0.093500003 0.071800001 0.89499998
0.095100001 0.071800001 0.89499998
0.096500002 0.071699999 0.89399999
0.098200001 0.071800001 0.89499998
0.099699996 0.071800001 0.89499998
0.1014 0.071800001 0.89600003
0.1032 0.071999997 0.898
0.1049 0.0722 0.89999998
0.1065 0.0722 0.89999998
0.1082 0.0722 0.90100002
0.1097 0.0722 0.90100002
0.1113 0.0722 0.90100002
0.1129 0.0722 0.90100002
0.1144 0.0722 0.90100002
0.1162 0.072400004 0.903
0.1178 0.072400004 0.903
0.1195 0.072499998 0.90399998
0.1212 0.0726 0.90499997
0.1228 0.0726 0.90499997
0.1245 0.0726 0.90600002
0.1259 0.0726 0.90499997
0.12720001 0.072400004 0.903
0.1288 0.072400004 0.903
0.13 0.0722 0.90100002
0.13160001 0.0722 0.90100002
0.1332 0.0722 0.90100002
0.1347 0.0722 0.90100002
0.1364 0.072300002 0.90200001
0.1382 0.072400004 0.903
0.1399 0.072499998 0.90399998
0.1416 0.0726 0.90499997
0.1432 0.0726 0.90499997
0.15019999 0.0722 0.89999998
0.1517 0.0722 0.89999998
0.15350001 0.0722 0.90100002
0.1552 0.072300002 0.90200001
0.1568 0.072300002 0.90200001
0.1585 0.072400004 0.903
0.1601 0.072400004 0.903
0.16159999 0.072400004 0.903
0.16339999 0.072499998 0.90399998
0.1648 0.072400004 0.903
0.1663 0.072400004 0.903
0.1683 0.0726 0.90499997
0.1698 0.0726 0.90499997
0.1718 0.072700001 0.90700001
0.1733 0.072700001 0.90700001
0.1751 0.072800003 0.90799999
0.1767 0.072800003 0.90799999
0.1781 0.072700001 0.90700001
0.17919999 0.0726 0.90499997
0.1806 0.072499998 0.90399998
0.182 0.072400004 0.903
0.1833 0.072300002 0.90200001
0.1849 0.072300002 0.90200001
0.18629999 0.0722 0.90100002
0.1884 0.072499998 0.90399998
-0.40419999 0.0722 0.88099998
-0.40310001 0.0722 0.88200003
-0.4016 0.0722 0.88200003
-0.40099999 0.072400004 0.884
-0.39930001 0.0726 0.88700002
-0.3493 0.072499998 0.88499999
-0.34619999 0.072499998 0.88499999
-0.34549999 0.0726 0.88700002
-0.3439 0.0726 0.88700002
-0.34240001 0.0726 0.88700002
-0.34119999 0.072700001 0.88800001
-0.34040001 0.0735 0.898
-0.32890001 0.072700001 0.88800001
-0.32699999 0.0726 0.88700002
-0.3247 0.072499998 0.88499999
-0.32319999 0.072499998 0.88499999
-0.3213 0.072400004 0.884
-0.31979999 0.072400004 0.884
-0.31119999 0.072899997 0.88999999
-0.3096 0.072899997 0.88999999
-0.30649999 0.072899997 0.88999999
-0.30430001 0.072700001 0.88800001
-0.3028 0.072700001 0.88800001
-0.30090001 0.0726 0.88700002
-0.2987 0.072499998 0.88499999
-0.29679999 0.072400004 0.884
-0.2895 0.072499998 0.88499999
-0.2886 0.0726 0.88700002
-0.28740001 0.072700001 0.88800001
-0.2868 0.072999999 0.89099997
-0.27289999 0.0726 0.88599998
-0.27110001 0.072499998 0.88499999
-0.26800001 0.072499998 0.88499999
-0.2665 0.072499998 0.88499999
-0.252 0.072700001 0.88800001
-0.2431 0.073299997 0.89499998
-0.2413 0.073200002 0.89399999
-0.2395 0.073100001 0.89300001
-0.2374 0.072999999 0.89099997
-0.23559999 0.072899997 0.88999999
-0.234 0.072899997 0.88999999
-0.2325 0.072899997 0.88999999
-0.2307 0.072800003 0.889
-0.2289 0.072700001 0.88800001
-0.1981 0.068499997 0.83600003
-0.1957 0.068099998 0.83200002
-0.19239999 0.068000004 0.82999998
-0.1909 0.068000004 0.82999998
-0.1895 0.068000004 0.82999998
-0.1866 0.068000004 0.82999998
-0.18520001 0.068000004 0.82999998
-0.1839 0.068099998 0.83099997
-0.18089999 0.068000004 0.82999998
-0.1794 0.068000004 0.82999998
-0.178 0.068000004 0.82999998
-0.1749 0.067900002 0.829
-0.1734 0.067900002 0.829
-0.17200001 0.067900002 0.829
-0.1708 0.068000004 0.82999998
-0.16949999 0.068099998 0.83099997
-0.1683 0.068099998 0.83200002
-0.16689999 0.068099998 0.83200002
-0.1654 0.068099998 0.83200002
-0.1638 0.068099998 0.83099997
-0.1622 0.068000004 0.82999998
-0.16069999 0.068000004 0.82999998
-0.1591 0.067900002 0.829
-0.1573 0.067699999 0.82700002
-0.1558 0.067699999 0.82700002
-0.15440001 0.067699999 0.82700002
-0.1533 0.067900002 0.829
-0.15189999 0.067900002 0.829
-0.1505 0.067900002 0.829
-0.149 0.067900002 0.829
-0.1476 0.067900002 0.829
-0.14470001 0.067900002 0.829
-0.1409 0.068099998 0.83200002
-0.13950001 0.068099998 0.83200002
-0.138 0.068099998 0.83200002
-0.13510001 0.068099998 0.83200002
-0.13349999 0.068099998 0.83099997
-0.13160001 0.0678 0.82800001
-0.12809999 0.067500003 0.824
-0.1256 0.067699999 0.82599998
-0.1243 0.067699999 0.82700002
-0.1229 0.067699999 0.82700002
-0.1217 0.067900002 0.829
-0.119 0.068000004 0.82999998
-0.1176 0.068000004 0.82999998
-0.1163 0.068099998 0.83099997
-0.1138 0.068300001 0.83399999
-0.1125 0.068400003 0.83499998
-0.111 0.068400003 0.83499998
-0.1097 0.068499997 0.83600003
-0.1081 0.068400003 0.83499998
-0.1067 0.068400003 0.83499998
-0.1052 0.068400003 0.83499998
-0.1035 0.0682 0.833
-0.1021 0.0682 0.833
-0.1007 0.0682 0.833
-0.099100001 0.068099998 0.83200002
-0.097800002 0.0682 0.833
-0.096299998 0.0682 0.833
-0.094800003 0.068099998 0.83200002
-0.085900001 0.068000004 0.82999998
-0.0845 0.068000004 0.82999998
-0.082999997 0.068000004 0.82999998
-0.081600003 0.068000004 0.82999998
-0.080300003 0.068099998 0.83099997
-0.0788 0.068099998 0.83099997
-0.077399999 0.068099998 0.83099997
-0.075999998 0.068099998 0.83200002
-0.074699998 0.0682 0.833
-0.073200002 0.0682 0.833
-0.071800001 0.0682 0.833
-0.070299998 0.0682 0.833
-0.068899997 0.0682 0.833
-0.067500003 0.0682 0.833
-0.066 0.0682 0.833
-0.064599998 0.0682 0.833
-0.063000001 0.068099998 0.83200002
-0.0616 0.068099998 0.83200002
-0.060199998 0.0682 0.833
-0.058800001 0.0682 0.833
-0.057399999 0.068300001 0.83399999
-0.056000002 0.068400003 0.83499998
-0.054699998 0.068499997 0.83600003
-0.053199999 0.068499997 0.83600003
-0.051800001 0.068599999 0.83700001
-0.0504 0.068599999 0.83700001
-0.048999999 0.068599999 0.838
-0.047499999 0.068599999 0.838
-0.046100002 0.068700001 0.83899999
-0.044799998 0.068899997 0.84100002
-0.043299999 0.068899997 0.84100002
-0.041900001 0.068999998 0.84200001
-0.0405 0.068999998 0.84299999
-0.039000001 0.068999998 0.84299999
-0.037599999 0.068999998 0.84299999
-0.0361 0.068999998 0.84299999
-0.034699999 0.0691 0.84399998
-0.033300001 0.069300003 0.84600002
-0.0319 0.069499999 0.84799999
-0.0305 0.069499999 0.84799999
-0.0261 0.073799998 0.90100002
-0.024599999 0.073899999 0.90200001
-0.023 0.073799998 0.90100002
-0.021400001 0.073799998 0.90100002
-0.0199 0.073799998 0.90100002
-0.018300001 0.073799998 0.90100002
-0.0167 0.073700003 0.89999998
-0.0152 0.073700003 0.89999998
-0.0136 0.073700003 0.89999998
-0.012 0.073700003 0.89999998
-0.0105 0.073700003 0.89999998
-0.0088999998 0.073700003 0.89999998
-0.0074 0.073700003 0.89999998
-0.0057999999 0.073799998 0.90100002
-0.0043000001 0.073899999 0.90200001
-0.0027000001 0.073899999 0.90200001
-0.0011 0.074000001 0.903
0.00039999999 0.073799998 0.90100002
0.0020000001 0.073799998 0.90100002
0.0035999999 0.073799998 0.90100002
0.0051000002 0.073799998 0.90100002
0.0066999998 0.073700003 0.89999998
0.0082 0.073700003 0.89999998
0.0098000001 0.073700003 0.89999998
0.0114 0.073799998 0.90100002
0.0129 0.073799998 0.90100002
0.0145 0.074000001 0.903
0.016100001 0.074000001 0.903
0.0176 0.074000001 0.903
0.019200001 0.074000001 0.903
0.0208 0.074000001 0.903
0.022299999 0.073899999 0.90200001
0.0239 0.073799998 0.90100002
0.0254 0.073600002 0.89899999
0.026900001 0.0735 0.898
0.0284 0.0735 0.898
0.029999999 0.073600002 0.89899999
0.031599998 0.073700003 0.89999998
0.033199999 0.073799998 0.90100002
0.034899998 0.074000001 0.903
0.036499999 0.074000001 0.90399998
0.0381 0.074100003 0.90499997
0.0396 0.074100003 0.90499997
0.041200001 0.074100003 0.90499997
0.042800002 0.074100003 0.90499997
0.044300001 0.074000001 0.903
0.045699999 0.073799998 0.90100002
0.047200002 0.073700003 0.89999998
0.048599999 0.073399998 0.89600003
0.049899999 0.073100001 0.89200002
0.051399998 0.072999999 0.89099997
0.0561 0.073100001 0.89300001
0.0581 0.073600002 0.89899999
0.059799999 0.073799998 0.90100002
0.061299998 0.073799998 0.90100002
0.062899999 0.073799998 0.90100002
0.064499997 0.073799998 0.90100002
0.066200003 0.074000001 0.903
0.067699999 0.074000001 0.903
0.069300003 0.074000001 0.903
0.070900001 0.074000001 0.903
0.072400004 0.074000001 0.903
0.074000001 0.074000001 0.903
0.075499997 0.073899999 0.90200001
0.076899998 0.073799998 0.90100002
0.078400001 0.073700003 0.89999998
0.079700001 0.0735 0.89700001
0.080899999 0.073100001 0.89300001
0.0823 0.072999999 0.89099997
0.083800003 0.072999999 0.89099997
0.085500002 0.073100001 0.89200002
0.086999997 0.073100001 0.89200002
0.088600002 0.073100001 0.89300001
0.090300001 0.073200002 0.89399999
0.091899998 0.073299997 0.89499998
0.093400002 0.073200002 0.89399999
0.094899997 0.073200002 0.89399999
0.0964 0.073100001 0.89300001
0.098200001 0.073299997 0.89499998
0.099799998 0.073399998 0.89600003
0.1015 0.0735 0.89700001
0.1033 0.073600002 0.89899999
0.1049 0.073700003 0.89999998
0.1066 0.073799998 0.90100002
0.1082 0.073799998 0.90100002
0.1097 0.073799998 0.90100002
0.1112 0.073700003 0.89999998
0.1127 0.073700003 0.89999998
0.1144 0.073799998 0.90100002
0.1162 0.074000001 0.903
0.1178 0.074000001 0.903
0.1195 0.074000001 0.90399998
0.1212 0.074100003 0.90499997
0.1229 0.074199997 0.90600002
0.1245 0.074199997 0.90600002
0.1259 0.074100003 0.90499997
0.12720001 0.074000001 0.903
0.1286 0.073899999 0.90200001
0.13 0.073799998 0.90100002
0.13150001 0.073700003 0.89999998
0.133 0.073700003 0.89999998
0.1346 0.073700003 0.89999998
0.1363 0.073799998 0.90100002
0.1382 0.074000001 0.903
0.1397 0.074000001 0.903
0.14139999 0.074000001 0.90399998
0.1432 0.074100003 0.90499997
0.1444 0.074000001 0.903
0.1486 0.073700003 0.89999998
0.15000001 0.073600002 0.89899999
0.1517 0.073700003 0.89999998
0.15350001 0.073799998 0.90100002
0.1552 0.073899999 0.90200001
0.1568 0.073899999 0.90200001
0.1585 0.074000001 0.903
0.1601 0.074000001 0.903
0.1618 0.074000001 0.90399998
0.16339999 0.074000001 0.90399998
0.1648 0.074000001 0.903
0.1663 0.074000001 0.903
0.1683 0.074100003 0.90499997
0.1698 0.074100003 0.90499997
0.1716 0.074199997 0.90600002
0.1733 0.074299999 0.90700001
0.1749 0.074299999 0.90700001
0.17649999 0.074299999 0.90700001
0.1779 0.074199997 0.90600002
0.17919999 0.074100003 0.90499997
0.1804 0.074000001 0.903
0.18179999 0.073899999 0.90200001
0.1833 0.073899999 0.90200001
0.1849 0.073899999 0.90200001
0.1865 0.073899999 0.90200001
0.1884 0.074000001 0.90399998
0.1904 0.074199997 0.90600002
-0.4043 0.073399998 0.87800002
-0.40279999 0.073399998 0.87800002
-0.40270001 0.073700003 0.88099998
-0.40110001 0.073700003 0.88099998
-0.40099999 0.073899999 0.884
-0.39989999 0.074000001 0.88499999
-0.39969999 0.074299999 0.88800001
-0.36939999 0.072800003 0.87099999
-0.36559999 0.072700001 0.86900002
-0.3527 0.074100003 0.88599998
-0.35159999 0.074199997 0.88700002
-0.34279999 0.074299999 0.88800001
-0.3405 0.0744 0.88999999
-0.33849999 0.074699998 0.89300001
-0.32859999 0.074199997 0.88700002
-0.32319999 0.074000001 0.88499999
-0.31940001 0.073899999 0.88300002
-0.31470001 0.074199997 0.88700002
-0.3132 0.074199997 0.88700002
