# .PCD v0.7 - Point Cloud Data file format
VERSION 0.7
FIELDS x y z
SIZE 4 4 4
TYPE F F F
COUNT 1 1 1
WIDTH 1492
HEIGHT 1
VIEWPOINT 0 0 0 1 0 0 0
POINTS 1492
DATA ascii
-0.2485 -0.082099997 0.88099998
-0.22939999 -0.0823 0.884
-0.2281 -0.082400002 0.88499999
-0.22480001 -0.0823 0.884
-0.2233 -0.0823 0.884
-0.22149999 -0.082199998 0.88300002
-0.21969999 -0.082199998 0.88200003
-0.2182 -0.082199998 0.88200003
-0.2166 -0.082199998 0.88200003
-0.2149 -0.082099997 0.88099998
-0.21359999 -0.082199998 0.88200003
-0.2123 -0.082199998 0.88300002
-0.211 -0.0823 0.884
-0.2097 -0.082400002 0.88499999
-0.2084 -0.082500003 0.88599998
-0.2066 -0.082400002 0.88499999
-0.2051 -0.082400002 0.88499999
-0.1957 -0.081699997 0.87699997
-0.1944 -0.081799999 0.87800002
-0.1902 -0.082000002 0.88
-0.18889999 -0.082099997 0.88099998
-0.1876 -0.082199998 0.88200003
-0.18610001 -0.082199998 0.88200003
-0.1847 -0.082199998 0.88300002
-0.18340001 -0.0823 0.884
-0.1821 -0.082400002 0.88499999
-0.18080001 -0.082500003 0.88599998
-0.17730001 -0.0823 0.884
-0.17380001 -0.082199998 0.88200003
-0.1719 -0.082000002 0.88
-0.17020001 -0.081900001 0.87900001
-0.16850001 -0.081799999 0.87800002
-0.167 -0.081799999 0.87800002
-0.16429999 -0.082000002 0.88
-0.16159999 -0.082199998 0.88200003
-0.16060001 -0.082400002 0.88499999
-0.1591 -0.082400002 0.88499999
-0.1576 -0.082400002 0.88499999
-0.15620001 -0.082500003 0.88599998
-0.1533 -0.082599998 0.88700002
-0.15180001 -0.082599998 0.88700002
-0.1489 -0.082699999 0.88800001
-0.1472 -0.082599998 0.88700002
-0.1455 -0.082500003 0.88599998
-0.14219999 -0.082400002 0.88499999
-0.1408 -0.082500003 0.88599998
-0.1376 -0.082400002 0.88499999
-0.13609999 -0.082400002 0.88499999
-0.1346 -0.082400002 0.88499999
-0.1332 -0.082500003 0.88599998
-0.13160001 -0.082500003 0.88599998
-0.12989999 -0.082400002 0.88499999
-0.1284 -0.082400002 0.88499999
-0.1267 -0.0823 0.884
-0.1251 -0.082199998 0.88300002
-0.1235 -0.082199998 0.88300002
-0.1219 -0.082199998 0.88200003
-0.1202 -0.082099997 0.88099998
-0.1185 -0.082000002 0.88
-0.1169 -0.081900001 0.87900001
-0.1155 -0.082000002 0.88
-0.1142 -0.082199998 0.88200003
-0.1128 -0.082199998 0.88300002
-0.1114 -0.0823 0.884
-0.1098 -0.082199998 0.88300002
-0.1084 -0.0823 0.884
-0.1068 -0.0823 0.884
-0.1053 -0.0823 0.884
-0.1036 -0.082199998 0.88300002
-0.1022 -0.0823 0.884
-0.1007 -0.0823 0.884
-0.099299997 -0.082400002 0.88499999
-0.097800002 -0.082500003 0.88599998
-0.096299998 -0.082500003 0.88599998
-0.093500003 -0.082699999 0.88800001
-0.091899998 -0.082699999 0.88800001
-0.088600002 -0.082500003 0.88599998
-0.086999997 -0.082400002 0.88499999
-0.085500002 -0.082400002 0.88499999
-0.083899997 -0.082400002 0.88499999
-0.082400002 -0.082400002 0.88499999
-0.080799997 -0.0823 0.884
-0.079300001 -0.082400002 0.88499999
-0.077799998 -0.082400002 0.88499999
-0.076300003 -0.082400002 0.88499999
-0.074699998 -0.082400002 0.88499999
-0.073299997 -0.082500003 0.88599998
-0.071699999 -0.082500003 0.88599998
-0.070200004 -0.082500003 0.88599998
-0.068599999 -0.082400002 0.88499999
-0.067100003 -0.082400002 0.88499999
-0.065499999 -0.082400002 0.88499999
-0.063900001 -0.0823 0.884
-0.062399998 -0.0823 0.884
-0.060899999 -0.0823 0.884
-0.059300002 -0.0823 0.884
-0.057799999 -0.0823 0.884
-0.056299999 -0.0823 0.884
-0.054699998 -0.0823 0.884
-0.053199999 -0.0823 0.884
-0.0517 -0.082400002 0.88499999
-0.0502 -0.082500003 0.88599998
-0.048799999 -0.082599998 0.88700002
-0.047400001 -0.082900003 0.88999999
-0.045899998 -0.082999997 0.89099997
-0.044399999 -0.083099999 0.89200002
-0.0429 -0.083099999 0.89200002
-0.041200001 -0.082900003 0.88999999
-0.037999999 -0.082699999 0.88800001
-0.036499999 -0.082599998 0.88700002
-0.033399999 -0.082599998 0.88700002
-0.025699999 -0.082699999 0.88800001
-0.0242 -0.082699999 0.88800001
-0.022700001 -0.082800001 0.889
-0.021199999 -0.082900003 0.88999999
-0.0196 -0.082999997 0.89099997
-0.018100001 -0.082999997 0.89099997
-0.0166 -0.082999997 0.89099997
-0.015 -0.083099999 0.89200002
-0.0135 -0.082999997 0.89099997
-0.0119 -0.082999997 0.89099997
-0.0104 -0.082999997 0.89099997
-0.0088 -0.083099999 0.89200002
-0.0073000002 -0.0832 0.89300001
-0.0057999999 -0.083300002 0.89399999
-0.0041999999 -0.083499998 0.89600003
-0.0027000001 -0.0836 0.898
-0.0011 -0.0836 0.898
0.00039999999 -0.0836 0.898
0.0020000001 -0.0836 0.898
0.0035000001 -0.083499998 0.89700001
0.0051000002 -0.083400004 0.89499998
0.0066 -0.083099999 0.89200002
0.0081000002 -0.082999997 0.89099997
0.0097000003 -0.082900003 0.88999999
0.0112 -0.082699999 0.88800001
0.0128 -0.082800001 0.889
0.0143 -0.082900003 0.88999999
0.015900001 -0.082900003 0.88999999
0.0174 -0.082900003 0.88999999
0.0189 -0.082900003 0.88999999
0.020500001 -0.082999997 0.89099997
0.022 -0.082999997 0.89099997
0.023600001 -0.082999997 0.89099997
0.0251 -0.082900003 0.88999999
0.0266 -0.082900003 0.88999999
0.028200001 -0.082900003 0.88999999
0.0297 -0.082900003 0.88999999
0.031300001 -0.082900003 0.88999999
0.0328 -0.082900003 0.88999999
0.034400001 -0.082900003 0.88999999
0.0359 -0.082900003 0.88999999
0.0374 -0.082900003 0.88999999
0.038899999 -0.082800001 0.889
0.040399998 -0.082699999 0.88800001
0.041900001 -0.082599998 0.88700002
0.043499999 -0.082599998 0.88700002
0.057100002 -0.0823 0.884
0.058600001 -0.0823 0.884
0.060199998 -0.0823 0.884
0.063299999 -0.082400002 0.88499999
0.1019 -0.083899997 0.90100002
0.1034 -0.083800003 0.89999998
0.1047 -0.0836 0.898
0.1058 -0.083300002 0.89399999
0.107 -0.082999997 0.89099997
0.1083 -0.082800001 0.889
0.1099 -0.082900003 0.88999999
0.1115 -0.082900003 0.88999999
0.1134 -0.0832 0.89300001
0.1203 -0.0836 0.898
0.1218 -0.0836 0.898
0.1232 -0.083499998 0.89700001
0.1245 -0.083400004 0.89499998
0.1363 -0.082999997 0.89099997
0.13789999 -0.082999997 0.89099997
0.13940001 -0.082999997 0.89099997
0.141 -0.082999997 0.89099997
0.1425 -0.082999997 0.89099997
0.14399999 -0.082999997 0.89099997
0.14560001 -0.082999997 0.89099997
0.147 -0.082900003 0.88999999
0.15620001 -0.082900003 0.88999999
0.1583 -0.0832 0.89300001
0.16 -0.083300002 0.89399999
0.16159999 -0.083300002 0.89399999
0.1629 -0.0832 0.89300001
0.1649 -0.083400004 0.89499998
0.1666 -0.083499998 0.89600003
0.168 -0.083400004 0.89499998
0.1693 -0.083300002 0.89399999
0.1707 -0.0832 0.89300001
0.17219999 -0.0832 0.89300001
0.17380001 -0.0832 0.89300001
0.17550001 -0.083300002 0.89399999
0.17730001 -0.083400004 0.89499998
-0.40580001 -0.079300001 0.86799997
-0.40329999 -0.0792 0.866
-0.39750001 -0.078599997 0.86000001
-0.3951 -0.078400001 0.85799998
-0.3461 -0.079800002 0.87300003
-0.33660001 -0.079700001 0.87199998
-0.3351 -0.079700001 0.87199998
-0.33430001 -0.079899997 0.87400001
-0.33320001 -0.079999998 0.875
-0.3321 -0.0801 0.87599999
-0.33019999 -0.079999998 0.875
-0.32870001 -0.079999998 0.875
-0.32679999 -0.079899997 0.87400001
-0.3256 -0.079999998 0.875
-0.32300001 -0.0801 0.87599999
-0.32170001 -0.080499999 0.88099998
-0.3202 -0.080499999 0.88099998
-0.31560001 -0.080499999 0.88099998
-0.3141 -0.080499999 0.88099998
-0.31220001 -0.080399998 0.88
-0.31040001 -0.080300003 0.87900001
-0.30919999 -0.080399998 0.88
-0.30770001 -0.080399998 0.88
-0.3019 -0.080499999 0.88099998
-0.30000001 -0.080399998 0.88
-0.2985 -0.080399998 0.88
-0.29730001 -0.080499999 0.88099998
-0.29609999 -0.080600001 0.88200003
-0.29460001 -0.080600001 0.88200003
-0.2931 -0.080600001 0.88200003
-0.27779999 -0.081100002 0.88700002
-0.27630001 -0.081100002 0.88700002
-0.27469999 -0.081100002 0.88700002
-0.2735 -0.081200004 0.88800001
-0.27169999 -0.081100002 0.88700002
-0.2701 -0.081100002 0.88700002
-0.26859999 -0.081100002 0.88700002
-0.2665 -0.080899999 0.88499999
-0.26460001 -0.080799997 0.884
-0.26249999 -0.080600001 0.88200003
-0.26069999 -0.080499999 0.88099998
-0.25889999 -0.080399998 0.88
-0.257 -0.080300003 0.87900001
-0.2552 -0.080300003 0.87800002
-0.2534 -0.080200002 0.87699997
-0.2516 -0.0801 0.87599999
-0.25 -0.080499999 0.88099998
-0.23999999 -0.080300003 0.87800002
-0.23819999 -0.080200002 0.87699997
-0.2281 -0.080899999 0.88499999
-0.22499999 -0.080899999 0.88499999
-0.2217 -0.080799997 0.884
-0.21969999 -0.080600001 0.88200003
-0.2182 -0.080600001 0.88200003
-0.2164 -0.080499999 0.88099998
-0.2149 -0.080499999 0.88099998
-0.2133 -0.080499999 0.88099998
-0.2121 -0.080600001 0.88200003
-0.211 -0.080799997 0.884
-0.2097 -0.080899999 0.88499999
-0.2086 -0.081100002 0.88700002
-0.2071 -0.081100002 0.88700002
-0.2053 -0.081 0.88599998
-0.204 -0.081100002 0.88700002
-0.1909 -0.080700003 0.88300002
-0.18780001 -0.080700003 0.88300002
-0.18629999 -0.080700003 0.88300002
-0.185 -0.080799997 0.884
-0.18340001 -0.080799997 0.884
-0.1821 -0.080899999 0.88499999
-0.17900001 -0.080899999 0.88499999
-0.17730001 -0.080799997 0.884
-0.1758 -0.080799997 0.884
-0.17399999 -0.080700003 0.88300002
-0.17209999 -0.080499999 0.88099998
-0.17039999 -0.080399998 0.88
-0.16869999 -0.080300003 0.87900001
-0.1672 -0.080300003 0.87900001
-0.16580001 -0.080399998 0.88
-0.16060001 -0.080899999 0.88499999
-0.1591 -0.080899999 0.88499999
-0.1577 -0.081 0.88599998
-0.1531 -0.081 0.88599998
-0.1499 -0.080899999 0.88499999
-0.14839999 -0.080899999 0.88499999
-0.1468 -0.080899999 0.88499999
-0.1453 -0.080899999 0.88499999
-0.14380001 -0.080899999 0.88499999
-0.14219999 -0.080899999 0.88499999
-0.1407 -0.080899999 0.88499999
-0.1392 -0.080899999 0.88499999
-0.13609999 -0.080899999 0.88499999
-0.1346 -0.080899999 0.88499999
-0.1332 -0.081 0.88599998
-0.13160001 -0.081 0.88599998
-0.12980001 -0.080799997 0.884
-0.1283 -0.080799997 0.884
-0.1266 -0.080700003 0.88300002
-0.1233 -0.080499999 0.88099998
-0.1215 -0.080300003 0.87900001
-0.1199 -0.080300003 0.87900001
-0.1183 -0.080300003 0.87800002
-0.1166 -0.080200002 0.87699997
-0.1151 -0.080200002 0.87699997
-0.1137 -0.080300003 0.87800002
-0.1124 -0.080399998 0.88
-0.111 -0.080499999 0.88099998
-0.1095 -0.080499999 0.88099998
-0.1081 -0.080600001 0.88200003
-0.1067 -0.080700003 0.88300002
-0.1053 -0.080799997 0.884
-0.1035 -0.080600001 0.88200003
-0.1022 -0.080799997 0.884
-0.1007 -0.080799997 0.884
-0.099299997 -0.080899999 0.88499999
-0.0977 -0.080899999 0.88499999
-0.096199997 -0.080899999 0.88499999
-0.094899997 -0.081100002 0.88700002
-0.093199998 -0.081 0.88599998
-0.091600001 -0.080899999 0.88499999
-0.090099998 -0.080899999 0.88499999
-0.088399999 -0.080799997 0.884
-0.086900003 -0.080799997 0.884
-0.085299999 -0.080700003 0.88300002
-0.083700001 -0.080700003 0.88300002
-0.0823 -0.080799997 0.884
-0.080799997 -0.080799997 0.884
-0.079300001 -0.080899999 0.88499999
-0.077799998 -0.080899999 0.88499999
-0.076300003 -0.080899999 0.88499999
-0.074699998 -0.080899999 0.88499999
-0.073200002 -0.080899999 0.88499999
-0.071699999 -0.081 0.88599998
-0.070200004 -0.081 0.88599998
-0.068599999 -0.080899999 0.88499999
-0.067100003 -0.080899999 0.88499999
-0.065499999 -0.080899999 0.88499999
-0.064000003 -0.080899999 0.88499999
-0.062399998 -0.080799997 0.884
-0.060899999 -0.080799997 0.884
-0.059300002 -0.080799997 0.884
-0.057799999 -0.080799997 0.884
-0.056299999 -0.080799997 0.884
-0.054699998 -0.080799997 0.884
-0.053199999 -0.080799997 0.884
-0.0517 -0.080899999 0.88499999
-0.0502 -0.080899999 0.88499999
-0.048700001 -0.081 0.88599998
-0.0473 -0.081200004 0.88800001
-0.0458 -0.0814 0.88999999
-0.044399999 -0.0814 0.89099997
-0.042800002 -0.0814 0.89099997
-0.041200001 -0.0814 0.88999999
-0.0396 -0.081200004 0.88800001
-0.037999999 -0.081100002 0.88700002
-0.036400001 -0.081 0.88599998
-0.034899998 -0.080899999 0.88499999
-0.033300001 -0.080899999 0.88499999
-0.031800002 -0.080899999 0.88499999
-0.025699999 -0.081100002 0.88700002
-0.0242 -0.081200004 0.88800001
-0.022700001 -0.081299998 0.889
-0.021199999 -0.0814 0.88999999
-0.0196 -0.0814 0.89099997
-0.018100001 -0.0814 0.89099997
-0.0166 -0.0814 0.89099997
-0.015 -0.081500001 0.89200002
-0.0135 -0.081500001 0.89200002
-0.0119 -0.0814 0.89099997
-0.0104 -0.0814 0.89099997
-0.0088 -0.0814 0.89099997
-0.0073000002 -0.0814 0.89099997
-0.0057999999 -0.081600003 0.89300001
-0.0041999999 -0.081799999 0.89499998
-0.0027000001 -0.082000002 0.89700001
-0.0011 -0.081900001 0.89600003
0.00039999999 -0.081799999 0.89499998
0.0020000001 -0.081699997 0.89399999
0.0035000001 -0.081699997 0.89399999
0.0051000002 -0.081600003 0.89300001
0.0066 -0.0814 0.89099997
0.0081000002 -0.0814 0.88999999
0.0097000003 -0.0814 0.88999999
0.0112 -0.081299998 0.889
0.0128 -0.081299998 0.889
0.0143 -0.081299998 0.889
0.015799999 -0.081299998 0.889
0.0174 -0.081299998 0.889
0.0189 -0.081299998 0.889
0.020500001 -0.0814 0.88999999
0.022 -0.081299998 0.889
0.023600001 -0.0814 0.88999999
0.0251 -0.081299998 0.889
0.0266 -0.0814 0.88999999
0.028200001 -0.0814 0.88999999
0.0297 -0.0814 0.88999999
0.031300001 -0.0814 0.89099997
0.032900002 -0.0814 0.89099997
0.034400001 -0.0814 0.88999999
0.0359 -0.0814 0.89099997
0.0374 -0.0814 0.88999999
0.039000001 -0.0814 0.88999999
0.0405 -0.081299998 0.889
0.041999999 -0.081200004 0.88800001
0.043499999 -0.081200004 0.88800001
0.0451 -0.081200004 0.88800001
0.046599999 -0.081200004 0.88800001
0.0572 -0.080899999 0.88499999
0.058699999 -0.080899999 0.88499999
0.060199998 -0.080899999 0.88499999
0.061799999 -0.080899999 0.88499999
0.063500002 -0.081100002 0.88700002
0.064999998 -0.081100002 0.88700002
0.066600002 -0.081200004 0.88800001
0.068099998 -0.081200004 0.88800001
0.085500002 -0.081500001 0.89200002
0.087200001 -0.081699997 0.89399999
0.089100003 -0.082099997 0.898
0.090899996 -0.0823 0.89999998
0.092500001 -0.0823 0.89999998
0.093900003 -0.082199998 0.89899999
0.0955 -0.082199998 0.89899999
0.097099997 -0.0823 0.89999998
0.098800004 -0.082400002 0.90100002
0.1003 -0.0823 0.89999998
0.1018 -0.0823 0.89999998
0.1032 -0.082099997 0.898
0.1045 -0.081900001 0.89600003
0.1057 -0.081600003 0.89300001
0.1069 -0.0814 0.88999999
0.1082 -0.081200004 0.88800001
0.1097 -0.081200004 0.88800001
0.1115 -0.0814 0.88999999
0.1132 -0.0814 0.89099997
0.1147 -0.0814 0.89099997
0.1165 -0.081600003 0.89300001
0.1184 -0.081900001 0.89600003
0.1201 -0.082000002 0.89700001
0.1218 -0.082099997 0.898
0.1234 -0.082099997 0.898
0.1249 -0.082099997 0.898
0.12620001 -0.081900001 0.89600003
0.1278 -0.081900001 0.89600003
0.1293 -0.081900001 0.89600003
0.1304 -0.081600003 0.89300001
0.13150001 -0.0814 0.88999999
0.1331 -0.0814 0.88999999
0.1346 -0.0814 0.88999999
0.1363 -0.0814 0.89099997
0.13789999 -0.0814 0.89099997
0.1393 -0.0814 0.88999999
0.1408 -0.0814 0.88999999
0.1425 -0.0814 0.89099997
0.14399999 -0.0814 0.89099997
0.14560001 -0.0814 0.89099997
0.1471 -0.0814 0.89099997
0.1485 -0.0814 0.88999999
0.15019999 -0.0814 0.89099997
0.15189999 -0.081500001 0.89200002
0.1531 -0.0814 0.88999999
0.1547 -0.0814 0.88999999
0.156 -0.081299998 0.889
0.1578 -0.0814 0.88999999
0.1595 -0.0814 0.89099997
0.161 -0.0814 0.89099997
0.16240001 -0.0814 0.88999999
0.16410001 -0.0814 0.89099997
0.1657 -0.0814 0.89099997
0.1672 -0.0814 0.89099997
0.16859999 -0.0814 0.88999999
0.1718 -0.0814 0.89099997
0.1732 -0.0814 0.88999999
0.1749 -0.0814 0.89099997
0.1767 -0.081500001 0.89200002
0.17820001 -0.081500001 0.89200002
-0.35210001 -0.078299999 0.87300003
-0.33809999 -0.078199998 0.87199998
-0.33700001 -0.078299999 0.87300003
-0.3355 -0.078299999 0.87300003
-0.33469999 -0.078500003 0.875
-0.3317 -0.078500003 0.875
-0.3294 -0.078299999 0.87300003
-0.32789999 -0.078299999 0.87300003
-0.32640001 -0.078299999 0.87300003
-0.32530001 -0.078400001 0.87400001
-0.32409999 -0.078500003 0.875
-0.32170001 -0.079000004 0.88099998
-0.3206 -0.079099998 0.88200003
-0.31909999 -0.079099998 0.88200003
-0.3175 -0.079099998 0.88200003
-0.31600001 -0.079099998 0.88200003
-0.3145 -0.079099998 0.88200003
-0.31290001 -0.079099998 0.88200003
-0.31110001 -0.079000004 0.88099998
-0.30989999 -0.079099998 0.88200003
-0.308 -0.079000004 0.88099998
-0.30160001 -0.078900002 0.88
-0.29969999 -0.0788 0.87900001
-0.29699999 -0.078900002 0.88
-0.29429999 -0.079000004 0.88099998
-0.29190001 -0.0792 0.88300002
-0.29069999 -0.079300001 0.884
-0.2888 -0.0792 0.88300002
-0.28729999 -0.0792 0.88300002
-0.27630001 -0.079499997 0.88700002
-0.27469999 -0.079499997 0.88700002
-0.27320001 -0.079499997 0.88700002
-0.27169999 -0.079499997 0.88700002
-0.2701 -0.079499997 0.88700002
-0.26800001 -0.079400003 0.88499999
-0.26620001 -0.079300001 0.884
-0.264 -0.079099998 0.88200003
-0.26190001 -0.078900002 0.88
-0.26010001 -0.0788 0.87900001
-0.25830001 -0.078699999 0.87800002
-0.25670001 -0.078699999 0.87800002
-0.2552 -0.078699999 0.87800002
-0.2534 -0.078599997 0.87699997
-0.25220001 -0.078699999 0.87800002
-0.2518 -0.079099998 0.88200003
-0.25060001 -0.0792 0.88300002
-0.22499999 -0.079400003 0.88499999
-0.2233 -0.079300001 0.884
-0.22149999 -0.0792 0.88300002
-0.21969999 -0.079099998 0.88200003
-0.21789999 -0.079000004 0.88099998
-0.2159 -0.0788 0.87900001
-0.2146 -0.078900002 0.88
-0.2133 -0.079000004 0.88099998
-0.2121 -0.079099998 0.88200003
-0.21080001 -0.0792 0.88300002
-0.2097 -0.079400003 0.88499999
-0.2089 -0.079599999 0.88800001
-0.20730001 -0.079599999 0.88800001
-0.2045 -0.079700001 0.889
-0.1911 -0.079300001 0.884
-0.18629999 -0.0792 0.88300002
-0.18340001 -0.079300001 0.884
-0.18189999 -0.079300001 0.884
-0.1806 -0.079400003 0.88499999
-0.17900001 -0.079400003 0.88499999
-0.17730001 -0.079300001 0.884
-0.1758 -0.079300001 0.884
-0.17399999 -0.0792 0.88300002
-0.1723 -0.079099998 0.88200003
-0.1708 -0.079099998 0.88200003
-0.1691 -0.079000004 0.88099998
-0.1675 -0.079000004 0.88099998
-0.1645 -0.079000004 0.88099998
-0.1631 -0.079099998 0.88200003
-0.162 -0.079300001 0.884
-0.1608 -0.079499997 0.88599998
-0.1593 -0.079499997 0.88599998
-0.15790001 -0.079499997 0.88700002
-0.156 -0.079400003 0.88499999
-0.153 -0.079400003 0.88499999
-0.1514 -0.079400003 0.88499999
-0.1497 -0.079300001 0.884
-0.14820001 -0.079300001 0.884
-0.14669999 -0.079300001 0.884
-0.1453 -0.079400003 0.88499999
-0.14380001 -0.079400003 0.88499999
-0.14210001 -0.079300001 0.884
-0.14049999 -0.079300001 0.884
-0.139 -0.079300001 0.884
-0.13590001 -0.079300001 0.884
-0.1344 -0.079300001 0.884
-0.1332 -0.079499997 0.88599998
-0.13160001 -0.079499997 0.88599998
-0.12980001 -0.079300001 0.884
-0.1283 -0.079300001 0.884
-0.1266 -0.0792 0.88300002
-0.1249 -0.079099998 0.88200003
-0.1233 -0.079000004 0.88099998
-0.1215 -0.0788 0.87900001
-0.1197 -0.078599997 0.87699997
-0.1179 -0.078500003 0.875
-0.1161 -0.078299999 0.87300003
-0.1146 -0.078299999 0.87300003
-0.1131 -0.078299999 0.87300003
-0.1117 -0.078400001 0.87400001
-0.1105 -0.078599997 0.87699997
-0.1091 -0.078699999 0.87800002
-0.108 -0.079000004 0.88099998
-0.1066 -0.079099998 0.88200003
-0.1051 -0.079099998 0.88200003
-0.1035 -0.079099998 0.88200003
-0.1021 -0.0792 0.88300002
-0.1007 -0.079300001 0.884
-0.099299997 -0.079400003 0.88499999
-0.0977 -0.079400003 0.88499999
-0.096199997 -0.079400003 0.88499999
-0.094700001 -0.079400003 0.88499999
-0.093000002 -0.079300001 0.884
-0.091399997 -0.0792 0.88300002
-0.088100001 -0.079000004 0.88099998
-0.086599998 -0.079000004 0.88099998
-0.085100003 -0.079000004 0.88099998
-0.0836 -0.079099998 0.88200003
-0.082099997 -0.079099998 0.88200003
-0.080600001 -0.079099998 0.88200003
-0.0792 -0.079300001 0.884
-0.077699997 -0.079300001 0.884
-0.076300003 -0.079400003 0.88499999
-0.074699998 -0.079400003 0.88499999
-0.073200002 -0.079400003 0.88499999
-0.071699999 -0.079499997 0.88599998
-0.070200004 -0.079499997 0.88599998
-0.068599999 -0.079400003 0.88499999
-0.067100003 -0.079400003 0.88499999
-0.065499999 -0.079400003 0.88499999
-0.064000003 -0.079400003 0.88499999
-0.062399998 -0.079300001 0.884
-0.060899999 -0.079400003 0.88499999
-0.0594 -0.079400003 0.88499999
-0.057799999 -0.079300001 0.884
-0.056299999 -0.079300001 0.884
-0.054699998 -0.079300001 0.884
-0.053199999 -0.079300001 0.884
-0.0517 -0.079400003 0.88499999
-0.0502 -0.079400003 0.88499999
-0.048700001 -0.079400003 0.88499999
-0.047200002 -0.079499997 0.88700002
-0.0458 -0.079800002 0.88999999
-0.044300001 -0.079800002 0.88999999
-0.042800002 -0.079899997 0.89099997
-0.041200001 -0.079800002 0.88999999
-0.0396 -0.079599999 0.88800001
-0.037999999 -0.079499997 0.88700002
-0.033300001 -0.079400003 0.88499999
-0.0317 -0.079300001 0.884
-0.030200001 -0.079300001 0.884
-0.022700001 -0.079599999 0.88800001
-0.021199999 -0.079800002 0.88999999
-0.0196 -0.079800002 0.88999999
-0.018100001 -0.079800002 0.88999999
-0.0166 -0.079899997 0.89099997
-0.015 -0.079999998 0.89200002
-0.0135 -0.079999998 0.89200002
-0.0119 -0.079899997 0.89099997
-0.0104 -0.079899997 0.89099997
-0.0088 -0.079999998 0.89200002
-0.0073000002 -0.0801 0.89300001
-0.0057999999 -0.0801 0.89300001
-0.0041999999 -0.080300003 0.89499998
-0.0027000001 -0.080499999 0.898
-0.0011 -0.080300003 0.89600003
0.00039999999 -0.080200002 0.89399999
0.0020000001 -0.0801 0.89300001
0.0035000001 -0.0801 0.89300001
0.0051000002 -0.079999998 0.89200002
0.0066 -0.079899997 0.89099997
0.0081000002 -0.079800002 0.88999999
0.0097000003 -0.079700001 0.889
0.0112 -0.079599999 0.88800001
0.0127 -0.079599999 0.88800001
0.0143 -0.079599999 0.88800001
0.015799999 -0.079599999 0.88800001
0.0174 -0.079599999 0.88800001
0.0189 -0.079599999 0.88800001
0.020400001 -0.079599999 0.88800001
0.022 -0.079599999 0.88800001
0.023499999 -0.079599999 0.88800001
0.0251 -0.079599999 0.88800001
0.0266 -0.079599999 0.88800001
0.028200001 -0.079700001 0.889
0.0297 -0.079800002 0.88999999
0.031300001 -0.079899997 0.89099997
0.032900002 -0.079899997 0.89099997
0.034400001 -0.079899997 0.89099997
0.0359 -0.079899997 0.89099997
0.0374 -0.079800002 0.88999999
0.038899999 -0.079700001 0.889
0.040399998 -0.079599999 0.88800001
0.041900001 -0.079499997 0.88700002
0.043499999 -0.079599999 0.88800001
0.0451 -0.079599999 0.88800001
0.046599999 -0.079700001 0.889
0.0482 -0.079700001 0.889
0.049699999 -0.079700001 0.889
0.0513 -0.079700001 0.889
0.0528 -0.079599999 0.88800001
0.054200001 -0.079499997 0.88700002
0.055799998 -0.079499997 0.88700002
0.0572 -0.079499997 0.88599998
0.058800001 -0.079499997 0.88599998
0.0603 -0.079499997 0.88599998
0.061900001 -0.079499997 0.88700002
0.063500002 -0.079499997 0.88700002
0.064999998 -0.079499997 0.88700002
0.066600002 -0.079599999 0.88800001
0.068099998 -0.079499997 0.88700002
0.069600001 -0.079499997 0.88700002
0.071099997 -0.079499997 0.88700002
0.072700001 -0.079499997 0.88700002
0.074299999 -0.079599999 0.88800001
0.075800002 -0.079599999 0.88800001
0.077299997 -0.079499997 0.88700002
0.0788 -0.079499997 0.88700002
0.080499999 -0.079599999 0.88800001
0.082000002 -0.079599999 0.88800001
0.083700001 -0.079800002 0.88999999
0.0854 -0.079899997 0.89099997
0.087099999 -0.0801 0.89300001
0.0889 -0.080300003 0.89600003
0.090700001 -0.080499999 0.898
0.092299998 -0.080499999 0.898
0.093800001 -0.080499999 0.898
0.095399998 -0.080499999 0.898
0.097000003 -0.080600001 0.89899999
0.098700002 -0.080700003 0.89999998
0.1003 -0.080700003 0.89999998
0.1018 -0.080700003 0.89999998
0.1033 -0.080600001 0.89899999
0.1046 -0.080399998 0.89700001
0.1058 -0.080200002 0.89399999
0.107 -0.079899997 0.89099997
0.1084 -0.079800002 0.88999999
0.1099 -0.079800002 0.88999999
0.1116 -0.079899997 0.89099997
0.1134 -0.0801 0.89300001
0.1152 -0.080300003 0.89499998
0.1169 -0.080300003 0.89600003
0.1187 -0.080499999 0.898
0.1204 -0.080600001 0.89899999
0.1221 -0.080700003 0.89999998
0.1237 -0.080700003 0.89999998
0.1249 -0.080499999 0.898
0.1265 -0.080499999 0.898
0.12809999 -0.080499999 0.898
0.1293 -0.080300003 0.89600003
0.1304 -0.0801 0.89300001
0.13169999 -0.079899997 0.89099997
0.1332 -0.079899997 0.89099997
0.1348 -0.079899997 0.89099997
0.1365 -0.079999998 0.89200002
0.13789999 -0.079899997 0.89099997
0.13940001 -0.079899997 0.89099997
0.141 -0.079899997 0.89099997
0.1425 -0.079899997 0.89099997
0.14399999 -0.079899997 0.89099997
0.14560001 -0.079899997 0.89099997
0.147 -0.079800002 0.88999999
0.1485 -0.079800002 0.88999999
0.153 -0.079700001 0.889
0.15449999 -0.079700001 0.889
0.1559 -0.079599999 0.88800001
0.1591 -0.079700001 0.889
0.16069999 -0.079700001 0.889
0.162 -0.079599999 0.88800001
0.1636 -0.079599999 0.88800001
0.1653 -0.079700001 0.889
0.16680001 -0.079700001 0.889
0.1682 -0.079599999 0.88800001
0.1732 -0.079800002 0.88999999
0.17470001 -0.079800002 0.88999999
0.1761 -0.079700001 0.889
0.17739999 -0.079599999 0.88800001
-0.4093 -0.076200001 0.866
-0.40779999 -0.076200001 0.866
-0.3856 -0.076499999 0.87
-0.3845 -0.0766 0.87099999
-0.38339999 -0.076700002 0.87199998
-0.3802 -0.077 0.875
-0.33700001 -0.076800004 0.87300003
-0.33320001 -0.077 0.875
-0.3317 -0.077 0.875
-0.3202 -0.077500001 0.88099998
-0.31909999 -0.077600002 0.88200003
-0.3175 -0.077600002 0.88200003
-0.31600001 -0.077600002 0.88200003
-0.31479999 -0.077699997 0.88300002
-0.31290001 -0.077600002 0.88200003
-0.3114 -0.077600002 0.88200003
-0.30989999 -0.077600002 0.88200003
-0.308 -0.077500001 0.88099998
-0.30500001 -0.077500001 0.88099998
-0.30340001 -0.077500001 0.88099998
-0.30160001 -0.077399999 0.88
-0.29969999 -0.077299997 0.87900001
-0.2978 -0.077200003 0.87800002
-0.29660001 -0.077299997 0.87900001
-0.2958 -0.077500001 0.88099998
-0.29429999 -0.077500001 0.88099998
-0.2924 -0.077399999 0.88
-0.29120001 -0.077500001 0.88099998
-0.27599999 -0.0779 0.88599998
-0.2744 -0.0779 0.88599998
-0.27320001 -0.078000002 0.88700002
-0.2714 -0.0779 0.88599998
-0.26949999 -0.077799998 0.88499999
-0.26800001 -0.077799998 0.88499999
-0.2656 -0.077600002 0.88200003
-0.2631 -0.077299997 0.87900001
-0.2613 -0.077200003 0.87800002
-0.2595 -0.077100001 0.87699997
-0.2577 -0.077 0.87599999
-0.25619999 -0.077 0.87599999
-0.25459999 -0.077 0.87599999
-0.25310001 -0.077 0.87599999
-0.25220001 -0.077200003 0.87800002
-0.2518 -0.077600002 0.88200003
-0.25080001 -0.077699997 0.884
-0.24869999 -0.077600002 0.88200003
-0.236 -0.077399999 0.88
-0.2325 -0.077699997 0.884
-0.2296 -0.077799998 0.88499999
-0.2263 -0.077699997 0.884
-0.22480001 -0.077699997 0.884
-0.223 -0.077699997 0.88300002
-0.2212 -0.077600002 0.88200003
-0.2194 -0.077500001 0.88099998
-0.2177 -0.077399999 0.88
-0.2159 -0.077299997 0.87900001
-0.2146 -0.077399999 0.88
-0.2133 -0.077500001 0.88099998
-0.2121 -0.077600002 0.88200003
-0.21080001 -0.077699997 0.88300002
-0.2097 -0.077799998 0.88499999
-0.2086 -0.078000002 0.88700002
-0.2071 -0.078000002 0.88700002
-0.1911 -0.077699997 0.884
-0.18960001 -0.077699997 0.884
-0.18629999 -0.077699997 0.88300002
-0.1832 -0.077699997 0.88300002
-0.18189999 -0.077699997 0.884
-0.1802 -0.077699997 0.88300002
-0.1788 -0.077699997 0.884
-0.17730001 -0.077699997 0.884
-0.1758 -0.077699997 0.884
-0.1742 -0.077699997 0.884
-0.1723 -0.077600002 0.88200003
-0.1708 -0.077600002 0.88200003
-0.1693 -0.077600002 0.88200003
-0.1675 -0.077500001 0.88099998
-0.1645 -0.077500001 0.88099998
-0.162 -0.077699997 0.884
-0.161 -0.078000002 0.88700002
-0.1593 -0.0779 0.88599998
-0.15790001 -0.078000002 0.88700002
-0.153 -0.077799998 0.88499999
-0.1514 -0.077799998 0.88499999
-0.1495 -0.077699997 0.88300002
-0.148 -0.077699997 0.88300002
-0.1463 -0.077600002 0.88200003
-0.1451 -0.077699997 0.884
-0.1434 -0.077699997 0.88300002
-0.1419 -0.077699997 0.88300002
-0.14040001 -0.077699997 0.88300002
-0.139 -0.077699997 0.884
-0.1375 -0.077699997 0.884
-0.13590001 -0.077699997 0.884
-0.1344 -0.077699997 0.884
-0.133 -0.077799998 0.88499999
-0.13160001 -0.0779 0.88599998
-0.12989999 -0.077799998 0.88499999
-0.1283 -0.077699997 0.884
-0.1266 -0.077699997 0.88300002
-0.1249 -0.077600002 0.88200003
-0.123 -0.077299997 0.87900001
-0.1191 -0.076800004 0.87300003
-0.1175 -0.076700002 0.87199998
-0.1158 -0.0766 0.87099999
-0.1142 -0.076499999 0.87
-0.1127 -0.076499999 0.87
-0.1113 -0.0766 0.87099999
-0.11 -0.076800004 0.87300003
-0.1086 -0.076899998 0.87400001
-0.1077 -0.077299997 0.87900001
-0.1065 -0.077500001 0.88099998
-0.1051 -0.077600002 0.88200003
-0.1035 -0.077600002 0.88200003
-0.102 -0.077600002 0.88200003
-0.1006 -0.077699997 0.88300002
-0.099200003 -0.077699997 0.884
-0.097599998 -0.077699997 0.884
-0.096100003 -0.077699997 0.884
-0.094400004 -0.077600002 0.88200003
-0.092699997 -0.077500001 0.88099998
-0.0911 -0.077399999 0.88
-0.089500003 -0.077299997 0.87900001
-0.087800004 -0.077200003 0.87800002
-0.086300001 -0.077200003 0.87800002
-0.084799998 -0.077200003 0.87800002
-0.083499998 -0.077399999 0.88
-0.082000002 -0.077500001 0.88099998
-0.080499999 -0.077500001 0.88099998
-0.079099998 -0.077600002 0.88200003
-0.077600002 -0.077699997 0.88300002
-0.076200001 -0.077699997 0.884
-0.074600004 -0.077699997 0.884
-0.073200002 -0.077799998 0.88499999
-0.071699999 -0.077799998 0.88499999
-0.070200004 -0.0779 0.88599998
-0.068599999 -0.077799998 0.88499999
-0.067100003 -0.077799998 0.88499999
-0.065499999 -0.077799998 0.88499999
-0.064000003 -0.077799998 0.88499999
-0.0625 -0.077799998 0.88499999
-0.060899999 -0.077799998 0.88499999
-0.0594 -0.077799998 0.88499999
-0.0579 -0.077799998 0.88499999
-0.056299999 -0.077799998 0.88499999
-0.0548 -0.077799998 0.88499999
-0.053300001 -0.077799998 0.88499999
-0.0517 -0.077799998 0.88499999
-0.0502 -0.077799998 0.88499999
-0.048700001 -0.077799998 0.88499999
-0.047200002 -0.078000002 0.88700002
-0.045699999 -0.078100003 0.88800001
-0.044199999 -0.078100003 0.88800001
-0.042800002 -0.078299999 0.88999999
-0.041200001 -0.078299999 0.88999999
-0.0396 -0.078199998 0.889
-0.033300001 -0.077799998 0.88499999
-0.0317 -0.077699997 0.88300002
-0.030200001 -0.077699997 0.88300002
-0.0211 -0.078100003 0.88800001
-0.0196 -0.078299999 0.88999999
-0.018100001 -0.078299999 0.88999999
-0.0166 -0.078400001 0.89099997
-0.015 -0.078500003 0.89300001
-0.0135 -0.078500003 0.89300001
-0.0119 -0.078400001 0.89200002
-0.0104 -0.078500003 0.89300001
-0.0088999998 -0.078500003 0.89300001
-0.0073000002 -0.078599997 0.89399999
-0.0057999999 -0.078699999 0.89499998
-0.0041999999 -0.0788 0.89600003
-0.0027000001 -0.079099998 0.89899999
-0.0011 -0.079000004 0.898
0.00039999999 -0.078500003 0.89300001
0.0020000001 -0.078400001 0.89099997
0.0035000001 -0.078400001 0.89099997
0.0051000002 -0.078299999 0.88999999
0.0066 -0.078299999 0.88999999
0.0081000002 -0.078199998 0.889
0.0097000003 -0.078100003 0.88800001
0.0112 -0.078100003 0.88800001
0.0127 -0.078100003 0.88800001
0.0143 -0.078100003 0.88800001
0.015799999 -0.078100003 0.88800001
0.0173 -0.078000002 0.88700002
0.0189 -0.078000002 0.88700002
0.020400001 -0.078000002 0.88700002
0.022 -0.078100003 0.88800001
0.023499999 -0.078100003 0.88800001
0.025 -0.078000002 0.88700002
0.0266 -0.078100003 0.88800001
0.028200001 -0.078199998 0.889
0.0297 -0.078299999 0.88999999
0.031300001 -0.078299999 0.88999999
0.0328 -0.078299999 0.88999999
0.034400001 -0.078299999 0.88999999
0.0359 -0.078299999 0.88999999
0.0374 -0.078299999 0.88999999
0.038899999 -0.078100003 0.88800001
0.040399998 -0.078000002 0.88700002
0.041900001 -0.078000002 0.88700002
0.043499999 -0.078100003 0.88800001
0.045200001 -0.078299999 0.88999999
0.046700001 -0.078299999 0.88999999
0.0482 -0.078299999 0.88999999
0.052900001 -0.078299999 0.88999999
0.054299999 -0.078100003 0.88800001
0.055799998 -0.078000002 0.88700002
0.057300001 -0.078000002 0.88700002
0.058800001 -0.078000002 0.88700002
0.060400002 -0.078000002 0.88700002
0.061999999 -0.078100003 0.88800001
0.063500002 -0.078100003 0.88800001
0.065099999 -0.078100003 0.88800001
0.066600002 -0.078100003 0.88800001
0.068099998 -0.078000002 0.88700002
0.069600001 -0.078000002 0.88700002
0.071099997 -0.078000002 0.88700002
0.072700001 -0.078000002 0.88700002
0.074199997 -0.078000002 0.88700002
0.075800002 -0.078000002 0.88700002
0.077299997 -0.078000002 0.88700002
0.0788 -0.078000002 0.88700002
0.082000002 -0.078100003 0.88800001
0.083700001 -0.078299999 0.88999999
0.0854 -0.078400001 0.89099997
0.086999997 -0.078400001 0.89200002
0.088699996 -0.078599997 0.89399999
0.090400003 -0.078699999 0.89499998
0.092100002 -0.0788 0.89600003
0.095200002 -0.0788 0.89600003
0.096900001 -0.079000004 0.898
0.0986 -0.079099998 0.89899999
0.1003 -0.079099998 0.89999998
0.1017 -0.079099998 0.89899999
0.1032 -0.079000004 0.898
0.1046 -0.078900002 0.89700001
0.1059 -0.078699999 0.89499998
0.107 -0.078400001 0.89099997
0.1084 -0.078299999 0.88999999
0.1099 -0.078299999 0.88999999
0.1116 -0.078400001 0.89099997
0.1135 -0.078599997 0.89399999
0.1152 -0.078699999 0.89499998
0.117 -0.078900002 0.89700001
0.1187 -0.079000004 0.898
0.1205 -0.079099998 0.89999998
0.1221 -0.079099998 0.89999998
0.1235 -0.079099998 0.89899999
0.1251 -0.079099998 0.89899999
0.1266 -0.079099998 0.89899999
0.12809999 -0.079000004 0.898
0.1295 -0.078900002 0.89700001
0.13060001 -0.078599997 0.89399999
0.1318 -0.078400001 0.89200002
0.1332 -0.078400001 0.89099997
0.1348 -0.078400001 0.89099997
0.1363 -0.078400001 0.89099997
0.13789999 -0.078400001 0.89099997
0.13940001 -0.078400001 0.89099997
0.141 -0.078400001 0.89099997
0.1427 -0.078400001 0.89200002
0.14399999 -0.078400001 0.89099997
0.14560001 -0.078400001 0.89099997
0.147 -0.078299999 0.88999999
0.1485 -0.078299999 0.88999999
0.1499 -0.078199998 0.889
0.1543 -0.078100003 0.88800001
0.1576 -0.078199998 0.889
0.1591 -0.078199998 0.889
0.16069999 -0.078199998 0.889
0.1636 -0.078100003 0.88800001
0.1666 -0.078100003 0.88800001
0.1697 -0.078100003 0.88800001
0.17129999 -0.078100003 0.88800001
0.17299999 -0.078199998 0.889
0.1745 -0.078199998 0.889
0.1759 -0.078100003 0.88800001
0.17739999 -0.078100003 0.88800001
-0.40889999 -0.074600004 0.86500001
-0.3962 -0.073899999 0.85699999
-0.3951 -0.074000001 0.85799998
-0.3854 -0.075300001 0.87300003
-0.38389999 -0.075300001 0.87300003
-0.38319999 -0.075400002 0.875
-0.38170001 -0.075400002 0.875
-0.3802 -0.075400002 0.875
-0.35780001 -0.075199999 0.87199998
-0.35620001 -0.075199999 0.87199998
-0.32170001 -0.075999998 0.88099998
-0.3202 -0.075999998 0.88099998
-0.31909999 -0.075999998 0.88200003
-0.3175 -0.075999998 0.88200003
-0.31639999 -0.076099999 0.88300002
-0.3152 -0.076200001 0.884
-0.31369999 -0.076200001 0.884
-0.3118 -0.076099999 0.88300002
-0.31020001 -0.076099999 0.88300002
-0.308 -0.075999998 0.88099998
-0.30090001 -0.0757 0.87800002
-0.29710001 -0.075499997 0.87599999
-0.29629999 -0.0757 0.87800002
-0.2951 -0.075800002 0.87900001
-0.29359999 -0.075800002 0.87900001
-0.29139999 -0.075599998 0.87699997
-0.28960001 -0.075499997 0.87599999
-0.2723 -0.076200001 0.884
-0.27079999 -0.076200001 0.884
-0.26890001 -0.076099999 0.88300002
-0.26710001 -0.075999998 0.88200003
-0.26440001 -0.0757 0.87800002
-0.26190001 -0.075400002 0.875
-0.2604 -0.075400002 0.875
-0.25889999 -0.075400002 0.875
-0.25740001 -0.075400002 0.875
-0.2559 -0.075400002 0.875
-0.2543 -0.075400002 0.875
-0.25279999 -0.075400002 0.875
-0.25189999 -0.075599998 0.87699997
-0.25150001 -0.075999998 0.88099998
-0.25060001 -0.076099999 0.88300002
-0.24869999 -0.075999998 0.88200003
-0.24779999 -0.076200001 0.884
-0.24420001 -0.075999998 0.88200003
-0.2406 -0.075900003 0.88
-0.2388 -0.075800002 0.87900001
-0.2362 -0.075999998 0.88099998
-0.2309 -0.076200001 0.884
-0.22939999 -0.076200001 0.884
-0.2279 -0.076200001 0.884
-0.2245 -0.076099999 0.88300002
-0.221 -0.075999998 0.88099998
-0.2157 -0.0757 0.87800002
-0.21439999 -0.075800002 0.87900001
-0.2133 -0.075999998 0.88099998
-0.2121 -0.075999998 0.88200003
-0.211 -0.076200001 0.884
-0.2097 -0.076300003 0.88499999
-0.2086 -0.076499999 0.88700002
-0.20730001 -0.0766 0.88800001
-0.2058 -0.0766 0.88800001
-0.205 -0.076800004 0.89099997
-0.1913 -0.076300003 0.88499999
-0.18960001 -0.076200001 0.884
-0.18629999 -0.076099999 0.88300002
-0.1832 -0.076099999 0.88300002
-0.18170001 -0.076099999 0.88300002
-0.1802 -0.076099999 0.88300002
-0.1788 -0.076200001 0.884
-0.17730001 -0.076200001 0.884
-0.1758 -0.076200001 0.884
-0.17399999 -0.076099999 0.88300002
-0.1725 -0.076099999 0.88300002
-0.1708 -0.075999998 0.88200003
-0.1693 -0.075999998 0.88200003
-0.16599999 -0.075999998 0.88099998
-0.1631 -0.075999998 0.88200003
-0.162 -0.076200001 0.884
-0.16060001 -0.076300003 0.88499999
-0.1558 -0.076200001 0.884
-0.1524 -0.075999998 0.88200003
-0.15090001 -0.075999998 0.88200003
-0.1494 -0.075999998 0.88200003
-0.1479 -0.075999998 0.88200003
-0.1463 -0.075999998 0.88200003
-0.1451 -0.076200001 0.884
-0.1434 -0.076099999 0.88300002
-0.1419 -0.076099999 0.88300002
-0.14040001 -0.076099999 0.88300002
-0.139 -0.076200001 0.884
-0.1375 -0.076200001 0.884
-0.13590001 -0.076200001 0.884
-0.1346 -0.076300003 0.88499999
-0.1332 -0.076399997 0.88599998
-0.13160001 -0.076399997 0.88599998
-0.12989999 -0.076300003 0.88499999
-0.1283 -0.076200001 0.884
-0.1266 -0.076099999 0.88300002
-0.1248 -0.075999998 0.88099998
-0.121 -0.075499997 0.87599999
-0.1192 -0.075300001 0.87400001
-0.1175 -0.075199999 0.87199998
-0.1158 -0.075099997 0.87099999
-0.1142 -0.075000003 0.87
-0.1127 -0.075000003 0.87
-0.1112 -0.075000003 0.87
-0.1099 -0.075199999 0.87199998
-0.1085 -0.075300001 0.87300003
-0.1075 -0.075599998 0.87699997
-0.1065 -0.075999998 0.88099998
-0.1051 -0.075999998 0.88200003
-0.1035 -0.075999998 0.88200003
-0.102 -0.075999998 0.88200003
-0.1006 -0.076099999 0.88300002
-0.098999999 -0.076099999 0.88300002
-0.097400002 -0.075999998 0.88200003
-0.095899999 -0.075999998 0.88200003
-0.094099998 -0.075900003 0.88
-0.092500001 -0.075800002 0.87900001
-0.090899996 -0.0757 0.87800002
-0.089400001 -0.0757 0.87800002
-0.087700002 -0.075599998 0.87699997
-0.086199999 -0.075599998 0.87699997
-0.084799998 -0.0757 0.87800002
-0.083499998 -0.075900003 0.88
-0.082000002 -0.075999998 0.88099998
-0.080499999 -0.075999998 0.88099998
-0.079099998 -0.075999998 0.88200003
-0.077699997 -0.076200001 0.884
-0.076200001 -0.076200001 0.884
-0.074699998 -0.076300003 0.88499999
-0.073200002 -0.076300003 0.88499999
-0.071699999 -0.076300003 0.88499999
-0.070200004 -0.076399997 0.88599998
-0.068700001 -0.076399997 0.88599998
-0.067100003 -0.076300003 0.88499999
-0.065499999 -0.076300003 0.88499999
-0.064099997 -0.076399997 0.88599998
-0.0625 -0.076399997 0.88599998
-0.061000001 -0.076399997 0.88599998
-0.059500001 -0.076399997 0.88599998
-0.057999998 -0.076499999 0.88700002
-0.056400001 -0.076399997 0.88599998
-0.054900002 -0.076399997 0.88599998
-0.053300001 -0.076300003 0.88499999
-0.0517 -0.076300003 0.88499999
-0.0502 -0.076300003 0.88499999
-0.048599999 -0.076200001 0.884
-0.0471 -0.076300003 0.88499999
-0.045600001 -0.076399997 0.88599998
-0.044199999 -0.0766 0.88800001
-0.0427 -0.0766 0.88800001
-0.041200001 -0.0766 0.889
-0.0396 -0.0766 0.889
-0.037999999 -0.0766 0.88800001
-0.035 -0.0766 0.88800001
-0.033399999 -0.076399997 0.88599998
-0.031800002 -0.076300003 0.88499999
-0.030200001 -0.076200001 0.884
-0.0287 -0.076200001 0.884
-0.0211 -0.0766 0.88800001
-0.0196 -0.0766 0.88800001
-0.018100001 -0.076700002 0.88999999
-0.0166 -0.076800004 0.89099997
-0.015 -0.076899998 0.89200002
-0.0135 -0.076899998 0.89200002
-0.0119 -0.076899998 0.89200002
-0.0104 -0.077 0.89300001
-0.0088999998 -0.077 0.89300001
-0.0073000002 -0.077100001 0.89399999
-0.0057999999 -0.077200003 0.89600003
-0.0041999999 -0.077399999 0.898
-0.0027000001 -0.077699997 0.90100002
-0.0011 -0.077600002 0.89999998
0.0035000001 -0.076800004 0.89099997
0.0051000002 -0.076700002 0.88999999
0.0066 -0.076700002 0.88999999
0.0081000002 -0.0766 0.88800001
0.0097000003 -0.0766 0.88800001
0.0112 -0.0766 0.88800001
0.0127 -0.0766 0.88800001
0.0143 -0.0766 0.88800001
0.015799999 -0.0766 0.88800001
0.0173 -0.076499999 0.88700002
0.0189 -0.076499999 0.88700002
0.020400001 -0.076499999 0.88700002
0.022 -0.0766 0.88800001
0.023499999 -0.0766 0.88800001
0.0251 -0.0766 0.88800001
0.0266 -0.0766 0.88800001
0.028200001 -0.0766 0.889
0.0297 -0.076700002 0.88999999
0.031300001 -0.076700002 0.88999999
0.0328 -0.076700002 0.88999999
0.034400001 -0.076700002 0.88999999
0.0359 -0.076700002 0.88999999
0.0374 -0.076700002 0.88999999
0.038899999 -0.0766 0.88800001
0.040399998 -0.0766 0.88800001
0.041900001 -0.076499999 0.88700002
0.043499999 -0.0766 0.88800001
0.045200001 -0.076700002 0.88999999
0.046799999 -0.076800004 0.89099997
0.048300002 -0.076800004 0.89099997
0.051399998 -0.076899998 0.89200002
0.052900001 -0.076800004 0.89099997
0.054400001 -0.076700002 0.88999999
0.0559 -0.0766 0.889
0.057399999 -0.0766 0.88800001
0.058899999 -0.0766 0.88800001
0.060400002 -0.0766 0.88800001
0.061999999 -0.0766 0.88800001
0.063500002 -0.0766 0.88800001
0.065099999 -0.0766 0.88800001
0.066600002 -0.0766 0.88800001
0.068099998 -0.076499999 0.88700002
0.069499999 -0.076399997 0.88599998
0.071099997 -0.076499999 0.88700002
0.0726 -0.076399997 0.88599998
0.074100003 -0.076399997 0.88599998
0.0757 -0.076399997 0.88599998
0.077100001 -0.076300003 0.88499999
0.078699999 -0.076399997 0.88599998
0.080399998 -0.076499999 0.88700002
0.081900001 -0.076499999 0.88700002
0.083499998 -0.0766 0.88800001
0.085299999 -0.076700002 0.88999999
0.086900003 -0.076800004 0.89099997
0.088699996 -0.077100001 0.89399999
0.092100002 -0.077200003 0.89600003
0.093599997 -0.077200003 0.89600003
0.096900001 -0.077399999 0.898
0.0986 -0.077500001 0.89899999
0.1001 -0.077500001 0.89899999
0.1017 -0.077500001 0.89899999
0.103 -0.077299997 0.89700001
0.1045 -0.077200003 0.89600003
0.1058 -0.077100001 0.89399999
0.107 -0.076800004 0.89099997
0.1085 -0.076800004 0.89099997
0.1101 -0.076800004 0.89099997
0.1119 -0.077 0.89300001
0.1138 -0.077200003 0.89600003
0.1153 -0.077200003 0.89600003
0.117 -0.077299997 0.89700001
0.1187 -0.077399999 0.898
0.1203 -0.077399999 0.898
0.1218 -0.077399999 0.898
0.1234 -0.077399999 0.898
0.1248 -0.077299997 0.89700001
0.12639999 -0.077299997 0.89700001
0.1279 -0.077299997 0.89700001
0.1292 -0.077200003 0.89499998
0.1304 -0.077 0.89300001
0.1318 -0.076899998 0.89200002
0.13339999 -0.076899998 0.89200002
0.1349 -0.076899998 0.89200002
0.1365 -0.076899998 0.89200002
0.1382 -0.077 0.89300001
0.13959999 -0.076899998 0.89200002
0.1411 -0.076899998 0.89200002
0.1428 -0.077 0.89300001
0.1442 -0.076899998 0.89200002
0.14560001 -0.076800004 0.89099997
0.147 -0.076700002 0.88999999
0.1499 -0.0766 0.889
0.1514 -0.0766 0.889
0.15260001 -0.076499999 0.88700002
0.1543 -0.0766 0.88800001
0.1559 -0.0766 0.88800001
0.1593 -0.076700002 0.88999999
0.1622 -0.0766 0.889
0.1637 -0.0766 0.889
0.1665 -0.076499999 0.88700002
0.168 -0.076499999 0.88700002
0.17110001 -0.076499999 0.88700002
0.1728 -0.0766 0.88800001
0.1743 -0.0766 0.88800001
0.1759 -0.0766 0.88800001
0.17739999 -0.0766 0.88800001
0.17919999 -0.0766 0.889
0.1824 -0.076700002 0.88999999
0.1838 -0.0766 0.889
0.18709999 -0.076700002 0.88999999
0.4928 -0.1415 1.641
-0.38389999 -0.073700003 0.87300003
-0.38280001 -0.073799998 0.87400001
-0.38170001 -0.073899999 0.875
-0.3793 -0.073700003 0.87300003
-0.35620001 -0.073700003 0.87199998
-0.3524 -0.0735 0.87
-0.34979999 -0.073600002 0.87099999
-0.3222 -0.074199997 0.87800002
-0.3195 -0.074299999 0.87900001
-0.31830001 -0.074299999 0.88
-0.3175 -0.074500002 0.88200003
-0.31670001 -0.074699998 0.884
-0.3152 -0.074699998 0.884
-0.31400001 -0.0748 0.88499999
-0.3125 -0.0748 0.88499999
-0.31060001 -0.074699998 0.884
-0.30500001 -0.0744 0.88099998
-0.296 -0.074100003 0.87699997
-0.29480001 -0.074199997 0.87800002
-0.2933 -0.074199997 0.87800002
-0.2911 -0.074000001 0.87599999
-0.28920001 -0.073899999 0.875
-0.26859999 -0.074500002 0.88200003
-0.26679999 -0.0744 0.88099998
-0.264 -0.074100003 0.87699997
-0.26159999 -0.073799998 0.87400001
-0.25979999 -0.073700003 0.87300003
-0.25830001 -0.073700003 0.87300003
-0.25709999 -0.073799998 0.87400001
-0.25560001 -0.073799998 0.87400001
-0.2538 -0.073700003 0.87300003
-0.25279999 -0.073899999 0.875
-0.25189999 -0.074100003 0.87699997
-0.25119999 -0.074299999 0.88
-0.25029999 -0.074500002 0.88200003
-0.24869999 -0.074500002 0.88200003
-0.2475 -0.074600004 0.88300002
-0.24600001 -0.074600004 0.88300002
-0.24420001 -0.074500002 0.88200003
-0.24259999 -0.074500002 0.88200003
-0.24079999 -0.0744 0.88099998
-0.2393 -0.0744 0.88099998
-0.23800001 -0.074500002 0.88200003
-0.23649999 -0.074500002 0.88200003
-0.23370001 -0.074600004 0.88300002
-0.2325 -0.074699998 0.884
-0.22939999 -0.074699998 0.884
-0.2279 -0.074699998 0.884
-0.2261 -0.074600004 0.88300002
-0.2243 -0.074500002 0.88200003
-0.2228 -0.074500002 0.88200003
-0.21610001 -0.074299999 0.88
-0.2149 -0.0744 0.88099998
-0.2123 -0.074600004 0.88300002
-0.211 -0.074699998 0.884
-0.2097 -0.0748 0.88499999
-0.2086 -0.074900001 0.88700002
-0.2069 -0.0748 0.88599998
-0.2053 -0.0748 0.88599998
-0.18610001 -0.074500002 0.88200003
-0.1847 -0.074600004 0.88300002
-0.1832 -0.074600004 0.88300002
-0.18170001 -0.074600004 0.88300002
-0.18000001 -0.074500002 0.88200003
-0.1788 -0.074699998 0.884
-0.17730001 -0.074699998 0.884
-0.1758 -0.074699998 0.884
-0.1742 -0.074699998 0.884
-0.1727 -0.074699998 0.884
-0.17120001 -0.074699998 0.884
-0.1696 -0.074699998 0.884
-0.16769999 -0.074500002 0.88200003
-0.1662 -0.074500002 0.88200003
-0.1647 -0.074500002 0.88200003
-0.1631 -0.074500002 0.88200003
-0.1604 -0.074699998 0.884
-0.15889999 -0.074699998 0.884
-0.1574 -0.074699998 0.884
-0.15530001 -0.0744 0.88099998
-0.1517 -0.074199997 0.87800002
-0.1504 -0.074299999 0.87900001
-0.1489 -0.074299999 0.87900001
-0.1477 -0.0744 0.88099998
-0.1462 -0.0744 0.88099998
-0.14480001 -0.074500002 0.88200003
-0.1434 -0.074600004 0.88300002
-0.1419 -0.074600004 0.88300002
-0.1402 -0.074500002 0.88200003
-0.13869999 -0.074500002 0.88200003
-0.1373 -0.074600004 0.88300002
-0.13590001 -0.074699998 0.884
-0.1346 -0.0748 0.88499999
-0.1332 -0.0748 0.88599998
-0.13160001 -0.0748 0.88599998
-0.12989999 -0.0748 0.88499999
-0.1283 -0.074699998 0.884
-0.1266 -0.074600004 0.88300002
-0.1249 -0.074500002 0.88200003
-0.121 -0.074000001 0.87599999
-0.1191 -0.073700003 0.87300003
-0.1175 -0.073700003 0.87199998
-0.1158 -0.073600002 0.87099999
-0.1142 -0.0735 0.87
-0.1127 -0.0735 0.87
-0.1112 -0.0735 0.87
-0.1099 -0.073700003 0.87199998
-0.1085 -0.073700003 0.87300003
-0.1075 -0.074100003 0.87699997
-0.1063 -0.074299999 0.88
-0.1049 -0.0744 0.88099998
-0.1035 -0.074500002 0.88200003
-0.102 -0.074500002 0.88200003
-0.1005 -0.074500002 0.88200003
-0.098800004 -0.0744 0.88099998
-0.097199999 -0.074299999 0.88
-0.095600002 -0.074299999 0.87900001
-0.093900003 -0.074199997 0.87800002
-0.092399999 -0.074199997 0.87800002
-0.090800002 -0.074100003 0.87699997
-0.089400001 -0.074199997 0.87800002
-0.087800004 -0.074199997 0.87800002
-0.086400002 -0.074299999 0.87900001
-0.084899999 -0.074299999 0.87900001
-0.0836 -0.0744 0.88099998
-0.082099997 -0.074500002 0.88200003
-0.079099998 -0.074500002 0.88200003
-0.077600002 -0.074600004 0.88300002
-0.076099999 -0.074600004 0.88300002
-0.074600004 -0.074699998 0.884
-0.073100001 -0.074699998 0.884
-0.071599998 -0.074699998 0.884
-0.070100002 -0.0748 0.88499999
-0.068599999 -0.0748 0.88499999
-0.067100003 -0.0748 0.88499999
-0.065499999 -0.0748 0.88499999
-0.064000003 -0.0748 0.88499999
-0.0625 -0.0748 0.88499999
-0.061000001 -0.0748 0.88599998
-0.059500001 -0.0748 0.88599998
-0.0579 -0.0748 0.88599998
-0.056400001 -0.0748 0.88599998
-0.054900002 -0.074900001 0.88700002
-0.053300001 -0.0748 0.88599998
-0.0517 -0.0748 0.88499999
-0.0502 -0.0748 0.88499999
-0.048700001 -0.0748 0.88499999
-0.0471 -0.0748 0.88499999
-0.045600001 -0.0748 0.88499999
-0.044100001 -0.0748 0.88599998
-0.042599998 -0.074900001 0.88700002
-0.041099999 -0.074900001 0.88700002
-0.039500002 -0.074900001 0.88700002
-0.034899998 -0.074900001 0.88700002
-0.033399999 -0.0748 0.88599998
-0.030200001 -0.074600004 0.88300002
-0.0286 -0.074500002 0.88200003
-0.027100001 -0.074500002 0.88200003
-0.025599999 -0.074600004 0.88300002
-0.0241 -0.074600004 0.88300002
-0.0196 -0.075000003 0.88800001
-0.018100001 -0.075099997 0.889
-0.0166 -0.075300001 0.89099997
-0.015 -0.075400002 0.89200002
-0.0135 -0.075400002 0.89200002
-0.012 -0.075400002 0.89300001
-0.0104 -0.075400002 0.89300001
-0.0088999998 -0.075499997 0.89399999
-0.0073000002 -0.075599998 0.89499998
-0.0057999999 -0.0757 0.89600003
-0.0041999999 -0.075900003 0.898
-0.0027000001 -0.076099999 0.90100002
-0.0011 -0.076099999 0.90100002
0.00039999999 -0.075800002 0.89700001
