# .PCD v0.7 - Point Cloud Data file format
VERSION 0.7
FIELDS x y z
SIZE 4 4 4
TYPE F F F
COUNT 1 1 1
WIDTH 1693
HEIGHT 1
VIEWPOINT 0 0 0 1 0 0 0
POINTS 1693
DATA ascii
-0.045000002 0.2242 0.903
-0.043400001 0.2242 0.903
-0.041900001 0.2244 0.90399998
-0.0403 0.2247 0.90499997
-0.038699999 0.2244 0.90399998
-0.037099998 0.2242 0.903
-0.035599999 0.2244 0.90399998
-0.034000002 0.2242 0.903
-0.032400001 0.22400001 0.90200001
-0.0308 0.2237 0.90100002
-0.029200001 0.2237 0.90100002
-0.0277 0.2237 0.90100002
-0.0261 0.2235 0.89999998
-0.024499999 0.22319999 0.89899999
-0.0229 0.223 0.898
-0.0198 0.223 0.898
-0.018200001 0.223 0.898
-0.0167 0.2235 0.89999998
-0.0152 0.2237 0.90100002
-0.0136 0.2237 0.90100002
-0.0105 0.2242 0.903
-0.0074 0.2244 0.90399998
-0.0057999999 0.2244 0.90399998
-0.0043000001 0.2242 0.903
-0.0027000001 0.2242 0.903
0.0051000002 0.2242 0.903
0.0066999998 0.2247 0.90499997
0.0082999999 0.2247 0.90499997
0.0114 0.2252 0.90700001
0.013 0.2252 0.90700001
0.0146 0.2252 0.90700001
0.0177 0.2252 0.90700001
0.019300001 0.2252 0.90700001
0.0208 0.2247 0.90499997
0.022399999 0.2247 0.90499997
0.024 0.2247 0.90499997
0.0288 0.2254 0.90799999
0.030300001 0.2254 0.90799999
0.033500001 0.22570001 0.90899998
0.036600001 0.2254 0.90799999
0.038199998 0.2252 0.90700001
0.039700001 0.22490001 0.90600002
0.041299999 0.22490001 0.90600002
0.042800002 0.2247 0.90499997
0.044399999 0.22490001 0.90600002
0.045899998 0.2247 0.90499997
0.047499999 0.2247 0.90499997
0.0491 0.22490001 0.90600002
0.050700001 0.22490001 0.90600002
0.052200001 0.2247 0.90499997
0.053800002 0.2247 0.90499997
0.055300001 0.2244 0.90399998
0.0568 0.2242 0.903
0.0583 0.2242 0.903
0.061299998 0.2235 0.89999998
0.062899999 0.2237 0.90100002
0.064599998 0.2242 0.903
0.066200003 0.2242 0.903
0.0678 0.2244 0.90399998
0.069399998 0.2247 0.90499997
0.071199998 0.2252 0.90700001
0.072700001 0.2252 0.90700001
0.074299999 0.2252 0.90700001
0.075900003 0.2252 0.90700001
0.077600002 0.22570001 0.90899998
0.079499997 0.2264 0.912
0.081100002 0.22669999 0.91299999
0.082800001 0.2269 0.91399997
0.087899998 0.2279 0.91799998
0.090499997 0.2264 0.912
0.091799997 0.22570001 0.90899998
0.094800003 0.2252 0.90700001
0.096199997 0.22490001 0.90600002
0.1009 0.22490001 0.90600002
0.1025 0.22490001 0.90600002
0.1091 0.22570001 0.90899998
0.1108 0.22589999 0.91000003
0.1153 0.2254 0.90799999
0.1168 0.2252 0.90700001
0.1196 0.2247 0.90499997
0.1212 0.2247 0.90499997
0.1226 0.2244 0.90399998
0.1241 0.2242 0.903
0.13349999 0.2242 0.903
0.1353 0.2247 0.90499997
0.13699999 0.22490001 0.90600002
0.1388 0.2252 0.90700001
0.14049999 0.2254 0.90799999
0.14210001 0.2254 0.90799999
0.1436 0.2254 0.90799999
0.1452 0.2254 0.90799999
0.14839999 0.2254 0.90799999
0.1529 0.2252 0.90700001
0.15449999 0.2252 0.90700001
0.1561 0.2252 0.90700001
0.1576 0.2252 0.90700001
0.15889999 0.2247 0.90499997
0.1604 0.2247 0.90499997
0.162 0.2247 0.90499997
0.1636 0.2247 0.90499997
0.16509999 0.2247 0.90499997
0.1706 0.22570001 0.90899998
0.1743 0.2264 0.912
-0.4136 0.222 0.88800001
-0.3874 0.2203 0.88099998
-0.3872 0.221 0.884
-0.38569999 0.221 0.884
-0.3705 0.222 0.88800001
-0.36849999 0.2218 0.88700002
-0.36700001 0.2218 0.88700002
-0.36539999 0.2218 0.88700002
-0.3635 0.22149999 0.88599998
-0.36160001 0.22130001 0.88499999
-0.36000001 0.22130001 0.88499999
-0.3581 0.221 0.884
-0.3497 0.2225 0.88999999
-0.34819999 0.2225 0.88999999
-0.347 0.2228 0.89099997
-0.3459 0.223 0.89200002
-0.34470001 0.2233 0.89300001
-0.33430001 0.2225 0.88999999
-0.33270001 0.2225 0.88999999
-0.3308 0.22229999 0.889
-0.32929999 0.22229999 0.889
-0.3274 0.222 0.88800001
-0.3258 0.222 0.88800001
-0.32390001 0.2218 0.88700002
-0.3224 0.2218 0.88700002
-0.32089999 0.2218 0.88700002
-0.3193 0.2218 0.88700002
-0.31279999 0.22149999 0.88599998
-0.31200001 0.222 0.88800001
-0.31119999 0.2225 0.88999999
-0.3107 0.2233 0.89300001
-0.31009999 0.22400001 0.89600003
-0.30770001 0.2245 0.898
-0.3062 0.2245 0.898
-0.3046 0.2245 0.898
-0.30239999 0.22400001 0.89600003
-0.3012 0.2243 0.89700001
-0.29929999 0.22400001 0.89600003
-0.24609999 0.22229999 0.889
-0.2448 0.2225 0.88999999
-0.24330001 0.2225 0.88999999
-0.24169999 0.2225 0.88999999
-0.2405 0.2228 0.89099997
-0.2395 0.2233 0.89300001
-0.2392 0.2245 0.898
-0.23819999 0.22499999 0.89999998
-0.2325 0.2255 0.90200001
-0.2307 0.2253 0.90100002
-0.2286 0.22480001 0.89899999
-0.22679999 0.2245 0.898
-0.2252 0.2245 0.898
-0.2237 0.2245 0.898
-0.2221 0.2245 0.898
-0.2203 0.2243 0.89700001
-0.219 0.2245 0.898
-0.2175 0.2245 0.898
-0.2159 0.2245 0.898
-0.21359999 0.2238 0.89499998
-0.2111 0.2228 0.89099997
-0.2093 0.2225 0.88999999
-0.2076 0.22229999 0.889
-0.2058 0.222 0.88800001
-0.2043 0.222 0.88800001
-0.2027 0.222 0.88800001
-0.2016 0.2225 0.88999999
-0.2001 0.2225 0.88999999
-0.1988 0.2228 0.89099997
-0.19750001 0.223 0.89200002
-0.1961 0.2233 0.89300001
-0.19499999 0.2238 0.89499998
-0.1937 0.22400001 0.89600003
-0.1921 0.22400001 0.89600003
-0.1904 0.2238 0.89499998
-0.18880001 0.2238 0.89499998
-0.1873 0.2238 0.89499998
-0.1855 0.2235 0.89399999
-0.1837 0.2233 0.89300001
-0.182 0.223 0.89200002
-0.1804 0.223 0.89200002
-0.1787 0.2228 0.89099997
-0.1772 0.2228 0.89099997
-0.17560001 0.2228 0.89099997
-0.17389999 0.2225 0.88999999
-0.1725 0.2228 0.89099997
-0.1708 0.2225 0.88999999
-0.1691 0.22229999 0.889
-0.1675 0.22229999 0.889
-0.1662 0.2225 0.88999999
-0.16329999 0.2228 0.89099997
-0.1617 0.2228 0.89099997
-0.16 0.2225 0.88999999
-0.1583 0.22229999 0.889
-0.1569 0.2225 0.88999999
-0.1538 0.2225 0.88999999
-0.14929999 0.22499999 0.89999998
-0.1481 0.2255 0.90200001
-0.1464 0.2253 0.90100002
-0.14480001 0.2253 0.90100002
-0.1373 0.22579999 0.903
-0.1357 0.22579999 0.903
-0.13429999 0.226 0.90399998
-0.13259999 0.22579999 0.903
-0.131 0.22579999 0.903
-0.1295 0.22579999 0.903
-0.1276 0.2253 0.90100002
-0.1261 0.2253 0.90100002
-0.1245 0.2253 0.90100002
-0.1228 0.22499999 0.89999998
-0.1214 0.2253 0.90100002
-0.1197 0.22499999 0.89999998
-0.1164 0.22480001 0.89899999
-0.1146 0.2243 0.89700001
-0.1131 0.2243 0.89700001
-0.1081 0.2238 0.89499998
-0.1066 0.2238 0.89499998
-0.1052 0.22400001 0.89600003
-0.1036 0.22400001 0.89600003
-0.1019 0.2238 0.89499998
-0.1004 0.2238 0.89499998
-0.098800004 0.2238 0.89499998
-0.097400002 0.22400001 0.89600003
-0.096000001 0.2243 0.89700001
-0.094499998 0.2245 0.898
-0.091499999 0.22480001 0.89899999
-0.089900002 0.22480001 0.89899999
-0.088299997 0.2245 0.898
-0.086599998 0.2243 0.89700001
-0.084899999 0.2238 0.89499998
-0.083300002 0.2238 0.89499998
-0.081799999 0.2238 0.89499998
-0.0801 0.2235 0.89399999
-0.078699999 0.2238 0.89499998
-0.0757 0.22400001 0.89600003
-0.072800003 0.22480001 0.89899999
-0.069799997 0.2253 0.90100002
-0.0669 0.22579999 0.903
-0.065300003 0.22579999 0.903
-0.063699998 0.22579999 0.903
-0.062199999 0.22579999 0.903
-0.060600001 0.22579999 0.903
-0.059 0.22579999 0.903
-0.057500001 0.22579999 0.903
-0.056000002 0.226 0.90399998
-0.054499999 0.2263 0.90499997
-0.0528 0.226 0.90399998
-0.051199999 0.22579999 0.903
-0.049600001 0.22579999 0.903
-0.048 0.2255 0.90200001
-0.0418 0.22579999 0.903
-0.0403 0.226 0.90399998
-0.038699999 0.226 0.90399998
-0.037099998 0.22579999 0.903
-0.035599999 0.22579999 0.903
-0.034000002 0.22579999 0.903
-0.032400001 0.2253 0.90100002
-0.0308 0.2253 0.90100002
-0.029200001 0.2253 0.90100002
-0.0276 0.22499999 0.89999998
-0.0261 0.22499999 0.89999998
-0.024499999 0.22480001 0.89899999
-0.0229 0.2245 0.898
-0.0198 0.2245 0.898
-0.018200001 0.2245 0.898
-0.0167 0.22499999 0.89999998
-0.0152 0.2253 0.90100002
-0.0136 0.2253 0.90100002
-0.0121 0.2255 0.90200001
-0.0105 0.22579999 0.903
-0.0089999996 0.226 0.90399998
-0.0074 0.2263 0.90499997
-0.0057999999 0.2263 0.90499997
-0.0011 0.2263 0.90499997
0.0035999999 0.22579999 0.903
0.0051000002 0.22579999 0.903
0.0066999998 0.2263 0.90499997
0.0082999999 0.2263 0.90499997
0.013 0.227 0.90799999
0.0146 0.22679999 0.90700001
0.0162 0.22679999 0.90700001
0.0177 0.22679999 0.90700001
0.019300001 0.22679999 0.90700001
0.0208 0.2265 0.90600002
0.022399999 0.2265 0.90600002
0.024 0.2263 0.90499997
0.025599999 0.22679999 0.90700001
0.0272 0.22679999 0.90700001
0.0287 0.22679999 0.90700001
0.030300001 0.227 0.90799999
0.0319 0.2273 0.90899998
0.033500001 0.2273 0.90899998
0.035100002 0.227 0.90799999
0.036600001 0.227 0.90799999
0.038199998 0.22679999 0.90700001
0.039700001 0.22679999 0.90700001
0.041299999 0.22679999 0.90700001
0.042800002 0.2263 0.90499997
0.044399999 0.2263 0.90499997
0.045899998 0.2263 0.90499997
0.047499999 0.2263 0.90499997
0.0491 0.2263 0.90499997
0.0506 0.2263 0.90499997
0.052200001 0.2263 0.90499997
0.0537 0.226 0.90399998
0.055199999 0.22579999 0.903
0.0568 0.22579999 0.903
0.0583 0.22579999 0.903
0.059799999 0.2255 0.90200001
0.061299998 0.2253 0.90100002
0.063000001 0.22579999 0.903
0.0647 0.226 0.90399998
0.066299997 0.2263 0.90499997
0.067900002 0.2263 0.90499997
0.069499999 0.2265 0.90600002
0.071199998 0.22679999 0.90700001
0.072800003 0.227 0.90799999
0.0744 0.227 0.90799999
0.076099999 0.2273 0.90899998
0.077799998 0.2278 0.91100001
0.079599999 0.22849999 0.91399997
0.081200004 0.22849999 0.91399997
0.082999997 0.229 0.91600001
0.084899999 0.2298 0.91900003
0.086599998 0.23029999 0.921
0.088 0.2298 0.91900003
0.089400001 0.22930001 0.917
0.091899998 0.22750001 0.91000003
0.093400002 0.2273 0.90899998
0.094899997 0.227 0.90799999
0.096299998 0.22679999 0.90700001
0.0977 0.2263 0.90499997
0.099200003 0.2263 0.90499997
0.1009 0.2265 0.90600002
0.1058 0.22679999 0.90700001
0.1074 0.227 0.90799999
0.1107 0.2273 0.90899998
0.1137 0.227 0.90799999
0.1153 0.227 0.90799999
0.1168 0.22679999 0.90700001
0.1182 0.2265 0.90600002
0.1196 0.2263 0.90499997
0.1212 0.2263 0.90499997
0.1226 0.226 0.90399998
0.1241 0.22579999 0.903
0.1332 0.2253 0.90100002
0.13500001 0.22579999 0.903
0.13689999 0.2263 0.90499997
0.1388 0.22679999 0.90700001
0.14049999 0.227 0.90799999
0.14210001 0.227 0.90799999
0.1436 0.227 0.90799999
0.1452 0.227 0.90799999
0.14839999 0.227 0.90799999
0.1498 0.22679999 0.90700001
0.1529 0.22679999 0.90700001
0.15449999 0.22679999 0.90700001
0.1561 0.22679999 0.90700001
0.1575 0.2265 0.90600002
0.15889999 0.2263 0.90499997
0.1604 0.2263 0.90499997
0.162 0.2263 0.90499997
0.1636 0.2263 0.90499997
0.16509999 0.2263 0.90499997
0.18340001 0.2295 0.91799998
-0.41600001 0.22409999 0.88999999
-0.4136 0.2236 0.88800001
-0.38780001 0.222 0.88200003
-0.3876 0.2228 0.88499999
-0.3874 0.2281 0.90600002
-0.3689 0.2236 0.88800001
-0.36700001 0.2233 0.88700002
-0.35049999 0.2236 0.88800001
-0.3497 0.22409999 0.88999999
-0.3486 0.2243 0.89099997
-0.34630001 0.22480001 0.89300001
-0.33430001 0.22409999 0.88999999
-0.33270001 0.22409999 0.88999999
-0.3312 0.22409999 0.88999999
-0.32929999 0.2238 0.889
-0.3274 0.2236 0.88800001
-0.3258 0.2236 0.88800001
-0.32390001 0.2233 0.88700002
-0.3224 0.2233 0.88700002
-0.32120001 0.2236 0.88800001
-0.3197 0.2236 0.88800001
-0.31299999 0.2243 0.89099997
-0.31220001 0.22480001 0.89300001
-0.3114 0.2253 0.89499998
-0.3105 0.22579999 0.89700001
-0.31 0.22660001 0.89999998
-0.30840001 0.22660001 0.89999998
-0.30689999 0.22660001 0.89999998
-0.3053 0.22660001 0.89999998
-0.3037 0.22660001 0.89999998
-0.29660001 0.2271 0.90200001
-0.2464 0.22409999 0.88999999
-0.2446 0.2238 0.889
-0.24330001 0.22409999 0.88999999
-0.24169999 0.22409999 0.88999999
-0.2405 0.2243 0.89099997
-0.2359 0.2273 0.903
-0.2343 0.2273 0.903
-0.2307 0.22679999 0.90100002
-0.22679999 0.2261 0.898
-0.22499999 0.22579999 0.89700001
-0.2234 0.22579999 0.89700001
-0.2219 0.22579999 0.89700001
-0.2201 0.2256 0.89600003
-0.2185 0.2256 0.89600003
-0.2172 0.22579999 0.89700001
-0.2157 0.22579999 0.89700001
-0.21359999 0.2253 0.89499998
-0.2111 0.2243 0.89099997
-0.2093 0.22409999 0.88999999
-0.2078 0.22409999 0.88999999
-0.2058 0.2236 0.88800001
-0.2043 0.2236 0.88800001
-0.2027 0.2236 0.88800001
-0.2016 0.22409999 0.88999999
-0.2001 0.22409999 0.88999999
-0.1988 0.2243 0.89099997
-0.1972 0.2243 0.89099997
-0.1961 0.22480001 0.89300001
-0.1901 0.2251 0.89399999
-0.1886 0.2251 0.89399999
-0.18700001 0.2251 0.89399999
-0.18529999 0.22480001 0.89300001
-0.18350001 0.2246 0.89200002
-0.182 0.2246 0.89200002
-0.1804 0.2246 0.89200002
-0.1789 0.2246 0.89200002
-0.17739999 0.2246 0.89200002
-0.17560001 0.2243 0.89099997
-0.1741 0.2243 0.89099997
-0.1727 0.2246 0.89200002
-0.1692 0.22409999 0.88999999
-0.16769999 0.22409999 0.88999999
-0.1663 0.2243 0.89099997
-0.1646 0.22409999 0.88999999
-0.1631 0.22409999 0.88999999
-0.16140001 0.2238 0.889
-0.1596 0.2236 0.88800001
-0.15790001 0.2233 0.88700002
-0.15350001 0.2236 0.88800001
-0.1512 0.22480001 0.89300001
-0.15000001 0.2253 0.89499998
-0.149 0.2261 0.898
-0.1479 0.22679999 0.90100002
-0.1464 0.22679999 0.90100002
-0.1417 0.22679999 0.90100002
-0.1389 0.2273 0.903
-0.1373 0.2273 0.903
-0.13590001 0.22759999 0.90399998
-0.1345 0.2278 0.90499997
-0.131 0.2273 0.903
-0.1295 0.2273 0.903
-0.1278 0.2271 0.90200001
-0.12620001 0.2271 0.90200001
-0.1245 0.22679999 0.90100002
-0.1229 0.22679999 0.90100002
-0.1214 0.22679999 0.90100002
-0.1198 0.22679999 0.90100002
-0.1181 0.22660001 0.89999998
-0.1166 0.22660001 0.89999998
-0.1066 0.2253 0.89499998
-0.105 0.2253 0.89499998
-0.1036 0.2256 0.89600003
-0.1019 0.2253 0.89499998
-0.1003 0.2251 0.89399999
-0.098800004 0.2253 0.89499998
-0.0973 0.2253 0.89499998
-0.094499998 0.2261 0.898
-0.092900001 0.2261 0.898
-0.091499999 0.2263 0.89899999
-0.089900002 0.2263 0.89899999
-0.088299997 0.2261 0.898
-0.086599998 0.22579999 0.89700001
-0.084899999 0.2253 0.89499998
-0.083300002 0.2253 0.89499998
-0.081699997 0.2251 0.89399999
-0.0801 0.2251 0.89399999
-0.078699999 0.2253 0.89499998
-0.077200003 0.2256 0.89600003
-0.0757 0.22579999 0.89700001
-0.072899997 0.22660001 0.89999998
-0.071400002 0.22679999 0.90100002
-0.07 0.2273 0.903
-0.068400003 0.2273 0.903
-0.0669 0.22759999 0.90399998
-0.065399997 0.2278 0.90499997
-0.0638 0.22759999 0.90399998
-0.062199999 0.22759999 0.90399998
-0.060600001 0.2273 0.903
-0.059 0.2273 0.903
-0.057500001 0.2273 0.903
-0.0559 0.2273 0.903
-0.054400001 0.22759999 0.90399998
-0.0528 0.2273 0.903
-0.051199999 0.2273 0.903
-0.049600001 0.2271 0.90200001
-0.048099998 0.2273 0.903
-0.043400001 0.2273 0.903
-0.0418 0.2273 0.903
-0.0403 0.2273 0.903
-0.038699999 0.2273 0.903
-0.037099998 0.2271 0.90200001
-0.035500001 0.22679999 0.90100002
-0.0339 0.22679999 0.90100002
-0.032299999 0.22660001 0.89999998
-0.0308 0.22660001 0.89999998
-0.029200001 0.22679999 0.90100002
-0.0276 0.22660001 0.89999998
-0.0261 0.22679999 0.90100002
-0.024499999 0.22660001 0.89999998
-0.023 0.22660001 0.89999998
-0.021400001 0.22660001 0.89999998
-0.0198 0.2261 0.898
-0.018200001 0.2261 0.898
-0.0167 0.22660001 0.89999998
-0.0152 0.22679999 0.90100002
-0.0136 0.22679999 0.90100002
-0.0121 0.22679999 0.90100002
-0.0105 0.2273 0.903
-0.0089999996 0.22759999 0.90399998
-0.0074 0.2278 0.90499997
-0.0057999999 0.2281 0.90600002
0.0020000001 0.22679999 0.90100002
0.0035999999 0.22679999 0.90100002
0.0051000002 0.2273 0.903
0.0066999998 0.22759999 0.90399998
0.0082999999 0.2278 0.90499997
0.0098999999 0.2286 0.90799999
0.0115 0.2286 0.90799999
0.013 0.2286 0.90799999
0.0146 0.22830001 0.90700001
0.016100001 0.2281 0.90600002
0.0177 0.22830001 0.90700001
0.019300001 0.22830001 0.90700001
0.0208 0.2278 0.90499997
0.022399999 0.2278 0.90499997
0.024 0.2278 0.90499997
0.025599999 0.2281 0.90600002
0.027100001 0.2281 0.90600002
0.0287 0.2281 0.90600002
0.030300001 0.22830001 0.90700001
0.0319 0.2286 0.90799999
0.033500001 0.2286 0.90799999
0.035100002 0.2286 0.90799999
0.036600001 0.2286 0.90799999
0.038199998 0.2286 0.90799999
0.039700001 0.22830001 0.90700001
0.041299999 0.22830001 0.90700001
0.0429 0.22830001 0.90700001
0.044500001 0.22830001 0.90700001
0.046 0.22830001 0.90700001
0.0491 0.2281 0.90600002
0.050700001 0.2281 0.90600002
0.052200001 0.2278 0.90499997
0.0537 0.22759999 0.90399998
0.055199999 0.2273 0.903
0.0568 0.2273 0.903
0.0583 0.2273 0.903
0.059999999 0.22759999 0.90399998
0.061500002 0.2273 0.903
0.063199997 0.2278 0.90499997
0.0647 0.2278 0.90499997
0.066399999 0.2281 0.90600002
0.068000004 0.22830001 0.90700001
0.069600001 0.22830001 0.90700001
0.0713 0.2286 0.90799999
0.072800003 0.2286 0.90799999
0.0744 0.2286 0.90799999
0.076099999 0.2291 0.91000003
0.077699997 0.2291 0.91000003
0.079499997 0.2296 0.912
0.081200004 0.23010001 0.91399997
0.083099999 0.2309 0.917
0.084899999 0.2314 0.91900003
0.086599998 0.23190001 0.921
0.088200003 0.23190001 0.921
0.089599997 0.2314 0.91900003
0.094899997 0.2286 0.90799999
0.096199997 0.2281 0.90600002
0.0977 0.2278 0.90499997
0.099100001 0.22759999 0.90399998
0.1009 0.2281 0.90600002
0.1026 0.22830001 0.90700001
0.1042 0.22830001 0.90700001
0.1059 0.2286 0.90799999
0.1074 0.2286 0.90799999
0.109 0.2286 0.90799999
0.1106 0.2286 0.90799999
0.1122 0.2286 0.90799999
0.1137 0.2286 0.90799999
0.1152 0.22830001 0.90700001
0.1168 0.22830001 0.90700001
0.1196 0.2278 0.90499997
0.1211 0.22759999 0.90399998
0.1241 0.2273 0.903
0.13500001 0.2273 0.903
0.13689999 0.2278 0.90499997
0.1388 0.22830001 0.90700001
0.14049999 0.2286 0.90799999
0.14210001 0.2286 0.90799999
0.1436 0.2286 0.90799999
0.1452 0.2286 0.90799999
0.1498 0.22830001 0.90700001
0.15449999 0.22830001 0.90700001
0.1561 0.22830001 0.90700001
0.1576 0.22830001 0.90700001
0.15899999 0.2281 0.90600002
0.1604 0.2278 0.90499997
0.1622 0.2281 0.90600002
0.1639 0.22830001 0.90700001
0.1653 0.2281 0.90600002
-0.4156 0.2253 0.889
-0.4136 0.2251 0.88800001
-0.3888 0.2198 0.86699998
-0.38940001 0.2236 0.88200003
-0.3876 0.2243 0.88499999
-0.38609999 0.2243 0.88499999
-0.38499999 0.2246 0.88599998
-0.38389999 0.22480001 0.88700002
-0.37090001 0.2253 0.889
-0.352 0.2251 0.88800001
-0.33579999 0.2256 0.88999999
-0.33430001 0.2256 0.88999999
-0.33270001 0.2256 0.88999999
-0.3312 0.2256 0.88999999
-0.32969999 0.2256 0.88999999
-0.3281 0.2256 0.88999999
-0.32659999 0.2256 0.88999999
-0.3247 0.2253 0.889
-0.3231 0.2253 0.889
-0.32159999 0.2253 0.889
-0.31999999 0.2253 0.889
-0.31169999 0.2271 0.89600003
-0.31079999 0.22759999 0.898
-0.31 0.2281 0.89999998
-0.30840001 0.2281 0.89999998
-0.30320001 0.2289 0.903
-0.24609999 0.2253 0.889
-0.24429999 0.2251 0.88800001
-0.2427 0.2251 0.88800001
-0.24150001 0.2253 0.889
-0.2405 0.22589999 0.89099997
-0.23999999 0.2269 0.89499998
-0.23980001 0.2281 0.89999998
-0.2359 0.2289 0.903
-0.2341 0.2286 0.90200001
-0.2237 0.22759999 0.898
-0.22059999 0.22759999 0.898
-0.2193 0.2279 0.89899999
-0.2182 0.22840001 0.90100002
-0.21690001 0.2286 0.90200001
-0.2148 0.2281 0.89999998
-0.2121 0.2269 0.89499998
-0.2098 0.2261 0.89200002
-0.208 0.22589999 0.89099997
-0.20630001 0.2256 0.88999999
-0.2043 0.2251 0.88800001
-0.20299999 0.2253 0.889
-0.20190001 0.22589999 0.89099997
-0.20029999 0.22589999 0.89099997
-0.1988 0.22589999 0.89099997
-0.1972 0.22589999 0.89099997
-0.1961 0.2264 0.89300001
-0.1948 0.22660001 0.89399999
-0.1935 0.2269 0.89499998
-0.1917 0.22660001 0.89399999
-0.1901 0.22660001 0.89399999
-0.18880001 0.2269 0.89499998
-0.1873 0.2269 0.89499998
-0.1855 0.22660001 0.89399999
-0.1837 0.2264 0.89300001
-0.1822 0.2264 0.89300001
-0.1806 0.2264 0.89300001
-0.17910001 0.2264 0.89300001
-0.1776 0.2264 0.89300001
-0.176 0.2264 0.89300001
-0.1745 0.2264 0.89300001
-0.17290001 0.2264 0.89300001
-0.1714 0.2264 0.89300001
-0.1683 0.2264 0.89300001
-0.16670001 0.2264 0.89300001
-0.16500001 0.2261 0.89200002
-0.16 0.2256 0.88999999
-0.15809999 0.2251 0.88800001
-0.1505 0.22759999 0.898
-0.14929999 0.2281 0.89999998
-0.1479 0.22840001 0.90100002
-0.14480001 0.22840001 0.90100002
-0.1418 0.2286 0.90200001
-0.139 0.2291 0.90399998
-0.1374 0.2291 0.90399998
-0.13600001 0.22939999 0.90499997
-0.1345 0.22939999 0.90499997
-0.1327 0.2291 0.90399998
-0.1312 0.2291 0.90399998
-0.1295 0.2289 0.903
-0.1279 0.2289 0.903
-0.12630001 0.2289 0.903
-0.1248 0.2289 0.903
-0.1229 0.22840001 0.90100002
-0.1215 0.2286 0.90200001
-0.1201 0.2289 0.903
-0.1182 0.22840001 0.90100002
-0.1167 0.22840001 0.90100002
-0.1117 0.2279 0.89899999
-0.1066 0.2269 0.89499998
-0.1049 0.22660001 0.89399999
-0.1034 0.22660001 0.89399999
-0.1017 0.2264 0.89300001
-0.1002 0.2264 0.89300001
-0.098700002 0.22660001 0.89399999
-0.0973 0.2269 0.89499998
-0.095799997 0.2271 0.89600003
-0.094499998 0.22759999 0.898
-0.092900001 0.22759999 0.898
-0.091499999 0.2279 0.89899999
-0.0898 0.22759999 0.898
-0.088200003 0.2274 0.89700001
-0.086499996 0.2271 0.89600003
-0.084899999 0.2269 0.89499998
-0.0832 0.22660001 0.89399999
-0.081600003 0.2264 0.89300001
-0.0801 0.2264 0.89300001
-0.078500003 0.2264 0.89300001
-0.077100001 0.2269 0.89499998
-0.075599998 0.2269 0.89499998
-0.074199997 0.2274 0.89700001
-0.072700001 0.22759999 0.898
-0.071400002 0.22840001 0.90100002
-0.069899999 0.2286 0.90200001
-0.068400003 0.2289 0.903
-0.0669 0.2289 0.903
-0.065399997 0.2291 0.90399998
-0.0638 0.2291 0.90399998
-0.062199999 0.2291 0.90399998
-0.060699999 0.2291 0.90399998
-0.059 0.2289 0.903
-0.057500001 0.2291 0.90399998
-0.056000002 0.2291 0.90399998
-0.054400001 0.2291 0.90399998
-0.0528 0.2289 0.903
-0.051199999 0.2289 0.903
-0.049600001 0.2289 0.903
-0.048099998 0.2289 0.903
-0.045000002 0.2289 0.903
-0.043400001 0.2289 0.903
-0.041900001 0.2291 0.90399998
-0.0403 0.2291 0.90399998
-0.038699999 0.2289 0.903
-0.037 0.22840001 0.90100002
-0.035399999 0.2281 0.89999998
-0.033799998 0.2279 0.89899999
-0.032299999 0.22759999 0.898
-0.0307 0.22759999 0.898
-0.029200001 0.2279 0.89899999
-0.0276 0.2279 0.89899999
-0.0261 0.2279 0.89899999
-0.024499999 0.2279 0.89899999
-0.023 0.2281 0.89999998
-0.021400001 0.2279 0.89899999
-0.0198 0.22759999 0.898
-0.018300001 0.2279 0.89899999
-0.0167 0.2281 0.89999998
-0.0152 0.22840001 0.90100002
-0.0136 0.2286 0.90200001
-0.0121 0.2289 0.903
-0.0105 0.2289 0.903
-0.0089999996 0.2291 0.90399998
-0.0074 0.2297 0.90600002
-0.0059000002 0.2299 0.90700001
-0.0027000001 0.2297 0.90600002
0.0035000001 0.22759999 0.898
0.0051000002 0.2279 0.89899999
0.0066999998 0.22840001 0.90100002
0.0082999999 0.2289 0.903
0.0098999999 0.2299 0.90700001
0.0114 0.2299 0.90700001
0.013 0.2299 0.90700001
0.0146 0.2297 0.90600002
0.016100001 0.22939999 0.90499997
0.0177 0.2297 0.90600002
0.019300001 0.2297 0.90600002
0.0208 0.22939999 0.90499997
0.022399999 0.22939999 0.90499997
0.024 0.22939999 0.90499997
0.025599999 0.2297 0.90600002
0.0272 0.2299 0.90700001
0.0287 0.2297 0.90600002
0.030300001 0.2297 0.90600002
0.0319 0.2299 0.90700001
0.033500001 0.23019999 0.90799999
0.035100002 0.23019999 0.90799999
0.036600001 0.23019999 0.90799999
0.038199998 0.23019999 0.90799999
0.039799999 0.23019999 0.90799999
0.0414 0.23019999 0.90799999
0.0429 0.23019999 0.90799999
0.044500001 0.23019999 0.90799999
0.046100002 0.23019999 0.90799999
0.047600001 0.23019999 0.90799999
0.049199998 0.2299 0.90700001
0.050700001 0.2299 0.90700001
0.052200001 0.22939999 0.90499997
0.053800002 0.22939999 0.90499997
0.055300001 0.2291 0.90399998
0.0568 0.2291 0.90399998
0.058400001 0.2291 0.90399998
0.059999999 0.2291 0.90399998
0.061500002 0.2291 0.90399998
0.063199997 0.22939999 0.90499997
0.0647 0.22939999 0.90499997
0.066299997 0.22939999 0.90499997
0.068000004 0.2297 0.90600002
0.072800003 0.23019999 0.90799999
0.076099999 0.2304 0.90899998
0.077600002 0.2304 0.90899998
0.079400003 0.2309 0.91100001
0.081 0.23119999 0.912
0.082900003 0.23190001 0.91500002
0.084700003 0.2324 0.917
0.086499996 0.2332 0.92000002
0.088 0.233 0.91900003
0.089500003 0.23270001 0.91799998
0.090700001 0.2317 0.91399997
0.093400002 0.2304 0.90899998
0.094899997 0.23019999 0.90799999
0.096199997 0.2297 0.90600002
0.0977 0.22939999 0.90499997
0.099200003 0.22939999 0.90499997
0.1009 0.2297 0.90600002
0.1026 0.2299 0.90700001
0.1042 0.2299 0.90700001
0.1059 0.23019999 0.90799999
0.1074 0.23019999 0.90799999
0.109 0.23019999 0.90799999
0.1106 0.23019999 0.90799999
0.1122 0.23019999 0.90799999
0.1136 0.2299 0.90700001
0.1166 0.2297 0.90600002
0.1181 0.22939999 0.90499997
0.1196 0.22939999 0.90499997
0.1209 0.2289 0.903
0.1225 0.2289 0.903
0.13689999 0.22939999 0.90499997
0.1388 0.2299 0.90700001
0.14049999 0.23019999 0.90799999
0.14210001 0.23019999 0.90799999
0.1435 0.2299 0.90700001
0.1451 0.2299 0.90700001
0.15889999 0.22939999 0.90499997
0.16060001 0.2297 0.90600002
0.1622 0.2297 0.90600002
0.1639 0.2299 0.90700001
0.1655 0.2299 0.90700001
0.1672 0.23019999 0.90799999
-0.38820001 0.2218 0.86900002
-0.38609999 0.22589999 0.88499999
-0.34240001 0.2274 0.89099997
-0.34079999 0.2274 0.89099997
-0.3312 0.2271 0.88999999
-0.33039999 0.2277 0.89200002
-0.32730001 0.2277 0.89200002
-0.3258 0.2277 0.89200002
-0.32390001 0.2274 0.89099997
-0.32229999 0.2274 0.89099997
-0.3204 0.2271 0.88999999
-0.31259999 0.2282 0.89399999
-0.3114 0.22840001 0.89499998
-0.31009999 0.2287 0.89600003
-0.3096 0.22939999 0.89899999
-0.30840001 0.2297 0.89999998
-0.30540001 0.23100001 0.90499997
-0.29539999 0.2305 0.903
-0.2458 0.22660001 0.88800001
-0.244 0.2264 0.88700002
-0.24250001 0.2264 0.88700002
-0.24089999 0.2264 0.88700002
-0.23989999 0.2269 0.889
-0.23890001 0.2274 0.89099997
-0.2392 0.22920001 0.898
-0.23819999 0.2297 0.89999998
-0.2245 0.22840001 0.89499998
-0.2221 0.22920001 0.898
-0.22059999 0.22920001 0.898
-0.21950001 0.2297 0.89999998
-0.21709999 0.2305 0.903
-0.21529999 0.23019999 0.90200001
-0.2128 0.22920001 0.898
-0.2105 0.22840001 0.89499998
-0.2085 0.2279 0.89300001
-0.20649999 0.2274 0.89099997
-0.2045 0.2269 0.889
-0.2032 0.2271 0.88999999
-0.20190001 0.2274 0.89099997
-0.2005 0.2277 0.89200002
-0.199 0.2277 0.89200002
-0.1961 0.2279 0.89300001
-0.1946 0.2279 0.89300001
-0.193 0.2279 0.89300001
-0.19149999 0.2279 0.89300001
-0.1899 0.2279 0.89300001
-0.1884 0.2279 0.89300001
-0.18700001 0.2282 0.89399999
-0.1855 0.2282 0.89399999
-0.1837 0.2279 0.89300001
-0.1822 0.2279 0.89300001
-0.18089999 0.2282 0.89399999
-0.1793 0.2282 0.89399999
-0.1776 0.2279 0.89300001
-0.1762 0.2282 0.89399999
-0.17470001 0.2282 0.89399999
-0.1733 0.22840001 0.89499998
-0.1717 0.22840001 0.89499998
-0.17020001 0.22840001 0.89499998
-0.1688 0.2287 0.89600003
-0.1675 0.2289 0.89700001
-0.1657 0.2287 0.89600003
-0.16419999 0.2287 0.89600003
-0.15090001 0.2297 0.89999998
-0.1495 0.2299 0.90100002
-0.14820001 0.2305 0.903
-0.145 0.23019999 0.90200001
-0.1434 0.23019999 0.90200001
-0.1406 0.2307 0.90399998
-0.1376 0.23100001 0.90499997
-0.13600001 0.23100001 0.90499997
-0.1345 0.23100001 0.90499997
-0.1329 0.23100001 0.90499997
-0.1313 0.23100001 0.90499997
-0.12970001 0.23100001 0.90499997
-0.1279 0.2305 0.903
-0.12630001 0.2305 0.903
-0.1248 0.2305 0.903
-0.1232 0.2305 0.903
-0.1216 0.2305 0.903
-0.1201 0.2305 0.903
-0.1184 0.23019999 0.90200001
-0.1167 0.2299 0.90100002
-0.1151 0.2299 0.90100002
-0.1101 0.22920001 0.898
-0.1083 0.2287 0.89600003
-0.1049 0.2282 0.89399999
-0.1016 0.2277 0.89200002
-0.1001 0.2277 0.89200002
-0.0986 0.2279 0.89300001
-0.0973 0.22840001 0.89499998
-0.096000001 0.2289 0.89700001
-0.094499998 0.22920001 0.898
-0.093099996 0.22939999 0.89899999
-0.091600001 0.2297 0.89999998
-0.0898 0.22920001 0.898
-0.088299997 0.22920001 0.898
-0.086499996 0.2287 0.89600003
-0.084899999 0.22840001 0.89499998
-0.0832 0.2282 0.89399999
-0.081600003 0.2279 0.89300001
-0.0801 0.2279 0.89300001
-0.078500003 0.2279 0.89300001
-0.077 0.2282 0.89399999
-0.075599998 0.22840001 0.89499998
-0.074100003 0.2287 0.89600003
-0.0726 0.2289 0.89700001
-0.0713 0.2297 0.89999998
-0.069799997 0.2299 0.90100002
-0.068400003 0.23019999 0.90200001
-0.066799998 0.23019999 0.90200001
-0.065300003 0.2305 0.903
-0.0638 0.2307 0.90399998
-0.060699999 0.23100001 0.90499997
-0.0592 0.23100001 0.90499997
-0.057599999 0.23100001 0.90499997
-0.056000002 0.23100001 0.90499997
-0.054499999 0.23100001 0.90499997
-0.0528 0.2305 0.903
-0.051199999 0.2305 0.903
-0.049600001 0.2305 0.903
-0.045000002 0.2307 0.90399998
-0.041900001 0.23100001 0.90499997
-0.0403 0.2307 0.90399998
-0.038699999 0.2305 0.903
-0.037 0.2299 0.90100002
-0.035399999 0.22939999 0.89899999
-0.033799998 0.22920001 0.898
-0.032200001 0.2287 0.89600003
-0.0307 0.2289 0.89700001
-0.029100001 0.22920001 0.898
-0.0276 0.22920001 0.898
-0.026000001 0.22920001 0.898
-0.024499999 0.22939999 0.89899999
-0.023 0.2297 0.89999998
-0.021400001 0.2297 0.89999998
-0.0198 0.2297 0.89999998
-0.018300001 0.2297 0.89999998
-0.0167 0.2297 0.89999998
-0.0152 0.23019999 0.90200001
-0.0137 0.2305 0.903
-0.0121 0.2305 0.903
-0.0105 0.2307 0.90399998
-0.0089999996 0.23100001 0.90499997
-0.0074 0.2315 0.90700001
-0.0011 0.23100001 0.90499997
0.00039999999 0.23019999 0.90200001
0.0020000001 0.2297 0.89999998
0.0035000001 0.22920001 0.898
0.0051000002 0.22939999 0.89899999
0.0066999998 0.2297 0.89999998
0.0082 0.23019999 0.90200001
0.0098000001 0.23100001 0.90499997
0.0114 0.23100001 0.90499997
0.013 0.23119999 0.90600002
0.0146 0.23100001 0.90499997
0.016100001 0.23100001 0.90499997
0.0177 0.23119999 0.90600002
0.019300001 0.23119999 0.90600002
0.0208 0.23119999 0.90600002
0.022399999 0.23100001 0.90499997
0.024 0.23100001 0.90499997
0.025599999 0.23119999 0.90600002
0.0272 0.2315 0.90700001
0.0287 0.23119999 0.90600002
0.030300001 0.23119999 0.90600002
0.033399999 0.2315 0.90700001
0.035 0.2315 0.90700001
0.036600001 0.2315 0.90700001
0.038199998 0.2315 0.90700001
0.039700001 0.2315 0.90700001
0.041299999 0.2315 0.90700001
0.0429 0.2315 0.90700001
0.044500001 0.2315 0.90700001
0.046 0.2315 0.90700001
0.047600001 0.2315 0.90700001
0.0491 0.23119999 0.90600002
0.050700001 0.23119999 0.90600002
0.052200001 0.23100001 0.90499997
0.053800002 0.23100001 0.90499997
0.055199999 0.2305 0.903
0.0568 0.2305 0.903
0.0583 0.2305 0.903
0.059999999 0.2307 0.90399998
0.061500002 0.2307 0.90399998
0.063199997 0.23119999 0.90600002
0.064800002 0.23119999 0.90600002
0.072700001 0.2315 0.90700001
0.077500001 0.2315 0.90700001
0.079000004 0.2315 0.90700001
0.080700003 0.2317 0.90799999
0.082400002 0.2322 0.91000003
0.084100001 0.2325 0.91100001
0.086000003 0.2333 0.91399997
0.087700002 0.2335 0.91500002
0.089100003 0.2333 0.91399997
0.090400003 0.2325 0.91100001
0.094800003 0.2315 0.90700001
0.0977 0.23100001 0.90499997
0.099200003 0.23100001 0.90499997
0.101 0.2315 0.90700001
0.1027 0.2317 0.90799999
0.1043 0.2317 0.90799999
0.1059 0.2317 0.90799999
0.1074 0.2317 0.90799999
0.109 0.2317 0.90799999
0.1106 0.2317 0.90799999
0.1122 0.2317 0.90799999
0.1136 0.2315 0.90700001
0.1165 0.23100001 0.90499997
0.1181 0.23100001 0.90499997
0.1196 0.23100001 0.90499997
0.1211 0.2307 0.90399998
0.1225 0.2305 0.903
0.1241 0.2305 0.903
0.12540001 0.2299 0.90100002
0.13519999 0.2307 0.90399998
0.13689999 0.23100001 0.90499997
0.1388 0.2315 0.90700001
0.14049999 0.2317 0.90799999
0.14210001 0.2317 0.90799999
0.1435 0.2315 0.90700001
0.1512 0.23119999 0.90600002
0.15449999 0.2315 0.90700001
0.15889999 0.23100001 0.90499997
0.1604 0.23100001 0.90499997
0.16230001 0.2315 0.90700001
0.1639 0.2315 0.90700001
0.1657 0.2317 0.90799999
0.1674 0.23199999 0.90899998
0.1692 0.2322 0.91000003
0.1741 0.2325 0.91100001
0.17569999 0.2325 0.91100001
0.1771 0.2322 0.91000003
0.1785 0.23199999 0.90899998
0.18000001 0.23199999 0.90899998
0.18179999 0.2322 0.91000003
-0.38859999 0.2235 0.87
-0.39050001 0.2264 0.88099998
-0.38940001 0.22660001 0.88200003
-0.38569999 0.2271 0.884
-0.38460001 0.2274 0.88499999
-0.3432 0.22840001 0.889
-0.34200001 0.2287 0.88999999
-0.3319 0.22920001 0.89200002
-0.33149999 0.23 0.89499998
-0.32879999 0.23019999 0.89600003
-0.32690001 0.23 0.89499998
-0.32460001 0.2295 0.89300001
-0.3211 0.22920001 0.89200002
-0.31479999 0.23019999 0.89600003
-0.31330001 0.23019999 0.89600003
-0.3114 0.23 0.89499998
-0.31009999 0.23019999 0.89600003
-0.31 0.2313 0.89999998
-0.30880001 0.2315 0.90100002
-0.30700001 0.2325 0.90499997
-0.24609999 0.22840001 0.889
-0.24429999 0.2282 0.88800001
-0.24250001 0.2279 0.88700002
-0.2412 0.2282 0.88800001
-0.23989999 0.22840001 0.889
-0.2392 0.22920001 0.89200002
-0.23899999 0.2305 0.89700001
-0.23800001 0.23100001 0.89899999
-0.22220001 0.22920001 0.89200002
-0.2216 0.23019999 0.89600003
-0.2208 0.23100001 0.89899999
-0.21969999 0.2315 0.90100002
-0.21529999 0.2318 0.90200001
-0.21349999 0.2315 0.90100002
-0.2115 0.23100001 0.89899999
-0.2097 0.2307 0.898
-0.20739999 0.23 0.89499998
-0.2054 0.2295 0.89300001
-0.20389999 0.2295 0.89300001
-0.20280001 0.23 0.89499998
-0.20100001 0.2297 0.89399999
-0.1992 0.2295 0.89300001
-0.19750001 0.22920001 0.89200002
-0.1961 0.2295 0.89300001
-0.1948 0.2297 0.89399999
-0.19149999 0.2295 0.89300001
-0.1899 0.2295 0.89300001
-0.1884 0.2295 0.89300001
-0.1868 0.2295 0.89300001
-0.1855 0.2297 0.89399999
-0.1842 0.23 0.89499998
-0.18260001 0.23 0.89499998
-0.1811 0.23 0.89499998
-0.1795 0.23 0.89499998
-0.178 0.23 0.89499998
-0.17640001 0.23 0.89499998
-0.175 0.23019999 0.89600003
-0.1735 0.23019999 0.89600003
-0.17209999 0.2305 0.89700001
-0.1708 0.2307 0.898
-0.1692 0.2307 0.898
-0.16779999 0.23100001 0.89899999
-0.1661 0.2307 0.898
-0.1647 0.23100001 0.89899999
-0.16329999 0.2313 0.89999998
-0.15260001 0.2315 0.90100002
-0.1512 0.2318 0.90200001
-0.1498 0.23199999 0.903
-0.14839999 0.2323 0.90399998
-0.1451 0.23199999 0.903
-0.1435 0.23199999 0.903
-0.142 0.23199999 0.903
-0.1392 0.2325 0.90499997
-0.13600001 0.2325 0.90499997
-0.1345 0.2325 0.90499997
-0.1327 0.2323 0.90399998
-0.1312 0.2323 0.90399998
-0.12970001 0.2325 0.90499997
-0.12630001 0.23199999 0.903
-0.1248 0.23199999 0.903
-0.1232 0.23199999 0.903
-0.1218 0.2323 0.90399998
-0.1201 0.23199999 0.903
-0.1184 0.2318 0.90200001
-0.1168 0.2318 0.90200001
-0.1151 0.2315 0.90100002
-0.1134 0.2313 0.89999998
-0.112 0.2315 0.90100002
-0.1103 0.2313 0.89999998
-0.1086 0.23100001 0.89899999
-0.1033 0.2295 0.89300001
-0.1016 0.22920001 0.89200002
-0.1001 0.22920001 0.89200002
-0.0986 0.2295 0.89300001
-0.096000001 0.2305 0.89700001
-0.094499998 0.2307 0.898
-0.093199998 0.2313 0.89999998
-0.091600001 0.2313 0.89999998
-0.090000004 0.2313 0.89999998
-0.088399999 0.23100001 0.89899999
-0.0867 0.2307 0.898
-0.085000001 0.23019999 0.89600003
-0.083400004 0.23019999 0.89600003
-0.081799999 0.23 0.89499998
-0.078699999 0.23 0.89499998
-0.077100001 0.23 0.89499998
-0.075599998 0.23 0.89499998
-0.074100003 0.23019999 0.89600003
-0.072700001 0.2307 0.898
-0.071400002 0.2315 0.90100002
-0.069899999 0.2318 0.90200001
-0.068400003 0.23199999 0.903
-0.0669 0.23199999 0.903
-0.065399997 0.2325 0.90499997
-0.063900001 0.2325 0.90499997
-0.0623 0.2325 0.90499997
-0.060699999 0.2325 0.90499997
-0.0592 0.2325 0.90499997
-0.057599999 0.2325 0.90499997
-0.056000002 0.2325 0.90499997
-0.054499999 0.2325 0.90499997
-0.0528 0.23199999 0.903
-0.051199999 0.23199999 0.903
-0.0451 0.2325 0.90499997
-0.041900001 0.2325 0.90499997
-0.0403 0.2325 0.90499997
-0.038699999 0.23199999 0.903
-0.037 0.2315 0.90100002
-0.035399999 0.2313 0.89999998
-0.033799998 0.2307 0.898
-0.032200001 0.23019999 0.89600003
-0.0307 0.2305 0.89700001
-0.029100001 0.2307 0.898
-0.0276 0.2307 0.898
-0.026000001 0.2307 0.898
-0.024499999 0.23100001 0.89899999
-0.023 0.2313 0.89999998
-0.021400001 0.2313 0.89999998
-0.0198 0.2313 0.89999998
-0.018300001 0.2313 0.89999998
-0.0167 0.2313 0.89999998
-0.0152 0.2315 0.90100002
-0.0121 0.23199999 0.903
-0.0105 0.2323 0.90399998
-0.0074 0.2331 0.90700001
0.00039999999 0.2318 0.90200001
0.0020000001 0.2313 0.89999998
0.0035000001 0.2307 0.898
0.0066999998 0.2313 0.89999998
0.0082 0.2315 0.90100002
0.0098000001 0.23199999 0.903
0.0145 0.2323 0.90399998
0.0177 0.2325 0.90499997
0.019300001 0.2325 0.90499997
0.0208 0.2325 0.90499997
0.022399999 0.2325 0.90499997
0.024 0.2325 0.90499997
0.025599999 0.23280001 0.90600002
0.027100001 0.23280001 0.90600002
0.0287 0.23280001 0.90600002
0.030200001 0.2325 0.90499997
0.0319 0.2331 0.90700001
0.033399999 0.2331 0.90700001
0.035 0.2331 0.90700001
0.036600001 0.2331 0.90700001
0.038199998 0.2331 0.90700001
0.039700001 0.23280001 0.90600002
0.041299999 0.23280001 0.90600002
0.0429 0.2331 0.90700001
0.044500001 0.2331 0.90700001
0.046 0.2331 0.90700001
0.047600001 0.2331 0.90700001
0.0491 0.23280001 0.90600002
0.050700001 0.2331 0.90700001
0.052200001 0.2325 0.90499997
0.053800002 0.2325 0.90499997
0.055300001 0.2325 0.90499997
0.056899998 0.2325 0.90499997
0.058499999 0.2325 0.90499997
0.059999999 0.2325 0.90499997
0.0616 0.2325 0.90499997
0.063199997 0.2325 0.90499997
0.064800002 0.23280001 0.90600002
0.071199998 0.2331 0.90700001
0.075800002 0.23280001 0.90600002
0.077299997 0.2325 0.90499997
0.078900002 0.23280001 0.90600002
0.080600001 0.2331 0.90700001
0.0823 0.2333 0.90799999
0.083899997 0.23360001 0.90899998
0.085699998 0.2341 0.91100001
0.094499998 0.2325 0.90499997
0.096100003 0.2325 0.90499997
0.0977 0.2325 0.90499997
0.099200003 0.2325 0.90499997
0.101 0.2331 0.90700001
0.1026 0.2331 0.90700001
0.1043 0.2333 0.90799999
0.1059 0.2333 0.90799999
0.1074 0.2333 0.90799999
0.109 0.2333 0.90799999
0.1105 0.2331 0.90700001
0.1119 0.23280001 0.90600002
0.1134 0.2325 0.90499997
0.1162 0.23199999 0.903
0.1178 0.23199999 0.903
0.1194 0.23199999 0.903
0.1209 0.23199999 0.903
0.1225 0.23199999 0.903
0.1241 0.23199999 0.903
0.12549999 0.2318 0.90200001
0.1353 0.2325 0.90499997
0.13689999 0.2325 0.90499997
0.13850001 0.2325 0.90499997
0.14030001 0.2331 0.90700001
0.1419 0.2331 0.90700001
0.1435 0.2331 0.90700001
0.14820001 0.2331 0.90700001
0.1559 0.23280001 0.90600002
0.1575 0.23280001 0.90600002
0.15889999 0.2325 0.90499997
0.16060001 0.23280001 0.90600002
0.16230001 0.2331 0.90700001
0.16410001 0.2333 0.90799999
0.16590001 0.23360001 0.90899998
0.1674 0.23360001 0.90899998
0.1723 0.23379999 0.91000003
0.17389999 0.23379999 0.91000003
0.17550001 0.23379999 0.91000003
0.1767 0.2333 0.90799999
0.17829999 0.2333 0.90799999
0.1798 0.2333 0.90799999
-0.38299999 0.2289 0.88499999
-0.36000001 0.2289 0.88499999
-0.34279999 0.2297 0.88800001
-0.34119999 0.2297 0.88800001
-0.33700001 0.23 0.889
-0.3346 0.2315 0.89499998
-0.33419999 0.2323 0.898
-0.33140001 0.2326 0.89899999
-0.32949999 0.2323 0.898
-0.3272 0.2318 0.89600003
-0.3249 0.2313 0.89399999
-0.32080001 0.2305 0.89099997
-0.31729999 0.23019999 0.88999999
-0.3141 0.2313 0.89399999
-0.3114 0.2315 0.89499998
-0.3098 0.2315 0.89499998
-0.30930001 0.2323 0.898
-0.30880001 0.2331 0.90100002
-0.3075 0.2333 0.90200001
-0.30239999 0.23540001 0.91000003
-0.2922 0.23360001 0.903
-0.29069999 0.23360001 0.903
-0.2485 0.2307 0.89200002
-0.2464 0.23019999 0.88999999
-0.2446 0.23 0.889
-0.2427 0.2297 0.88800001
-0.2412 0.2297 0.88800001
-0.233 0.2323 0.898
-0.23019999 0.23100001 0.89300001
-0.223 0.23 0.889
-0.2217 0.23019999 0.88999999
-0.2155 0.23360001 0.903
-0.2137 0.2333 0.90200001
-0.2119 0.2331 0.90100002
-0.2101 0.23280001 0.89999998
-0.2079 0.23199999 0.89700001
-0.2059 0.2315 0.89499998
-0.2043 0.2315 0.89499998
-0.20280001 0.2315 0.89499998
-0.20119999 0.2315 0.89499998
-0.1997 0.2315 0.89499998
-0.19769999 0.23100001 0.89300001
-0.1963 0.2313 0.89399999
-0.1948 0.2313 0.89399999
-0.193 0.23100001 0.89300001
-0.19149999 0.23100001 0.89300001
-0.1899 0.23100001 0.89300001
-0.1884 0.23100001 0.89300001
-0.1868 0.23100001 0.89300001
-0.1855 0.2313 0.89399999
-0.1842 0.2315 0.89499998
-0.18279999 0.2318 0.89600003
-0.1815 0.23199999 0.89700001
-0.17990001 0.23199999 0.89700001
-0.177 0.2323 0.898
-0.1741 0.2326 0.89899999
-0.1725 0.2326 0.89899999
-0.17110001 0.23280001 0.89999998
-0.1696 0.23280001 0.89999998
-0.168 0.23280001 0.89999998
-0.16670001 0.2331 0.90100002
-0.1653 0.2333 0.90200001
-0.1635 0.2331 0.90100002
-0.1542 0.2331 0.90100002
-0.1514 0.23360001 0.903
-0.1498 0.23360001 0.903
-0.14839999 0.23379999 0.90399998
-0.1453 0.23379999 0.90399998
-0.1407 0.2341 0.90499997
-0.1376 0.2341 0.90499997
-0.13590001 0.23379999 0.90399998
-0.13429999 0.23379999 0.90399998
-0.1312 0.23379999 0.90399998
-0.1296 0.23379999 0.90399998
-0.1248 0.23360001 0.903
-0.1232 0.23360001 0.903
-0.1216 0.23360001 0.903
-0.1201 0.23360001 0.903
-0.1184 0.2333 0.90200001
-0.1167 0.2331 0.90100002
-0.1151 0.2331 0.90100002
-0.1134 0.23280001 0.89999998
-0.1119 0.23280001 0.89999998
-0.1086 0.2326 0.89899999
-0.1068 0.23199999 0.89700001
-0.105 0.2315 0.89499998
-0.1033 0.23100001 0.89300001
-0.1016 0.2307 0.89200002
-0.1001 0.2307 0.89200002
-0.0986 0.23100001 0.89300001
-0.0973 0.2315 0.89499998
-0.094700001 0.23280001 0.89999998
-0.0933 0.2331 0.90100002
-0.091700003 0.2331 0.90100002
-0.090099998 0.2331 0.90100002
-0.088500001 0.23280001 0.89999998
-0.086900003 0.23280001 0.89999998
-0.085299999 0.2326 0.89899999
-0.0836 0.2323 0.898
-0.080300003 0.2318 0.89600003
-0.078900002 0.23199999 0.89700001
-0.077299997 0.23199999 0.89700001
-0.0757 0.2318 0.89600003
-0.074199997 0.23199999 0.89700001
-0.072700001 0.2323 0.898
-0.071400002 0.2331 0.90100002
-0.069899999 0.2333 0.90200001
-0.068400003 0.23360001 0.903
-0.0669 0.23360001 0.903
-0.065399997 0.2341 0.90499997
-0.063900001 0.2344 0.90600002
-0.062399998 0.2344 0.90600002
-0.060699999 0.2341 0.90499997
-0.0592 0.2344 0.90600002
-0.057700001 0.23459999 0.90700001
-0.056200001 0.23459999 0.90700001
-0.0546 0.23459999 0.90700001
-0.052999999 0.23459999 0.90700001
-0.0513 0.2341 0.90499997
-0.046599999 0.2341 0.90499997
-0.0451 0.2341 0.90499997
-0.041900001 0.2341 0.90499997
-0.0403 0.2341 0.90499997
-0.038699999 0.23360001 0.903
-0.037 0.2331 0.90100002
-0.035399999 0.23280001 0.89999998
-0.033799998 0.2326 0.89899999
-0.0307 0.2323 0.898
-0.029100001 0.2323 0.898
-0.0276 0.2323 0.898
-0.0261 0.23280001 0.89999998
-0.024499999 0.2326 0.89899999
-0.023 0.23280001 0.89999998
-0.021400001 0.23280001 0.89999998
-0.0198 0.23280001 0.89999998
-0.018300001 0.23280001 0.89999998
-0.0167 0.23280001 0.89999998
-0.0152 0.2331 0.90100002
-0.0121 0.23360001 0.903
-0.0074 0.23459999 0.90700001
-0.0059000002 0.23459999 0.90700001
-0.0027000001 0.23459999 0.90700001
-0.0011 0.2341 0.90499997
0.0020000001 0.23280001 0.89999998
0.0035000001 0.2323 0.898
0.0051000002 0.2323 0.898
0.0098000001 0.2331 0.90100002
0.0114 0.2333 0.90200001
0.013 0.23360001 0.903
0.0145 0.23360001 0.903
0.016100001 0.23379999 0.90399998
0.0177 0.2341 0.90499997
0.019300001 0.2341 0.90499997
0.0208 0.2341 0.90499997
0.022399999 0.2341 0.90499997
0.024 0.2341 0.90499997
0.0255 0.2341 0.90499997
0.027100001 0.2341 0.90499997
0.0287 0.2341 0.90499997
0.030200001 0.2341 0.90499997
0.031800002 0.2344 0.90600002
0.033399999 0.2341 0.90499997
0.034899998 0.2341 0.90499997
0.036499999 0.2341 0.90499997
0.0381 0.2341 0.90499997
0.0396 0.23379999 0.90399998
0.041200001 0.2341 0.90499997
0.042800002 0.2341 0.90499997
0.044399999 0.2341 0.90499997
0.045899998 0.2341 0.90499997
0.047499999 0.2344 0.90600002
0.0491 0.2344 0.90600002
0.050700001 0.2344 0.90600002
0.052200001 0.2341 0.90499997
0.053800002 0.2341 0.90499997
0.055300001 0.2341 0.90499997
0.056899998 0.2341 0.90499997
0.058400001 0.23379999 0.90399998
0.059999999 0.2341 0.90499997
0.0616 0.2341 0.90499997
0.063199997 0.2341 0.90499997
0.0647 0.2341 0.90499997
0.066299997 0.2341 0.90499997
0.072700001 0.23459999 0.90700001
0.075900003 0.23459999 0.90700001
0.077399999 0.2344 0.90600002
0.078900002 0.2344 0.90600002
0.080499999 0.2344 0.90600002
0.082199998 0.23459999 0.90700001
0.083700001 0.23459999 0.90700001
0.0854 0.2349 0.90799999
0.101 0.23459999 0.90700001
0.1027 0.2349 0.90799999
0.1043 0.2349 0.90799999
0.1059 0.2349 0.90799999
0.1074 0.2349 0.90799999
0.1089 0.23459999 0.90700001
0.1104 0.2344 0.90600002
0.1118 0.2341 0.90499997
0.1131 0.23360001 0.903
0.1146 0.2333 0.90200001
0.116 0.2331 0.90100002
0.1177 0.2333 0.90200001
0.1194 0.23360001 0.903
0.1208 0.2333 0.90200001
0.1224 0.2333 0.90200001
0.1241 0.23360001 0.903
0.1256 0.23360001 0.903
0.12720001 0.23360001 0.903
0.13860001 0.2344 0.90600002
0.14030001 0.23459999 0.90700001
0.1418 0.2344 0.90600002
0.1433 0.2344 0.90600002
0.1451 0.23459999 0.90700001
0.14659999 0.23459999 0.90700001
0.15099999 0.2341 0.90499997
0.1541 0.2341 0.90499997
0.1559 0.2344 0.90600002
0.1573 0.2341 0.90499997
0.15889999 0.2341 0.90499997
0.16060001 0.2344 0.90600002
0.16230001 0.23459999 0.90700001
0.16410001 0.2349 0.90799999
0.16599999 0.23540001 0.91000003
0.16760001 0.23540001 0.91000003
0.16940001 0.2357 0.91100001
0.171 0.2357 0.91100001
0.1723 0.23540001 0.91000003
0.1753 0.2351 0.90899998
0.17649999 0.23459999 0.90700001
0.1781 0.23459999 0.90700001
0.1794 0.2344 0.90600002
-0.33219999 0.23459999 0.90100002
-0.3276 0.23360001 0.89700001
-0.32530001 0.2331 0.89499998
-0.32300001 0.2326 0.89300001
-0.31889999 0.2318 0.88999999
-0.3154 0.2315 0.889
-0.31400001 0.2339 0.898
-0.31169999 0.2333 0.89600003
-0.3098 0.2331 0.89499998
-0.30860001 0.2333 0.89600003
-0.30559999 0.2383 0.91500002
-0.29859999 0.23649999 0.90799999
-0.2938 0.2352 0.903
-0.28850001 0.23459999 0.90100002
-0.27970001 0.23119999 0.88800001
-0.25060001 0.23280001 0.89399999
-0.2485 0.2323 0.89200002
-0.2464 0.2318 0.88999999
-0.2448 0.2318 0.88999999
-0.243 0.2315 0.889
-0.24150001 0.2315 0.889
-0.2402 0.2318 0.88999999
-0.2395 0.2326 0.89300001
-0.2359 0.23360001 0.89700001
-0.2322 0.2331 0.89499998
-0.23019999 0.2326 0.89300001
-0.2281 0.23199999 0.89099997
-0.2263 0.2318 0.88999999
-0.22480001 0.2318 0.88999999
-0.22319999 0.2318 0.88999999
-0.2217 0.2318 0.88999999
-0.22139999 0.2331 0.89499998
-0.22059999 0.2339 0.898
-0.21969999 0.23459999 0.90100002
-0.2173 0.23540001 0.90399998
-0.2104 0.23459999 0.90100002
-0.2086 0.2344 0.89999998
-0.2068 0.2341 0.89899999
-0.2052 0.2341 0.89899999
-0.2034 0.2339 0.898
-0.20209999 0.2341 0.89899999
-0.20029999 0.2339 0.898
-0.1954 0.23360001 0.89700001
-0.1919 0.2331 0.89499998
-0.1904 0.2331 0.89499998
-0.1884 0.2326 0.89300001
-0.1868 0.2326 0.89300001
-0.1857 0.2331 0.89499998
-0.18440001 0.2333 0.89600003
-0.18279999 0.2333 0.89600003
-0.18170001 0.2339 0.898
-0.1803 0.2341 0.89899999
-0.17739999 0.2344 0.89999998
-0.176 0.23459999 0.90100002
-0.1745 0.23459999 0.90100002
-0.17290001 0.23459999 0.90100002
-0.1715 0.2349 0.90200001
-0.17 0.2349 0.90200001
-0.16859999 0.2352 0.903
-0.167 0.2352 0.903
-0.16580001 0.2357 0.90499997
-0.16429999 0.2357 0.90499997
-0.1592 0.2352 0.903
-0.1561 0.2352 0.903
-0.1543 0.2349 0.90200001
-0.1529 0.2352 0.903
-0.1498 0.2352 0.903
-0.14820001 0.2352 0.903
-0.14669999 0.2352 0.903
-0.1453 0.23540001 0.90399998
-0.1435 0.2352 0.903
-0.142 0.2352 0.903
-0.1407 0.2357 0.90499997
-0.1376 0.2357 0.90499997
-0.13600001 0.2357 0.90499997
-0.1313 0.2357 0.90499997
-0.1296 0.23540001 0.90399998
-0.12630001 0.2352 0.903
-0.1248 0.2352 0.903
-0.1231 0.2349 0.90200001
-0.1216 0.2352 0.903
-0.1201 0.2352 0.903
-0.1182 0.23459999 0.90100002
-0.1167 0.23459999 0.90100002
-0.1151 0.23459999 0.90100002
-0.1134 0.2344 0.89999998
-0.1119 0.2344 0.89999998
-0.1102 0.2341 0.89899999
-0.1085 0.2339 0.898
-0.1067 0.2333 0.89600003
-0.1049 0.23280001 0.89399999
-0.1033 0.2326 0.89300001
-0.1017 0.2326 0.89300001
-0.0986 0.2326 0.89300001
-0.0973 0.2331 0.89499998
-0.096100003 0.2339 0.898
-0.094700001 0.2344 0.89999998
-0.0933 0.23459999 0.90100002
-0.091799997 0.2349 0.90200001
-0.090099998 0.23459999 0.90100002
-0.088600002 0.23459999 0.90100002
-0.086999997 0.23459999 0.90100002
-0.085500002 0.23459999 0.90100002
-0.083800003 0.2344 0.89999998
-0.082099997 0.2341 0.89899999
-0.080499999 0.2339 0.898
-0.078900002 0.2339 0.898
-0.077299997 0.23360001 0.89700001
-0.0757 0.2333 0.89600003
-0.074100003 0.2333 0.89600003
-0.0726 0.23360001 0.89700001
-0.0713 0.2344 0.89999998
-0.069799997 0.23459999 0.90100002
-0.068400003 0.2352 0.903
-0.0669 0.2352 0.903
-0.065399997 0.2357 0.90499997
-0.063900001 0.2359 0.90600002
-0.062399998 0.2359 0.90600002
-0.060800001 0.2359 0.90600002
-0.059300002 0.2362 0.90700001
-0.057799999 0.23649999 0.90799999
-0.056299999 0.2367 0.90899998
-0.054699998 0.2367 0.90899998
-0.053100001 0.23649999 0.90799999
-0.049800001 0.2359 0.90600002
-0.046599999 0.2357 0.90499997
-0.043499999 0.2357 0.90499997
-0.041900001 0.23540001 0.90399998
-0.0403 0.23540001 0.90399998
-0.038699999 0.2352 0.903
-0.037 0.23459999 0.90100002
