# .PCD v0.7 - Point Cloud Data file format
VERSION 0.7
FIELDS x y z
SIZE 4 4 4
TYPE F F F
COUNT 1 1 1
WIDTH 1554
HEIGHT 1
VIEWPOINT 0 0 0 1 0 0 0
POINTS 1554
DATA ascii
0.0669 -0.036699999 0.89200002
0.068499997 -0.036699999 0.89200002
0.070100002 -0.036699999 0.89300001
0.071599998 -0.036699999 0.89300001
0.073200002 -0.036699999 0.89300001
0.074600004 -0.036699999 0.89200002
0.076099999 -0.036699999 0.89099997
0.077600002 -0.036699999 0.89099997
0.0792 -0.036699999 0.89099997
0.080600001 -0.036600001 0.88999999
0.0823 -0.036699999 0.89099997
0.083800003 -0.036699999 0.89099997
0.0854 -0.036699999 0.89099997
0.086900003 -0.036699999 0.89099997
0.088500001 -0.036699999 0.89200002
0.0902 -0.036699999 0.89300001
0.091799997 -0.036800001 0.89399999
0.093500003 -0.036800001 0.89499998
0.095100001 -0.036800001 0.89499998
0.096600004 -0.036800001 0.89499998
0.098200001 -0.036800001 0.89499998
0.099699996 -0.036800001 0.89499998
0.1011 -0.036800001 0.89399999
0.1026 -0.036699999 0.89300001
0.1041 -0.036699999 0.89300001
0.1057 -0.036699999 0.89300001
0.107 -0.036699999 0.89099997
0.1085 -0.036699999 0.89099997
0.1101 -0.036699999 0.89099997
0.1162 -0.036699999 0.89099997
0.1181 -0.036699999 0.89300001
0.1196 -0.036699999 0.89300001
0.1211 -0.036699999 0.89300001
0.1228 -0.036800001 0.89399999
0.1245 -0.036800001 0.89499998
0.12620001 -0.036899999 0.89600003
0.1278 -0.036899999 0.89600003
0.1292 -0.036800001 0.89499998
0.1309 -0.036899999 0.89600003
0.13240001 -0.036899999 0.89600003
0.1338 -0.036800001 0.89499998
0.1354 -0.036800001 0.89499998
0.13689999 -0.036800001 0.89499998
0.13850001 -0.036800001 0.89499998
0.14 -0.036800001 0.89499998
0.1416 -0.036800001 0.89499998
0.14300001 -0.036800001 0.89399999
0.1444 -0.036699999 0.89300001
0.1459 -0.036699999 0.89300001
0.1473 -0.036699999 0.89200002
0.1488 -0.036699999 0.89200002
0.1506 -0.036699999 0.89300001
0.1521 -0.036699999 0.89300001
0.154 -0.036800001 0.89499998
0.1557 -0.036899999 0.89600003
0.1576 -0.037 0.898
0.1592 -0.037 0.898
0.16060001 -0.036899999 0.89700001
0.1621 -0.036899999 0.89700001
0.1635 -0.036899999 0.89600003
0.1649 -0.036800001 0.89499998
0.1674 -0.036699999 0.89200002
0.1689 -0.036699999 0.89200002
0.17110001 -0.036800001 0.89499998
0.1732 -0.037 0.898
0.1749 -0.037 0.89899999
0.1767 -0.037 0.89999998
0.17839999 -0.037099998 0.90100002
0.18000001 -0.037099998 0.90100002
0.18179999 -0.037099998 0.90200001
0.1833 -0.037099998 0.90200001
0.18449999 -0.037 0.89999998
0.18539999 -0.036899999 0.89700001
0.1866 -0.036800001 0.89499998
0.1875 -0.036699999 0.89200002
0.1886 -0.036600001 0.88999999
0.1895 -0.036499999 0.88700002
0.19059999 -0.036400001 0.88499999
-0.4048 -0.034600001 0.87900001
-0.40329999 -0.034600001 0.87900001
-0.36199999 -0.034499999 0.875
-0.35969999 -0.034400001 0.87300003
-0.35730001 -0.034299999 0.87099999
-0.3177 -0.034400001 0.87400001
-0.31510001 -0.034299999 0.87099999
-0.3136 -0.034299999 0.87099999
-0.31209999 -0.034299999 0.87099999
-0.22830001 -0.034699999 0.88
-0.2261 -0.034600001 0.87699997
-0.2245 -0.034600001 0.87699997
-0.2235 -0.034600001 0.87900001
-0.22220001 -0.034699999 0.88
-0.221 -0.034699999 0.88099998
-0.2194 -0.034699999 0.88099998
-0.2164 -0.034699999 0.88099998
-0.2146 -0.034699999 0.88
-0.2131 -0.034699999 0.88
-0.21179999 -0.034699999 0.88099998
-0.2098 -0.034600001 0.87900001
-0.208 -0.034600001 0.87800002
-0.2061 -0.034499999 0.87599999
-0.20479999 -0.034600001 0.87699997
-0.20299999 -0.034499999 0.87599999
-0.2013 -0.034499999 0.875
-0.19949999 -0.034400001 0.87400001
-0.1978 -0.034400001 0.87300003
-0.19670001 -0.034499999 0.875
-0.1954 -0.034499999 0.87599999
-0.1939 -0.034499999 0.87599999
-0.1891 -0.0348 0.88200003
-0.18610001 -0.0348 0.88200003
-0.18449999 -0.0348 0.88200003
-0.183 -0.0348 0.88200003
-0.1815 -0.0348 0.88200003
-0.1797 -0.034699999 0.88099998
-0.1778 -0.034600001 0.87900001
-0.1761 -0.034600001 0.87800002
-0.1742 -0.034499999 0.87599999
-0.17209999 -0.034400001 0.87300003
-0.17 -0.034299999 0.87
-0.1683 -0.034299999 0.86900002
-0.16140001 -0.033500001 0.84899998
-0.1575 -0.033 0.83600003
-0.155 -0.032699998 0.82999998
-0.153 -0.032600001 0.82700002
-0.1513 -0.032600001 0.82599998
-0.1497 -0.032499999 0.82499999
-0.1481 -0.032499999 0.824
-0.14650001 -0.032400001 0.82300001
-0.1454 -0.032499999 0.82499999
-0.14399999 -0.032499999 0.82499999
-0.1429 -0.032600001 0.82700002
-0.1417 -0.032600001 0.82800001
-0.1402 -0.032600001 0.82800001
-0.139 -0.032699998 0.829
-0.1375 -0.032699998 0.829
-0.13609999 -0.032699998 0.829
-0.1347 -0.032699998 0.829
-0.1331 -0.032600001 0.82800001
-0.13160001 -0.032600001 0.82800001
-0.13 -0.032600001 0.82700002
-0.1283 -0.032499999 0.82499999
-0.1251 -0.032400001 0.82300001
-0.1243 -0.032600001 0.82700002
-0.123 -0.032600001 0.82800001
-0.1214 -0.032600001 0.82700002
-0.1201 -0.032600001 0.82800001
-0.1186 -0.032600001 0.82700002
-0.1174 -0.032699998 0.829
-0.1158 -0.032600001 0.82800001
-0.1143 -0.032600001 0.82700002
-0.1127 -0.032600001 0.82599998
-0.1111 -0.032499999 0.82499999
-0.1097 -0.032499999 0.82499999
-0.1084 -0.032600001 0.82599998
-0.107 -0.032600001 0.82599998
-0.1054 -0.032499999 0.82499999
-0.1039 -0.032499999 0.824
-0.1024 -0.032499999 0.824
-0.1012 -0.032600001 0.82599998
-0.099799998 -0.032600001 0.82599998
-0.098300003 -0.032499999 0.82499999
-0.096799999 -0.032499999 0.82499999
-0.0955 -0.032600001 0.82599998
-0.0942 -0.032600001 0.82700002
-0.092799999 -0.032600001 0.82700002
-0.091300003 -0.032600001 0.82700002
-0.089900002 -0.032600001 0.82700002
-0.088600002 -0.032600001 0.82800001
-0.086999997 -0.032600001 0.82700002
-0.085600004 -0.032600001 0.82700002
-0.084200002 -0.032600001 0.82700002
-0.082699999 -0.032600001 0.82700002
-0.0814 -0.032600001 0.82800001
-0.079899997 -0.032600001 0.82700002
-0.078400001 -0.032600001 0.82700002
-0.077200003 -0.032699998 0.829
-0.075800002 -0.032699998 0.82999998
-0.0744 -0.032699998 0.82999998
-0.073100001 -0.0328 0.83099997
-0.071599998 -0.0328 0.83099997
-0.070299998 -0.0328 0.83200002
-0.068899997 -0.0328 0.833
-0.067500003 -0.032900002 0.83399999
-0.066100001 -0.032900002 0.83399999
-0.063000001 -0.0328 0.83200002
-0.0616 -0.0328 0.83200002
-0.060199998 -0.0328 0.83200002
-0.058800001 -0.0328 0.833
-0.057300001 -0.0328 0.83200002
-0.047800001 -0.033199999 0.84299999
-0.039700001 -0.035100002 0.88999999
-0.038199998 -0.0352 0.89200002
-0.036699999 -0.0352 0.89200002
-0.035100002 -0.035100002 0.89099997
-0.033500001 -0.035100002 0.89099997
-0.032000002 -0.035100002 0.88999999
-0.030400001 -0.035100002 0.88999999
-0.0273 -0.035100002 0.88999999
-0.025800001 -0.035100002 0.89099997
-0.0243 -0.0352 0.89300001
-0.0228 -0.035300002 0.89499998
-0.021299999 -0.035300002 0.89600003
-0.0198 -0.035399999 0.898
-0.018200001 -0.035399999 0.898
-0.0167 -0.035399999 0.898
-0.0151 -0.035399999 0.898
-0.0136 -0.035399999 0.898
-0.012 -0.035399999 0.898
-0.0105 -0.035399999 0.89700001
-0.0088999998 -0.035300002 0.89499998
-0.0073000002 -0.035300002 0.89499998
-0.0057999999 -0.035300002 0.89499998
-0.0041999999 -0.035300002 0.89499998
0.0098000001 -0.035500001 0.89999998
0.0114 -0.035500001 0.89999998
0.0129 -0.035399999 0.89899999
0.0144 -0.035399999 0.898
0.016000001 -0.035399999 0.898
0.0176 -0.035399999 0.898
0.019099999 -0.035300002 0.89600003
0.0206 -0.035300002 0.89499998
0.0221 -0.0352 0.89300001
0.023600001 -0.035100002 0.89099997
0.0251 -0.035100002 0.89099997
0.0266 -0.035100002 0.88999999
0.028200001 -0.035 0.889
0.0297 -0.035100002 0.88999999
0.031300001 -0.035100002 0.88999999
0.032900002 -0.0352 0.89200002
0.034400001 -0.0352 0.89200002
0.0361 -0.0352 0.89399999
0.037700001 -0.035399999 0.89700001
0.0394 -0.035500001 0.89999998
0.041000001 -0.035500001 0.90100002
0.042599998 -0.035599999 0.90200001
0.044300001 -0.035599999 0.903
0.0458 -0.035599999 0.903
0.047400001 -0.035599999 0.903
0.048900001 -0.035599999 0.903
0.050500002 -0.035599999 0.903
0.052099999 -0.035599999 0.903
0.053599998 -0.035599999 0.903
0.055100001 -0.035599999 0.90200001
0.056600001 -0.035500001 0.90100002
0.0581 -0.035399999 0.89899999
0.0594 -0.035300002 0.89600003
0.060899999 -0.0352 0.89399999
0.0623 -0.0352 0.89200002
0.063699998 -0.035100002 0.89099997
0.065399997 -0.0352 0.89300001
0.067000002 -0.0352 0.89300001
0.068499997 -0.0352 0.89300001
0.070100002 -0.0352 0.89300001
0.071599998 -0.0352 0.89300001
0.073200002 -0.0352 0.89300001
0.074600004 -0.0352 0.89200002
0.076099999 -0.035100002 0.89099997
0.077600002 -0.035100002 0.89099997
0.0792 -0.035100002 0.89099997
0.080700003 -0.035100002 0.89099997
0.0823 -0.035100002 0.89099997
0.083800003 -0.035100002 0.89099997
0.0854 -0.035100002 0.89099997
0.086900003 -0.035100002 0.89099997
0.088500001 -0.0352 0.89200002
0.0902 -0.0352 0.89300001
0.091899998 -0.035300002 0.89499998
0.093500003 -0.035300002 0.89499998
0.095200002 -0.035300002 0.89600003
0.098399997 -0.035399999 0.89700001
0.0999 -0.035399999 0.89700001
0.1014 -0.035300002 0.89600003
0.1028 -0.035300002 0.89499998
0.1042 -0.0352 0.89399999
0.1057 -0.0352 0.89300001
0.1071 -0.0352 0.89200002
0.1085 -0.035100002 0.89099997
0.1101 -0.035100002 0.89099997
0.1181 -0.0352 0.89300001
0.1196 -0.0352 0.89300001
0.1211 -0.0352 0.89300001
0.1228 -0.0352 0.89399999
0.1245 -0.035300002 0.89499998
0.1261 -0.035300002 0.89499998
0.1276 -0.035300002 0.89499998
0.12899999 -0.0352 0.89399999
0.13070001 -0.035300002 0.89499998
0.1323 -0.035300002 0.89499998
0.1338 -0.035300002 0.89499998
0.13519999 -0.0352 0.89399999
0.1366 -0.0352 0.89300001
0.1383 -0.0352 0.89399999
0.14 -0.035300002 0.89499998
0.1416 -0.035300002 0.89499998
0.1428 -0.0352 0.89300001
0.1444 -0.0352 0.89300001
0.14569999 -0.0352 0.89200002
0.1471 -0.035100002 0.89099997
0.1487 -0.035100002 0.89099997
0.1506 -0.0352 0.89300001
0.1521 -0.0352 0.89300001
0.154 -0.035300002 0.89499998
0.1561 -0.035399999 0.898
0.1576 -0.035399999 0.898
0.1594 -0.035399999 0.89899999
0.16069999 -0.035399999 0.898
0.16230001 -0.035399999 0.898
0.1637 -0.035399999 0.89700001
0.1649 -0.035300002 0.89499998
0.16599999 -0.0352 0.89300001
0.16760001 -0.0352 0.89300001
0.1691 -0.0352 0.89300001
0.17120001 -0.035300002 0.89600003
0.1734 -0.035399999 0.89899999
0.1751 -0.035500001 0.89999998
0.1767 -0.035500001 0.89999998
0.17839999 -0.035500001 0.90100002
0.18000001 -0.035500001 0.90100002
0.1816 -0.035500001 0.90100002
0.1831 -0.035500001 0.90100002
0.1839 -0.035399999 0.89700001
0.1846 -0.0352 0.89300001
0.1857 -0.035100002 0.89099997
0.18709999 -0.035100002 0.88999999
0.1882 -0.035 0.88800001
0.1893 -0.034899998 0.88599998
0.1902 -0.0348 0.88300002
-0.38280001 -0.033199999 0.88099998
-0.3813 -0.033199999 0.88099998
-0.3612 -0.032900002 0.87300003
-0.35890001 -0.0328 0.87099999
-0.3565 -0.032699998 0.86900002
-0.33809999 -0.032900002 0.87199998
-0.3378 -0.033 0.875
-0.31990001 -0.033 0.87599999
-0.3177 -0.032900002 0.87400001
-0.3154 -0.032900002 0.87199998
-0.3143 -0.032900002 0.87300003
-0.31279999 -0.032900002 0.87300003
-0.3109 -0.032900002 0.87199998
-0.22660001 -0.033100002 0.87900001
-0.22499999 -0.033100002 0.87900001
-0.22400001 -0.033199999 0.88099998
-0.2225 -0.033199999 0.88099998
-0.221 -0.033199999 0.88099998
-0.21789999 -0.033199999 0.88099998
-0.2164 -0.033199999 0.88099998
-0.2121 -0.033199999 0.88200003
-0.2103 -0.033199999 0.88099998
-0.20829999 -0.033100002 0.87900001
-0.20649999 -0.033100002 0.87800002
-0.2045 -0.033 0.87599999
-0.20280001 -0.033 0.875
-0.20100001 -0.032900002 0.87400001
-0.19930001 -0.032900002 0.87300003
-0.1978 -0.032900002 0.87300003
-0.1965 -0.032900002 0.87400001
-0.1957 -0.033 0.87699997
-0.18610001 -0.033199999 0.88200003
-0.18449999 -0.033199999 0.88200003
-0.183 -0.033199999 0.88200003
-0.1813 -0.033199999 0.88099998
-0.1795 -0.033199999 0.88
-0.1776 -0.033100002 0.87800002
-0.17550001 -0.033 0.875
-0.1736 -0.032900002 0.87300003
-0.1715 -0.0328 0.87
-0.1698 -0.032699998 0.86900002
-0.1631 -0.032000002 0.85000002
-0.15880001 -0.031500001 0.83499998
-0.1564 -0.031300001 0.82999998
-0.1548 -0.031199999 0.829
-0.153 -0.031199999 0.82700002
-0.1513 -0.031099999 0.82599998
-0.1499 -0.031099999 0.82599998
-0.14830001 -0.031099999 0.82499999
-0.14399999 -0.031099999 0.82499999
-0.1429 -0.031199999 0.82700002
-0.1417 -0.031199999 0.82800001
-0.1401 -0.031199999 0.82700002
-0.1388 -0.031199999 0.82800001
-0.13609999 -0.031199999 0.829
-0.1347 -0.031199999 0.829
-0.1332 -0.031199999 0.829
-0.1318 -0.031199999 0.829
-0.13 -0.031199999 0.82700002
-0.1284 -0.031099999 0.82599998
-0.1267 -0.031099999 0.824
-0.12530001 -0.031099999 0.824
-0.1243 -0.031199999 0.82700002
-0.1229 -0.031199999 0.82700002
-0.1214 -0.031199999 0.82700002
-0.1201 -0.031199999 0.82800001
-0.1186 -0.031199999 0.82700002
-0.1173 -0.031199999 0.82800001
-0.1158 -0.031199999 0.82800001
-0.1143 -0.031199999 0.82700002
-0.1127 -0.031099999 0.82599998
-0.1113 -0.031099999 0.82599998
-0.11 -0.031199999 0.82700002
-0.1088 -0.031199999 0.829
-0.1074 -0.031199999 0.829
-0.1057 -0.031199999 0.82700002
-0.1041 -0.031099999 0.82599998
-0.1026 -0.031099999 0.82499999
-0.1012 -0.031099999 0.82599998
-0.099699996 -0.031099999 0.82499999
-0.097999997 -0.030999999 0.82300001
-0.096699998 -0.031099999 0.824
-0.095399998 -0.031099999 0.82499999
-0.094099998 -0.031099999 0.82599998
-0.092799999 -0.031199999 0.82700002
-0.091300003 -0.031199999 0.82700002
-0.090000004 -0.031199999 0.82800001
-0.088600002 -0.031199999 0.82800001
-0.086999997 -0.031199999 0.82700002
-0.085600004 -0.031199999 0.82700002
-0.084200002 -0.031199999 0.82700002
-0.082699999 -0.031199999 0.82700002
-0.081299998 -0.031199999 0.82700002
-0.079899997 -0.031199999 0.82700002
-0.078299999 -0.031099999 0.82599998
-0.077 -0.031199999 0.82700002
-0.0757 -0.031199999 0.829
-0.0744 -0.031300001 0.82999998
-0.073100001 -0.031300001 0.83099997
-0.071599998 -0.031300001 0.83099997
-0.070200004 -0.031300001 0.83099997
-0.068800002 -0.031399999 0.83200002
-0.067500003 -0.031399999 0.83399999
-0.066200003 -0.031500001 0.83499998
-0.064599998 -0.031399999 0.833
-0.063100003 -0.031399999 0.833
-0.061700001 -0.031399999 0.833
-0.058800001 -0.031399999 0.833
-0.057300001 -0.031399999 0.83200002
-0.035100002 -0.033599999 0.89099997
-0.033500001 -0.033500001 0.88999999
-0.030400001 -0.033500001 0.889
-0.028899999 -0.033500001 0.88999999
-0.0273 -0.033500001 0.889
-0.025800001 -0.033500001 0.88999999
-0.0243 -0.0337 0.89300001
-0.0228 -0.0337 0.89399999
-0.021299999 -0.0337 0.89499998
-0.0198 -0.033799998 0.89600003
-0.018200001 -0.033799998 0.89600003
-0.0167 -0.033799998 0.89700001
-0.0151 -0.033799998 0.898
-0.0136 -0.033799998 0.89700001
-0.012 -0.033799998 0.89700001
-0.0104 -0.033799998 0.89600003
-0.0088999998 -0.0337 0.89499998
-0.0073000002 -0.0337 0.89499998
-0.0057999999 -0.0337 0.89499998
0.0129 -0.0339 0.89999998
0.0145 -0.0339 0.89999998
0.016000001 -0.0339 0.89899999
0.0176 -0.033799998 0.898
0.019099999 -0.033799998 0.89700001
0.0206 -0.033799998 0.89600003
0.0221 -0.0337 0.89399999
0.023600001 -0.0337 0.89300001
0.026699999 -0.033599999 0.89099997
0.028200001 -0.033500001 0.88999999
0.0298 -0.033599999 0.89099997
0.031300001 -0.033599999 0.89099997
0.032900002 -0.033599999 0.89200002
0.034499999 -0.0337 0.89300001
0.0361 -0.0337 0.89499998
0.037799999 -0.033799998 0.898
0.0394 -0.0339 0.89999998
0.041000001 -0.034000002 0.90100002
0.042599998 -0.034000002 0.90100002
0.044300001 -0.034000002 0.903
0.0458 -0.034000002 0.903
0.047400001 -0.034000002 0.903
0.048900001 -0.034000002 0.903
0.0506 -0.0341 0.90399998
0.056600001 -0.034000002 0.90100002
0.0581 -0.0339 0.89899999
0.0594 -0.033799998 0.89600003
0.060800001 -0.0337 0.89300001
0.0623 -0.0337 0.89300001
0.0638 -0.033599999 0.89200002
0.065399997 -0.0337 0.89300001
0.067000002 -0.0337 0.89300001
0.068499997 -0.0337 0.89300001
0.070100002 -0.0337 0.89300001
0.071599998 -0.0337 0.89300001
0.073200002 -0.0337 0.89300001
0.074600004 -0.033599999 0.89200002
0.076099999 -0.033599999 0.89099997
0.077600002 -0.033599999 0.89099997
0.0792 -0.033599999 0.89099997
0.080700003 -0.033599999 0.89099997
0.082400002 -0.033599999 0.89200002
0.083899997 -0.033599999 0.89200002
0.085600004 -0.0337 0.89300001
0.087099999 -0.0337 0.89300001
0.088699996 -0.0337 0.89399999
0.090400003 -0.0337 0.89499998
0.092100002 -0.033799998 0.89600003
0.093599997 -0.033799998 0.89600003
0.095200002 -0.033799998 0.89600003
0.096699998 -0.033799998 0.89600003
0.099799998 -0.033799998 0.89600003
0.1014 -0.033799998 0.89600003
0.1028 -0.0337 0.89499998
0.1042 -0.0337 0.89399999
0.1057 -0.0337 0.89300001
0.1071 -0.033599999 0.89200002
0.1086 -0.033599999 0.89200002
0.1102 -0.033599999 0.89200002
0.1132 -0.033599999 0.89099997
0.1181 -0.0337 0.89300001
0.1211 -0.0337 0.89300001
0.1228 -0.0337 0.89399999
0.1245 -0.0337 0.89499998
0.12620001 -0.033799998 0.89600003
0.1276 -0.0337 0.89499998
0.1292 -0.0337 0.89499998
0.13070001 -0.0337 0.89499998
0.13240001 -0.033799998 0.89600003
0.1338 -0.0337 0.89499998
0.1354 -0.0337 0.89499998
0.13689999 -0.0337 0.89499998
0.13850001 -0.0337 0.89499998
0.1402 -0.033799998 0.89600003
0.1417 -0.033799998 0.89600003
0.14309999 -0.0337 0.89499998
0.1444 -0.0337 0.89300001
0.1459 -0.0337 0.89300001
0.1473 -0.033599999 0.89200002
0.1488 -0.033599999 0.89200002
0.1506 -0.0337 0.89300001
0.1521 -0.0337 0.89300001
0.1542 -0.033799998 0.89600003
0.1561 -0.033799998 0.898
0.16069999 -0.033799998 0.898
0.16230001 -0.033799998 0.898
0.1637 -0.033799998 0.89700001
0.1649 -0.0337 0.89499998
0.16599999 -0.0337 0.89300001
0.16760001 -0.0337 0.89300001
0.16949999 -0.0337 0.89499998
0.17120001 -0.033799998 0.89600003
0.1732 -0.033799998 0.898
0.1749 -0.0339 0.89899999
0.1767 -0.0339 0.89999998
0.17839999 -0.034000002 0.90100002
0.18000001 -0.034000002 0.90100002
0.1816 -0.034000002 0.90100002
0.1829 -0.0339 0.89999998
0.1837 -0.033799998 0.89600003
0.18440001 -0.033599999 0.89200002
0.1855 -0.033500001 0.88999999
0.1866 -0.033500001 0.88800001
0.18799999 -0.033399999 0.88700002
0.1891 -0.033300001 0.88499999
0.19 -0.033199999 0.88200003
0.1908 -0.033100002 0.87900001
-0.38069999 -0.031500001 0.87599999
-0.37909999 -0.031500001 0.87599999
-0.3612 -0.031399999 0.87300003
-0.35890001 -0.031300001 0.87099999
-0.34029999 -0.031300001 0.87
-0.33880001 -0.031300001 0.87
-0.3369 -0.031199999 0.86900002
-0.32359999 -0.0317 0.88200003
-0.32100001 -0.031599998 0.87900001
-0.3195 -0.031599998 0.87900001
-0.31760001 -0.031599998 0.87800002
-0.3168 -0.031599998 0.88
-0.31529999 -0.031599998 0.88
-0.31299999 -0.031599998 0.87800002
-0.31189999 -0.031599998 0.87900001
-0.2291 -0.0317 0.88300002
-0.2273 -0.0317 0.88200003
-0.22579999 -0.0317 0.88200003
-0.22480001 -0.031800002 0.884
-0.223 -0.0317 0.88300002
-0.22149999 -0.0317 0.88300002
-0.2182 -0.0317 0.88200003
-0.2164 -0.0317 0.88099998
-0.2149 -0.0317 0.88099998
-0.2133 -0.0317 0.88099998
-0.2121 -0.0317 0.88200003
-0.2103 -0.0317 0.88099998
-0.2085 -0.031599998 0.88
-0.20649999 -0.031599998 0.87800002
-0.20479999 -0.031500001 0.87699997
-0.20280001 -0.031500001 0.875
-0.2008 -0.031399999 0.87300003
-0.19930001 -0.031399999 0.87300003
-0.1978 -0.031399999 0.87300003
-0.1963 -0.031399999 0.87300003
-0.1954 -0.031500001 0.87599999
-0.1944 -0.031599998 0.87800002
-0.1891 -0.0317 0.88200003
-0.18780001 -0.0317 0.88300002
-0.18629999 -0.0317 0.88300002
-0.1847 -0.0317 0.88300002
-0.183 -0.0317 0.88200003
-0.17910001 -0.031599998 0.87800002
-0.177 -0.031500001 0.875
-0.1749 -0.031300001 0.87199998
-0.1732 -0.031300001 0.87099999
-0.1602 -0.029999999 0.83499998
-0.15800001 -0.029899999 0.83099997
-0.15620001 -0.0298 0.829
-0.15459999 -0.0298 0.82800001
-0.153 -0.0297 0.82700002
-0.1513 -0.0297 0.82599998
-0.1499 -0.0297 0.82599998
-0.1481 -0.0296 0.824
-0.14650001 -0.0296 0.82300001
-0.1453 -0.0296 0.824
-0.14399999 -0.0297 0.82499999
-0.1428 -0.0297 0.82599998
-0.1415 -0.0297 0.82700002
-0.1401 -0.0297 0.82700002
-0.1375 -0.0298 0.829
-0.1347 -0.0298 0.829
-0.1331 -0.0298 0.82800001
-0.13160001 -0.0298 0.82800001
-0.1302 -0.0298 0.82800001
-0.1286 -0.0297 0.82700002
-0.127 -0.0297 0.82599998
-0.1257 -0.0297 0.82700002
-0.1246 -0.0298 0.829
-0.1232 -0.0298 0.829
-0.1217 -0.0298 0.829
-0.1203 -0.0298 0.829
-0.1189 -0.0298 0.829
-0.1174 -0.0298 0.829
-0.116 -0.0298 0.829
-0.1145 -0.0298 0.829
-0.1131 -0.0298 0.829
-0.1117 -0.0298 0.829
-0.1104 -0.0298 0.82999998
-0.1091 -0.029899999 0.83099997
-0.1075 -0.0298 0.82999998
-0.106 -0.0298 0.82999998
-0.1044 -0.0298 0.82800001
-0.1028 -0.0297 0.82700002
-0.1012 -0.0297 0.82599998
-0.099600002 -0.0296 0.824
-0.097900003 -0.0296 0.82200003
-0.096500002 -0.0296 0.82200003
-0.095299996 -0.0296 0.824
-0.094099998 -0.0297 0.82599998
-0.092799999 -0.0297 0.82700002
-0.091300003 -0.0297 0.82700002
-0.090000004 -0.0298 0.82800001
-0.088600002 -0.0298 0.82800001
-0.086999997 -0.0297 0.82700002
-0.085699998 -0.0298 0.82800001
-0.084200002 -0.0297 0.82700002
-0.082699999 -0.0297 0.82700002
-0.081299998 -0.0297 0.82700002
-0.079899997 -0.0297 0.82700002
-0.078299999 -0.0297 0.82599998
-0.077 -0.0297 0.82700002
-0.075599998 -0.0297 0.82700002
-0.074299999 -0.0298 0.829
-0.072999999 -0.0298 0.82999998
-0.071500003 -0.0298 0.82999998
-0.070200004 -0.029899999 0.83099997
-0.068800002 -0.029899999 0.83200002
-0.067500003 -0.029999999 0.83399999
-0.066200003 -0.029999999 0.83499998
-0.064599998 -0.029999999 0.83399999
-0.063199997 -0.029999999 0.83399999
-0.061799999 -0.029999999 0.83399999
-0.0603 -0.029999999 0.83399999
-0.058899999 -0.029999999 0.83399999
-0.054499999 -0.029899999 0.833
-0.048799999 -0.029999999 0.83499998
-0.030400001 -0.032000002 0.889
-0.0273 -0.032000002 0.88999999
-0.025800001 -0.032000002 0.89099997
-0.0244 -0.032099999 0.89399999
-0.0228 -0.032200001 0.89499998
-0.021299999 -0.032200001 0.89600003
-0.0198 -0.032200001 0.89700001
-0.018200001 -0.032200001 0.89700001
-0.0167 -0.032299999 0.898
-0.0151 -0.032200001 0.89700001
-0.0136 -0.032299999 0.898
-0.012 -0.032200001 0.89700001
-0.0104 -0.032200001 0.89600003
-0.0088999998 -0.032200001 0.89600003
-0.0073000002 -0.032200001 0.89499998
-0.0057999999 -0.032200001 0.89499998
0.0176 -0.032299999 0.898
0.019099999 -0.032200001 0.89700001
0.0206 -0.032200001 0.89600003
0.0222 -0.032200001 0.89600003
0.023700001 -0.032099999 0.89399999
0.026699999 -0.032099999 0.89200002
0.0283 -0.032099999 0.89200002
0.0298 -0.032099999 0.89200002
0.031399999 -0.032099999 0.89300001
0.033 -0.032200001 0.89499998
0.034600001 -0.032200001 0.89499998
0.036200002 -0.032200001 0.89700001
0.037799999 -0.032299999 0.89899999
0.0394 -0.032400001 0.89999998
0.041000001 -0.032400001 0.89999998
0.042599998 -0.032400001 0.90100002
0.044199999 -0.032400001 0.90100002
0.0458 -0.032400001 0.90200001
0.047400001 -0.032499999 0.903
0.048900001 -0.032499999 0.903
0.0506 -0.032499999 0.90399998
0.057999998 -0.032299999 0.898
0.0594 -0.032200001 0.89600003
0.060899999 -0.032099999 0.89399999
0.0623 -0.032099999 0.89300001
0.063900001 -0.032099999 0.89300001
0.0656 -0.032200001 0.89499998
0.067100003 -0.032200001 0.89499998
0.068700001 -0.032200001 0.89499998
0.070299998 -0.032200001 0.89600003
0.071900003 -0.032200001 0.89600003
0.073299997 -0.032200001 0.89499998
0.074699998 -0.032099999 0.89300001
0.076200001 -0.032099999 0.89200002
0.077799998 -0.032099999 0.89300001
0.079400003 -0.032099999 0.89300001
0.080899999 -0.032099999 0.89300001
0.082500003 -0.032099999 0.89300001
0.084100001 -0.032099999 0.89399999
0.085699998 -0.032200001 0.89499998
0.087300003 -0.032200001 0.89499998
0.088799998 -0.032200001 0.89499998
0.090400003 -0.032200001 0.89499998
0.092100002 -0.032200001 0.89600003
0.093800001 -0.032299999 0.898
0.095399998 -0.032299999 0.898
0.096699998 -0.032200001 0.89600003
0.098300003 -0.032200001 0.89600003
0.0999 -0.032200001 0.89700001
0.1014 -0.032200001 0.89600003
0.1028 -0.032200001 0.89499998
0.1042 -0.032099999 0.89399999
0.1057 -0.032099999 0.89300001
0.1071 -0.032099999 0.89200002
0.1088 -0.032099999 0.89300001
0.1103 -0.032099999 0.89300001
0.1119 -0.032099999 0.89300001
0.1166 -0.032099999 0.89399999
0.1232 -0.032200001 0.89700001
0.1248 -0.032200001 0.89700001
0.1265 -0.032299999 0.898
0.1279 -0.032200001 0.89700001
0.1295 -0.032200001 0.89700001
0.1309 -0.032200001 0.89600003
0.13240001 -0.032200001 0.89600003
0.1338 -0.032200001 0.89499998
0.1354 -0.032200001 0.89499998
0.13680001 -0.032099999 0.89399999
0.13850001 -0.032200001 0.89499998
0.14 -0.032200001 0.89499998
0.1416 -0.032200001 0.89499998
0.14309999 -0.032200001 0.89499998
0.1444 -0.032099999 0.89300001
0.1459 -0.032099999 0.89300001
0.1473 -0.032099999 0.89200002
0.1488 -0.032099999 0.89200002
0.1506 -0.032099999 0.89300001
0.1523 -0.032099999 0.89399999
0.1542 -0.032200001 0.89600003
0.15620001 -0.032299999 0.89899999
0.1594 -0.032299999 0.89899999
0.16069999 -0.032299999 0.898
0.16230001 -0.032299999 0.898
0.1638 -0.032299999 0.898
0.16500001 -0.032200001 0.89600003
0.1662 -0.032099999 0.89399999
0.16779999 -0.032099999 0.89399999
0.16949999 -0.032200001 0.89499998
0.17120001 -0.032200001 0.89600003
0.1734 -0.032299999 0.89899999
0.1749 -0.032299999 0.89899999
0.1767 -0.032400001 0.89999998
0.17829999 -0.032400001 0.89999998
0.1798 -0.032400001 0.89999998
0.1814 -0.032400001 0.89999998
0.1825 -0.032299999 0.898
0.1831 -0.032099999 0.89300001
0.184 -0.032000002 0.88999999
0.1851 -0.0319 0.88800001
0.1864 -0.0319 0.88700002
0.18780001 -0.0319 0.88599998
0.1891 -0.031800002 0.88499999
0.1904 -0.031800002 0.884
0.1913 -0.0317 0.88099998
0.55260003 -0.059900001 1.6670001
-0.40630001 -0.030099999 0.87900001
-0.34150001 -0.0297 0.86900002
-0.32589999 -0.030200001 0.884
-0.32359999 -0.030200001 0.88200003
-0.32139999 -0.030099999 0.88
-0.31990001 -0.030099999 0.88
-0.31799999 -0.030099999 0.87900001
-0.31720001 -0.030099999 0.88099998
-0.31600001 -0.030200001 0.88200003
-0.31369999 -0.030200001 0.884
-0.31209999 -0.030200001 0.884
-0.31060001 -0.030200001 0.884
-0.2304 -0.030200001 0.88200003
-0.2289 -0.030200001 0.88200003
-0.22759999 -0.030200001 0.88300002
-0.22579999 -0.030200001 0.88200003
-0.22480001 -0.030200001 0.884
-0.2233 -0.030200001 0.884
-0.2217 -0.030200001 0.884
-0.2199 -0.030200001 0.88300002
-0.2184 -0.030200001 0.88300002
-0.2166 -0.030200001 0.88200003
-0.21510001 -0.030200001 0.88200003
-0.21359999 -0.030200001 0.88200003
-0.2105 -0.030200001 0.88200003
-0.2088 -0.030099999 0.88099998
-0.2068 -0.030099999 0.87900001
-0.205 -0.029999999 0.87800002
-0.20280001 -0.029899999 0.875
-0.2008 -0.029899999 0.87300003
-0.19930001 -0.029899999 0.87300003
-0.1978 -0.029899999 0.87300003
-0.19670001 -0.029899999 0.875
-0.19589999 -0.029999999 0.87800002
-0.192 -0.030099999 0.88099998
-0.18799999 -0.030200001 0.884
-0.17659999 -0.029899999 0.87300003
-0.1617 -0.0286 0.83499998
-0.15970001 -0.0285 0.83200002
-0.1578 -0.0284 0.82999998
-0.156 -0.0283 0.82800001
-0.15440001 -0.0283 0.82700002
-0.15279999 -0.0283 0.82599998
-0.1512 -0.028200001 0.82499999
-0.1497 -0.028200001 0.82499999
-0.1479 -0.028200001 0.82300001
-0.14650001 -0.028200001 0.82300001
-0.14489999 -0.028100001 0.82200003
-0.1435 -0.028100001 0.82200003
-0.14219999 -0.028200001 0.82300001
-0.1399 -0.0283 0.82599998
-0.13860001 -0.0283 0.82700002
-0.1374 -0.0283 0.82800001
-0.13609999 -0.0284 0.829
-0.1347 -0.0284 0.829
-0.1332 -0.0284 0.829
-0.1318 -0.0284 0.829
-0.1303 -0.0284 0.829
-0.1286 -0.0283 0.82700002
-0.12720001 -0.0283 0.82700002
-0.1256 -0.0283 0.82599998
-0.1241 -0.0283 0.82599998
-0.1227 -0.0283 0.82599998
-0.1213 -0.0283 0.82599998
-0.12 -0.0283 0.82700002
-0.1187 -0.0283 0.82800001
-0.1174 -0.0284 0.829
-0.1161 -0.0284 0.82999998
-0.1147 -0.0284 0.82999998
-0.1132 -0.0284 0.82999998
-0.1104 -0.0284 0.82999998
-0.1091 -0.0284 0.83099997
-0.1076 -0.0284 0.83099997
-0.106 -0.0284 0.82999998
-0.1044 -0.0283 0.82800001
-0.1027 -0.0283 0.82599998
-0.1011 -0.028200001 0.82499999
-0.099200003 -0.028100001 0.82099998
-0.0977 -0.028100001 0.81999999
-0.096199997 -0.028100001 0.81999999
-0.095100001 -0.028100001 0.82200003
-0.093900003 -0.028200001 0.824
-0.092699997 -0.0283 0.82599998
-0.091300003 -0.0283 0.82700002
-0.090000004 -0.0283 0.82800001
-0.088600002 -0.0283 0.82800001
-0.086999997 -0.0283 0.82700002
-0.085699998 -0.0283 0.82800001
-0.084200002 -0.0283 0.82700002
-0.082599998 -0.0283 0.82599998
-0.081200004 -0.0283 0.82599998
-0.079700001 -0.028200001 0.82499999
-0.078199998 -0.028200001 0.82499999
-0.076899998 -0.0283 0.82599998
-0.075499997 -0.0283 0.82599998
-0.074199997 -0.0283 0.82800001
-0.072999999 -0.0284 0.82999998
-0.071500003 -0.0284 0.82999998
-0.070200004 -0.0284 0.83099997
-0.068800002 -0.0285 0.83200002
-0.067500003 -0.0285 0.833
-0.066100001 -0.0285 0.83399999
-0.064599998 -0.0285 0.833
-0.063100003 -0.0285 0.833
-0.061700001 -0.0285 0.833
-0.060199998 -0.0285 0.833
-0.058800001 -0.0285 0.833
-0.057300001 -0.0285 0.83200002
-0.055799998 -0.0284 0.83099997
-0.054400001 -0.0285 0.83200002
-0.050099999 -0.0285 0.83200002
-0.048700001 -0.0285 0.83399999
-0.036499999 -0.029100001 0.85100001
-0.032200001 -0.029200001 0.85399997
-0.0273 -0.030400001 0.889
-0.0228 -0.0306 0.89399999
-0.021299999 -0.0306 0.89499998
-0.0198 -0.0307 0.89600003
-0.018200001 -0.0307 0.89700001
-0.0167 -0.0307 0.89700001
-0.0151 -0.0307 0.898
-0.0135 -0.0307 0.89600003
-0.012 -0.0307 0.89600003
-0.0105 -0.0307 0.89700001
-0.0088999998 -0.0307 0.89700001
-0.0073000002 -0.0307 0.89600003
-0.0057999999 -0.0307 0.89600003
0.018999999 -0.0305 0.89099997
0.020500001 -0.0306 0.89300001
0.0221 -0.0306 0.89300001
0.026699999 -0.0305 0.89200002
0.0283 -0.0305 0.89200002
0.0298 -0.0306 0.89300001
0.031399999 -0.0306 0.89399999
0.033 -0.0307 0.89600003
0.034600001 -0.0307 0.89600003
0.036200002 -0.0307 0.89700001
0.037799999 -0.0307 0.898
0.039299998 -0.0307 0.898
0.040899999 -0.0307 0.89700001
0.042399999 -0.0307 0.89600003
0.044 -0.0307 0.898
0.045699999 -0.0308 0.89999998
0.0473 -0.0308 0.90100002
0.048799999 -0.0308 0.90100002
0.0594 -0.0307 0.89600003
0.060899999 -0.0306 0.89499998
0.062399998 -0.0306 0.89399999
0.064000003 -0.0306 0.89499998
0.065700002 -0.0307 0.89600003
0.067199998 -0.0307 0.89600003
0.068800002 -0.0307 0.89600003
0.0704 -0.0307 0.89700001
0.071900003 -0.0307 0.89700001
0.073399998 -0.0307 0.89600003
0.074900001 -0.0306 0.89499998
0.076399997 -0.0306 0.89499998
0.078000002 -0.0306 0.89499998
0.079599999 -0.0307 0.89600003
0.081100002 -0.0306 0.89499998
0.082699999 -0.0307 0.89600003
0.084399998 -0.0307 0.89700001
0.086000003 -0.0307 0.898
0.087700002 -0.0308 0.89899999
0.089199997 -0.0308 0.89899999
0.090700001 -0.0307 0.898
0.092500001 -0.0308 0.89999998
0.093999997 -0.0308 0.89999998
0.095600002 -0.0308 0.89999998
0.096900001 -0.0307 0.898
0.098499998 -0.0307 0.898
0.1 -0.0307 0.898
0.1016 -0.0307 0.898
0.1029 -0.0307 0.89600003
0.1044 -0.0306 0.89499998
0.1057 -0.0306 0.89300001
0.1072 -0.0306 0.89300001
0.1088 -0.0306 0.89300001
0.1103 -0.0306 0.89300001
0.1119 -0.0306 0.89300001
0.1134 -0.0306 0.89300001
0.1184 -0.0307 0.89600003
0.1216 -0.0307 0.89600003
0.1232 -0.0307 0.89700001
0.1266 -0.0308 0.89899999
0.12809999 -0.0307 0.898
0.1296 -0.0307 0.898
0.1312 -0.0307 0.898
0.13240001 -0.0307 0.89600003
0.134 -0.0307 0.89600003
0.1354 -0.0306 0.89499998
0.13689999 -0.0306 0.89499998
0.13850001 -0.0306 0.89499998
0.14 -0.0306 0.89499998
0.1416 -0.0306 0.89499998
0.14309999 -0.0306 0.89499998
0.14470001 -0.0306 0.89499998
0.1459 -0.0306 0.89300001
0.14749999 -0.0306 0.89300001
0.1488 -0.0305 0.89200002
0.1504 -0.0305 0.89200002
0.1521 -0.0306 0.89300001
0.15620001 -0.0308 0.89899999
0.15800001 -0.0308 0.89999998
0.1594 -0.0308 0.89899999
0.16069999 -0.0307 0.898
0.1621 -0.0307 0.89700001
0.1635 -0.0307 0.89600003
0.1647 -0.0306 0.89399999
0.16580001 -0.0305 0.89200002
0.1674 -0.0305 0.89200002
0.1691 -0.0306 0.89300001
0.17110001 -0.0306 0.89499998
0.17299999 -0.0307 0.89700001
0.17470001 -0.0307 0.898
0.1763 -0.0307 0.898
0.1779 -0.0307 0.898
0.1794 -0.0307 0.898
0.18099999 -0.0307 0.898
0.18170001 -0.0306 0.89399999
0.18260001 -0.0305 0.89099997
0.1838 -0.030400001 0.889
0.1851 -0.030400001 0.88800001
0.1864 -0.030300001 0.88700002
0.1876 -0.030300001 0.88499999
0.1891 -0.030300001 0.88499999
0.1904 -0.030200001 0.884
0.19149999 -0.030200001 0.88200003
-0.36559999 -0.0286 0.88
-0.33809999 -0.0285 0.87599999
-0.33270001 -0.028899999 0.88999999
-0.3308 -0.028899999 0.889
-0.32170001 -0.0286 0.88099998
-0.3202 -0.0286 0.88099998
-0.31830001 -0.0286 0.88
-0.31720001 -0.0286 0.88099998
-0.31600001 -0.0287 0.88200003
-0.3145 -0.0287 0.88200003
-0.31330001 -0.0287 0.88300002
-0.25279999 -0.028899999 0.89099997
-0.2304 -0.0287 0.88200003
-0.2289 -0.0287 0.88200003
-0.2279 -0.0287 0.884
-0.2263 -0.0287 0.884
-0.22480001 -0.0287 0.884
-0.2235 -0.0287 0.88499999
-0.2217 -0.0287 0.884
-0.2202 -0.0287 0.884
-0.21870001 -0.0287 0.884
-0.21690001 -0.0287 0.88300002
-0.2154 -0.0287 0.88300002
-0.2138 -0.0287 0.88300002
-0.2123 -0.0287 0.88300002
-0.2105 -0.0287 0.88200003
-0.2088 -0.0286 0.88099998
-0.2068 -0.0286 0.87900001
-0.20479999 -0.0285 0.87699997
-0.20299999 -0.0285 0.87599999
-0.20100001 -0.0284 0.87400001
-0.19949999 -0.0284 0.87400001
-0.198 -0.0284 0.87400001
-0.1969 -0.0285 0.87599999
-0.19589999 -0.0285 0.87800002
-0.19329999 -0.0286 0.88
-0.19220001 -0.0287 0.88200003
-0.1911 -0.0287 0.884
-0.18960001 -0.0287 0.884
-0.1867 -0.0287 0.88499999
-0.16580001 -0.0273 0.84100002
-0.1613 -0.027100001 0.833
-0.1595 -0.027000001 0.83099997
-0.1578 -0.027000001 0.82999998
-0.1558 -0.026900001 0.82700002
-0.15440001 -0.026900001 0.82700002
-0.153 -0.026900001 0.82700002
-0.1513 -0.026799999 0.82599998
-0.1497 -0.026799999 0.82499999
-0.1481 -0.026799999 0.824
-0.14650001 -0.026699999 0.82300001
-0.14489999 -0.026699999 0.82200003
-0.1433 -0.026699999 0.82099998
-0.14210001 -0.026699999 0.82200003
-0.141 -0.026799999 0.824
-0.1397 -0.026799999 0.82499999
-0.13850001 -0.026799999 0.82599998
-0.1372 -0.026900001 0.82700002
-0.13590001 -0.026900001 0.82800001
-0.1347 -0.026900001 0.829
-0.1332 -0.026900001 0.829
-0.1318 -0.026900001 0.829
-0.1303 -0.026900001 0.829
-0.1288 -0.026900001 0.82800001
-0.12720001 -0.026900001 0.82700002
-0.1256 -0.026799999 0.82599998
-0.124 -0.026799999 0.82499999
-0.1224 -0.026799999 0.824
-0.1211 -0.026799999 0.82499999
-0.12 -0.026900001 0.82700002
-0.1187 -0.026900001 0.82800001
-0.1176 -0.027000001 0.82999998
-0.1161 -0.027000001 0.82999998
-0.1147 -0.027000001 0.82999998
-0.1117 -0.026900001 0.829
-0.1102 -0.026900001 0.829
-0.1089 -0.027000001 0.82999998
-0.1075 -0.027000001 0.82999998
-0.1059 -0.026900001 0.829
-0.1042 -0.026900001 0.82700002
-0.1027 -0.026799999 0.82599998
-0.1011 -0.026799999 0.82499999
-0.099399999 -0.026699999 0.82300001
-0.097800002 -0.026699999 0.82099998
-0.096199997 -0.0266 0.81999999
-0.095100001 -0.026699999 0.82200003
-0.093900003 -0.026799999 0.824
-0.092699997 -0.026799999 0.82599998
-0.091200002 -0.026799999 0.82599998
-0.089900002 -0.026900001 0.82700002
-0.088500001 -0.026900001 0.82700002
-0.086999997 -0.026900001 0.82700002
-0.085600004 -0.026900001 0.82700002
-0.084200002 -0.026900001 0.82700002
-0.082599998 -0.026799999 0.82599998
-0.081100002 -0.026799999 0.82499999
-0.079700001 -0.026799999 0.82499999
-0.078199998 -0.026799999 0.82499999
-0.076899998 -0.026799999 0.82599998
-0.075499997 -0.026799999 0.82599998
-0.074100003 -0.026900001 0.82700002
-0.072899997 -0.026900001 0.829
-0.071500003 -0.027000001 0.82999998
-0.070100002 -0.027000001 0.82999998
-0.068800002 -0.027000001 0.83200002
-0.067500003 -0.027100001 0.833
-0.066100001 -0.027100001 0.83399999
-0.064599998 -0.027100001 0.833
-0.063100003 -0.027100001 0.833
-0.061799999 -0.027100001 0.83399999
-0.0603 -0.027100001 0.83399999
-0.058800001 -0.027100001 0.833
-0.057300001 -0.027000001 0.83200002
-0.055799998 -0.027000001 0.83099997
-0.054299999 -0.027000001 0.83099997
-0.052999999 -0.027000001 0.83200002
-0.0515 -0.027000001 0.83200002
-0.047499999 -0.0272 0.838
-0.0449 -0.0274 0.84299999
-0.032000002 -0.0276 0.85000002
-0.0306 -0.0276 0.85100001
-0.0264 -0.028000001 0.861
-0.0251 -0.028100001 0.86500001
-0.022700001 -0.028899999 0.89099997
-0.021299999 -0.028999999 0.89399999
-0.0198 -0.029100001 0.89600003
-0.018200001 -0.029100001 0.89700001
-0.0167 -0.029200001 0.898
-0.0151 -0.029100001 0.89700001
-0.0135 -0.029100001 0.89600003
-0.012 -0.029100001 0.89600003
-0.0105 -0.029100001 0.89700001
-0.0088999998 -0.029200001 0.898
-0.0073000002 -0.029100001 0.89700001
-0.0057999999 -0.029100001 0.89700001
-0.0041999999 -0.029100001 0.89600003
0.0174 -0.028899999 0.88999999
0.018999999 -0.028899999 0.89099997
0.0206 -0.029100001 0.89499998
0.0221 -0.029100001 0.89499998
0.023700001 -0.028999999 0.89399999
0.0252 -0.028999999 0.89399999
0.026799999 -0.028999999 0.89399999
0.0283 -0.028999999 0.89399999
0.029899999 -0.029100001 0.89499998
0.031500001 -0.029100001 0.89499998
0.033100002 -0.029100001 0.89700001
0.034699999 -0.029200001 0.898
0.036200002 -0.029200001 0.898
0.037799999 -0.029200001 0.898
0.039299998 -0.029200001 0.898
0.040899999 -0.029100001 0.89700001
0.042399999 -0.029100001 0.89600003
0.043900002 -0.029100001 0.89600003
0.045600001 -0.029200001 0.898
0.0471 -0.029200001 0.898
0.048700001 -0.029200001 0.898
0.060899999 -0.028999999 0.89399999
0.062399998 -0.028999999 0.89399999
0.064000003 -0.029100001 0.89499998
0.065800004 -0.029200001 0.898
0.067400001 -0.029200001 0.898
0.068800002 -0.029100001 0.89700001
0.070500001 -0.029200001 0.89899999
0.0722 -0.029200001 0.89999998
0.073700003 -0.029200001 0.89899999
0.075199999 -0.029200001 0.89899999
0.076700002 -0.029200001 0.898
0.078199998 -0.029200001 0.898
0.079899997 -0.029200001 0.89899999
0.081500001 -0.029200001 0.89899999
0.082999997 -0.029200001 0.89899999
0.084700003 -0.029200001 0.89999998
0.086300001 -0.029300001 0.90100002
0.087899998 -0.029300001 0.90100002
0.089400001 -0.029300001 0.90100002
0.090999998 -0.029300001 0.90100002
0.092600003 -0.029300001 0.90100002
0.094099998 -0.029300001 0.90100002
0.095600002 -0.029200001 0.89999998
0.097000003 -0.029200001 0.89899999
0.098499998 -0.029200001 0.898
0.0999 -0.029100001 0.89700001
0.1014 -0.029100001 0.89600003
0.1028 -0.029100001 0.89499998
0.1044 -0.029100001 0.89499998
0.1057 -0.028999999 0.89300001
0.1072 -0.028999999 0.89300001
0.1089 -0.028999999 0.89399999
0.1104 -0.028999999 0.89399999
0.112 -0.028999999 0.89399999
0.1134 -0.028999999 0.89300001
0.115 -0.028999999 0.89300001
0.1168 -0.029100001 0.89499998
0.1184 -0.029100001 0.89600003
0.1216 -0.029100001 0.89600003
0.1234 -0.029200001 0.898
0.1249 -0.029200001 0.898
0.1266 -0.029200001 0.89899999
0.12819999 -0.029200001 0.89899999
0.12980001 -0.029200001 0.89899999
0.1312 -0.029200001 0.898
0.13259999 -0.029100001 0.89700001
0.1338 -0.029100001 0.89499998
0.1354 -0.029100001 0.89499998
0.1366 -0.028999999 0.89300001
0.1382 -0.028999999 0.89300001
0.1399 -0.028999999 0.89399999
0.14139999 -0.028999999 0.89399999
0.14300001 -0.028999999 0.89399999
0.1445 -0.028999999 0.89399999
0.1459 -0.028999999 0.89300001
0.1471 -0.028899999 0.89099997
0.1487 -0.028899999 0.89099997
0.1521 -0.028999999 0.89300001
0.1542 -0.029100001 0.89600003
0.1576 -0.029200001 0.898
0.16060001 -0.029100001 0.89700001
0.1619 -0.029100001 0.89600003
0.1631 -0.028999999 0.89399999
0.1645 -0.028999999 0.89300001
0.1657 -0.028899999 0.89099997
0.1672 -0.028899999 0.89099997
0.1689 -0.028999999 0.89200002
0.1707 -0.028999999 0.89300001
0.1728 -0.029100001 0.89600003
0.1744 -0.029100001 0.89600003
0.1759 -0.029100001 0.89600003
0.17749999 -0.029100001 0.89600003
0.17900001 -0.029100001 0.89600003
0.1806 -0.029100001 0.89600003
0.1815 -0.028999999 0.89300001
0.18359999 -0.0288 0.88800001
0.1849 -0.0288 0.88700002
0.1864 -0.0288 0.88700002
0.1876 -0.0287 0.88499999
0.1891 -0.0287 0.88499999
0.1904 -0.0287 0.884
0.1911 -0.0286 0.88
0.45140001 -0.053800002 1.656
0.5575 -0.054299999 1.673
0.56410003 -0.054699998 1.684
-0.41 -0.027000001 0.87699997
-0.3247 -0.0272 0.88499999
-0.32280001 -0.0272 0.884
-0.32089999 -0.0272 0.88300002
-0.31909999 -0.027100001 0.88200003
-0.3179 -0.0272 0.88300002
-0.31670001 -0.0272 0.884
-0.3152 -0.0272 0.884
-0.31369999 -0.0272 0.884
-0.3125 -0.0272 0.88499999
-0.3109 -0.0272 0.88499999
-0.30939999 -0.0272 0.88499999
-0.30790001 -0.0272 0.88499999
-0.30630001 -0.0272 0.88499999
-0.3055 -0.0273 0.88700002
-0.30329999 -0.0272 0.88499999
-0.3017 -0.0272 0.88499999
-0.2992 -0.027100001 0.88200003
-0.29629999 -0.027000001 0.87800002
-0.2931 -0.026799999 0.87300003
-0.2886 -0.026799999 0.87300003
-0.28799999 -0.026900001 0.87599999
-0.28749999 -0.027000001 0.87900001
-0.28659999 -0.027100001 0.88099998
-0.28580001 -0.0272 0.88300002
-0.2845 -0.0272 0.884
-0.2581 -0.0273 0.88800001
-0.25690001 -0.0273 0.889
-0.25529999 -0.0273 0.889
-0.25409999 -0.0274 0.88999999
-0.252 -0.0273 0.88800001
-0.2332 -0.027100001 0.88099998
-0.23190001 -0.027100001 0.88200003
-0.2304 -0.027100001 0.88200003
-0.2291 -0.0272 0.88300002
-0.2279 -0.0272 0.884
-0.2263 -0.0272 0.884
-0.22499999 -0.0272 0.88499999
-0.22040001 -0.0272 0.88499999
-0.21870001 -0.0272 0.884
-0.21709999 -0.0272 0.884
-0.2156 -0.0272 0.884
-0.2141 -0.0272 0.884
-0.21250001 -0.0272 0.884
-0.21080001 -0.0272 0.88300002
-0.20900001 -0.027100001 0.88200003
-0.207 -0.027100001 0.88
-0.2052 -0.027000001 0.87900001
-0.2035 -0.027000001 0.87800002
-0.2015 -0.026900001 0.87599999
-0.1998 -0.026900001 0.875
-0.19850001 -0.026900001 0.87599999
-0.1974 -0.027000001 0.87800002
-0.1961 -0.027000001 0.87900001
-0.1946 -0.027000001 0.87900001
-0.19329999 -0.027100001 0.88
-0.19220001 -0.027100001 0.88200003
-0.18979999 -0.0272 0.88499999
-0.1884 -0.0272 0.88599998
-0.1639 -0.025800001 0.83899999
-0.1613 -0.025599999 0.833
-0.1593 -0.0255 0.82999998
-0.1575 -0.0255 0.82800001
-0.1556 -0.0254 0.82599998
-0.154 -0.0254 0.82499999
-0.15279999 -0.0254 0.82599998
-0.1512 -0.0254 0.82499999
-0.1496 -0.0253 0.824
-0.1481 -0.0253 0.824
-0.14669999 -0.0253 0.824
-0.1451 -0.0253 0.82300001
-0.1435 -0.0253 0.82200003
-0.14210001 -0.0253 0.82200003
-0.141 -0.0253 0.824
-0.13959999 -0.0253 0.824
-0.13850001 -0.0254 0.82599998
-0.1372 -0.0254 0.82700002
-0.1358 -0.0254 0.82700002
-0.1347 -0.0255 0.829
-0.1332 -0.0255 0.829
-0.1318 -0.0255 0.829
-0.1303 -0.0255 0.829
-0.1288 -0.0255 0.82800001
-0.12729999 -0.0255 0.82800001
-0.1259 -0.0255 0.82800001
-0.1241 -0.0254 0.82599998
-0.1227 -0.0254 0.82599998
-0.1213 -0.0254 0.82599998
-0.1203 -0.0255 0.829
-0.1189 -0.0255 0.829
-0.1176 -0.0255 0.82999998
-0.1161 -0.0255 0.82999998
-0.1147 -0.0255 0.82999998
-0.1132 -0.0255 0.82999998
-0.1117 -0.0255 0.829
-0.1102 -0.0255 0.829
-0.1088 -0.0255 0.829
-0.1072 -0.0255 0.82800001
-0.1057 -0.0254 0.82700002
-0.1042 -0.0254 0.82700002
-0.1027 -0.0254 0.82599998
-0.1011 -0.0254 0.82499999
-0.099600002 -0.0253 0.824
-0.097900003 -0.0253 0.82200003
-0.0964 -0.0252 0.82099998
-0.094899997 -0.0252 0.82099998
-0.093699999 -0.0253 0.82300001
-0.092500001 -0.0254 0.82499999
-0.091200002 -0.0254 0.82599998
-0.089900002 -0.0254 0.82700002
-0.088600002 -0.0255 0.82800001
-0.087200001 -0.0255 0.829
-0.085699998 -0.0255 0.82800001
-0.084200002 -0.0254 0.82700002
-0.082699999 -0.0254 0.82700002
-0.081200004 -0.0254 0.82599998
-0.079800002 -0.0254 0.82599998
-0.078299999 -0.0254 0.82599998
-0.077 -0.0254 0.82700002
-0.075599998 -0.0254 0.82700002
-0.074100003 -0.0254 0.82700002
-0.072899997 -0.0255 0.829
-0.071400002 -0.0255 0.829
-0.070100002 -0.0255 0.82999998
-0.068700001 -0.025599999 0.83099997
-0.066100001 -0.025599999 0.83399999
-0.064599998 -0.025599999 0.83399999
-0.063199997 -0.025599999 0.83399999
-0.061799999 -0.025699999 0.83499998
-0.060400002 -0.025699999 0.83499998
-0.058899999 -0.025599999 0.83399999
-0.057300001 -0.025599999 0.83200002
-0.055799998 -0.025599999 0.83099997
-0.054299999 -0.025599999 0.83099997
-0.052999999 -0.025599999 0.83200002
-0.051399998 -0.025599999 0.83099997
-0.050000001 -0.025599999 0.83099997
-0.048599999 -0.025599999 0.83200002
-0.047499999 -0.025800001 0.838
-0.046399999 -0.026000001 0.84399998
-0.0449 -0.026000001 0.84399998
-0.043400001 -0.025900001 0.84200001
-0.041700002 -0.025800001 0.838
-0.0403 -0.025800001 0.838
-0.038699999 -0.025699999 0.83499998
-0.035700001 -0.025599999 0.83399999
-0.0317 -0.025900001 0.84100002
-0.030400001 -0.026000001 0.84600002
-0.0261 -0.0262 0.85100001
-0.024800001 -0.0263 0.85500002
-0.0197 -0.0274 0.89200002
-0.018200001 -0.0275 0.89499998
-0.0167 -0.0276 0.89600003
-0.0151 -0.0276 0.898
-0.0136 -0.0276 0.898
-0.012 -0.0276 0.898
-0.0105 -0.0276 0.898
-0.0088999998 -0.0276 0.898
-0.0074 -0.0276 0.898
-0.0057999999 -0.0276 0.898
-0.0041999999 -0.0276 0.898
0.0174 -0.0274 0.88999999
0.018999999 -0.0275 0.89300001
0.0206 -0.0276 0.89600003
0.0222 -0.0276 0.89700001
0.023700001 -0.0276 0.89600003
0.0252 -0.0275 0.89499998
0.026799999 -0.0275 0.89499998
0.0283 -0.0275 0.89399999
0.029899999 -0.0275 0.89499998
0.031500001 -0.0275 0.89499998
0.033100002 -0.0276 0.89700001
0.034699999 -0.0276 0.898
0.036200002 -0.0276 0.898
0.037799999 -0.0276 0.898
0.039299998 -0.0276 0.898
0.040800001 -0.0276 0.89600003
0.042199999 -0.0275 0.89300001
0.043699998 -0.0274 0.89200002
0.045299999 -0.0275 0.89300001
0.0469 -0.0275 0.89300001
0.0484 -0.0275 0.89300001
0.060899999 -0.0275 0.89399999
0.062399998 -0.0275 0.89399999
0.064099997 -0.0276 0.89600003
0.065899998 -0.0276 0.89899999
0.067599997 -0.0277 0.90100002
0.0691 -0.0277 0.89999998
0.070699997 -0.0277 0.90100002
0.072300002 -0.0277 0.90100002
0.073799998 -0.0277 0.90100002
0.075400002 -0.0277 0.90100002
0.076899998 -0.0277 0.90100002
0.078400001 -0.0277 0.89999998
0.0801 -0.0277 0.90100002
0.081600003 -0.0277 0.90100002
0.0832 -0.0277 0.90100002
0.084799998 -0.0277 0.90100002
0.086400002 -0.0277 0.90200001
0.088100001 -0.027799999 0.903
0.089599997 -0.027799999 0.903
0.091200002 -0.027799999 0.903
0.092799999 -0.027799999 0.903
0.0942 -0.0277 0.90200001
0.095700003 -0.0277 0.90100002
0.097000003 -0.0276 0.89899999
0.098399997 -0.0276 0.89700001
0.099799998 -0.0276 0.89600003
0.1014 -0.0276 0.89600003
0.1028 -0.0275 0.89499998
0.1042 -0.0275 0.89399999
0.1057 -0.0275 0.89300001
0.1072 -0.0275 0.89300001
0.109 -0.0275 0.89499998
0.1106 -0.0275 0.89499998
0.112 -0.0275 0.89399999
0.1134 -0.0275 0.89300001
0.115 -0.0275 0.89300001
0.1166 -0.0275 0.89399999
0.1183 -0.0275 0.89499998
0.1199 -0.0275 0.89499998
0.1216 -0.0276 0.89600003
0.1234 -0.0276 0.898
0.1252 -0.0277 0.89999998
0.1268 -0.0277 0.89999998
0.1283 -0.0277 0.89999998
0.12989999 -0.0277 0.89999998
0.13150001 -0.0277 0.89999998
0.1327 -0.0276 0.898
0.134 -0.0276 0.89600003
0.1354 -0.0275 0.89499998
0.13689999 -0.0275 0.89499998
0.1383 -0.0275 0.89399999
0.1397 -0.0275 0.89300001
0.14129999 -0.0275 0.89300001
0.1428 -0.0275 0.89300001
0.1444 -0.0275 0.89300001
0.14569999 -0.0274 0.89200002
0.1471 -0.0274 0.89099997
0.1542 -0.0276 0.89600003
0.1576 -0.0276 0.898
0.1592 -0.0276 0.898
0.16069999 -0.0276 0.898
0.1617 -0.0275 0.89499998
0.16329999 -0.0275 0.89499998
0.1645 -0.0275 0.89300001
0.1657 -0.0274 0.89099997
0.1672 -0.0274 0.89099997
0.16869999 -0.0274 0.89099997
0.1705 -0.0274 0.89200002
0.1724 -0.0275 0.89399999
0.1742 -0.0275 0.89499998
0.17569999 -0.0275 0.89499998
0.17730001 -0.0275 0.89499998
0.1804 -0.0275 0.89499998
0.1815 -0.0275 0.89300001
0.1824 -0.0274 0.88999999
0.1838 -0.0273 0.889
0.1851 -0.0273 0.88800001
0.1864 -0.0273 0.88700002
0.1876 -0.0272 0.88499999
0.1891 -0.0272 0.88499999
0.1904 -0.0272 0.884
0.38389999 -0.051100001 1.6619999
-0.4075 -0.0254 0.875
-0.40650001 -0.0254 0.87599999
-0.3603 -0.025599999 0.88200003
-0.34650001 -0.0254 0.87400001
-0.32280001 -0.025699999 0.884
-0.3213 -0.025699999 0.884
-0.31979999 -0.025699999 0.884
-0.3186 -0.025699999 0.88499999
-0.31709999 -0.025699999 0.88499999
-0.31549999 -0.025699999 0.88499999
-0.31439999 -0.025699999 0.88599998
-0.3125 -0.025699999 0.88499999
-0.31130001 -0.025699999 0.88599998
-0.3098 -0.025699999 0.88599998
-0.30790001 -0.025699999 0.88499999
-0.30630001 -0.025699999 0.88499999
-0.3048 -0.025699999 0.88499999
-0.30289999 -0.025699999 0.884
-0.30140001 -0.025699999 0.884
