# .PCD v0.7 - Point Cloud Data file format
VERSION 0.7
FIELDS x y z
SIZE 4 4 4
TYPE F F F
COUNT 1 1 1
WIDTH 1530
HEIGHT 1
VIEWPOINT 0 0 0 1 0 0 0
POINTS 1530
DATA ascii
0.045699999 0.081500001 0.89999998
0.0471 0.081299998 0.898
0.048599999 0.081200004 0.89700001
0.050099999 0.081100002 0.89499998
0.0515 0.080899999 0.89300001
0.053100001 0.080899999 0.89300001
0.0546 0.080899999 0.89300001
0.056400001 0.081200004 0.89700001
0.057999998 0.081299998 0.898
0.059599999 0.081299998 0.898
0.061099999 0.081299998 0.898
0.062799998 0.081500001 0.89999998
0.064499997 0.081600003 0.90100002
0.066 0.081600003 0.90100002
0.067500003 0.081500001 0.89999998
0.0691 0.081500001 0.89999998
0.070600003 0.081500001 0.89999998
0.0722 0.081500001 0.89999998
0.073700003 0.081500001 0.89999998
0.075300001 0.081500001 0.89999998
0.077 0.081699997 0.90200001
0.078699999 0.081799999 0.903
0.080300003 0.081900001 0.90399998
0.081900001 0.081900001 0.90399998
0.0836 0.082000002 0.90499997
0.085100003 0.082000002 0.90499997
0.0867 0.082000002 0.90499997
0.088200003 0.081900001 0.90399998
0.089599997 0.081799999 0.903
0.094400004 0.081900001 0.90399998
0.096000001 0.081900001 0.90399998
0.097499996 0.081799999 0.903
0.099100001 0.081900001 0.90399998
0.1006 0.081799999 0.903
0.1022 0.081799999 0.903
0.1035 0.081600003 0.90100002
0.1066 0.081600003 0.90100002
0.1081 0.081500001 0.89999998
0.1095 0.0814 0.89899999
0.1109 0.081299998 0.898
0.1125 0.081299998 0.898
0.1142 0.0814 0.89899999
0.1157 0.0814 0.89899999
0.1174 0.081500001 0.89999998
0.119 0.081500001 0.89999998
0.1207 0.081600003 0.90100002
0.1222 0.081600003 0.90100002
0.1235 0.0814 0.89899999
0.1249 0.081299998 0.898
0.1261 0.081100002 0.89499998
0.1276 0.081100002 0.89499998
0.12899999 0.081 0.89399999
0.1304 0.080899999 0.89300001
0.1323 0.081100002 0.89499998
0.134 0.081100002 0.89600003
0.13770001 0.081500001 0.89999998
0.1393 0.081500001 0.89999998
0.1425 0.081600003 0.90100002
0.14390001 0.081500001 0.89999998
0.1455 0.081500001 0.89999998
0.14669999 0.081299998 0.898
0.148 0.081100002 0.89600003
0.14920001 0.081 0.89399999
0.15109999 0.081100002 0.89600003
0.1533 0.081500001 0.89999998
0.15549999 0.081900001 0.90399998
0.1573 0.082000002 0.90499997
0.1592 0.082099997 0.90700001
0.1608 0.082099997 0.90700001
0.16249999 0.082199998 0.90799999
0.1639 0.082099997 0.90700001
0.16509999 0.082000002 0.90499997
0.16599999 0.081600003 0.90100002
0.1675 0.081600003 0.90100002
0.1691 0.081600003 0.90100002
0.1708 0.081699997 0.90200001
0.1724 0.081699997 0.90200001
0.1742 0.081799999 0.903
0.1759 0.081900001 0.90399998
0.1777 0.082000002 0.90499997
0.17919999 0.082000002 0.90499997
0.18099999 0.082099997 0.90600002
0.18260001 0.082099997 0.90600002
0.18440001 0.082099997 0.90700001
0.1855 0.082000002 0.90499997
-0.4136 0.082000002 0.88800001
-0.3554 0.081699997 0.88499999
-0.3531 0.081500001 0.88300002
-0.35120001 0.0814 0.88200003
-0.34740001 0.082000002 0.88800001
-0.3459 0.0823 0.89200002
-0.34349999 0.082099997 0.88999999
-0.34200001 0.082099997 0.88999999
-0.3405 0.082099997 0.88999999
-0.3382 0.082000002 0.88800001
-0.33660001 0.082000002 0.88800001
-0.3351 0.082000002 0.88800001
-0.3335 0.082000002 0.88800001
-0.33270001 0.082099997 0.88999999
-0.3308 0.082099997 0.889
-0.32929999 0.082099997 0.889
-0.3274 0.082000002 0.88800001
-0.32390001 0.081900001 0.88700002
-0.31979999 0.081600003 0.884
-0.31709999 0.081699997 0.88499999
-0.31529999 0.082400002 0.89300001
-0.3159 0.082999997 0.89899999
-0.315 0.0832 0.90100002
-0.31380001 0.083300002 0.90200001
-0.30930001 0.082900003 0.898
-0.30700001 0.082699999 0.89600003
-0.30450001 0.082400002 0.89300001
-0.3019 0.082099997 0.88999999
-0.2915 0.0814 0.88200003
-0.2897 0.081299998 0.88099998
-0.27970001 0.082000002 0.88800001
-0.27810001 0.082000002 0.88800001
-0.27599999 0.082199998 0.89099997
-0.26980001 0.082199998 0.89099997
-0.2683 0.082199998 0.89099997
-0.26640001 0.082099997 0.88999999
-0.2649 0.082099997 0.88999999
-0.2559 0.082199998 0.89099997
-0.25409999 0.082099997 0.88999999
-0.2525 0.082099997 0.88999999
-0.25099999 0.082099997 0.88999999
-0.24969999 0.082199998 0.89099997
-0.2485 0.0823 0.89200002
-0.24779999 0.082599998 0.89499998
-0.2439 0.082900003 0.898
-0.2421 0.082800001 0.89700001
-0.2376 0.0823 0.89200002
-0.23559999 0.082099997 0.88999999
-0.2335 0.082000002 0.88800001
-0.2317 0.081900001 0.88700002
-0.2286 0.081900001 0.88700002
-0.1971 0.076800004 0.83200002
-0.1955 0.076700002 0.83099997
-0.1938 0.0766 0.82999998
-0.19239999 0.0766 0.82999998
-0.1767 0.076700002 0.83099997
-0.1753 0.076700002 0.83099997
-0.17219999 0.0766 0.82999998
-0.1708 0.0766 0.82999998
-0.1693 0.0766 0.82999998
-0.1681 0.076700002 0.83099997
-0.16689999 0.076800004 0.83200002
-0.1654 0.076800004 0.83200002
-0.16419999 0.076899998 0.833
-0.1627 0.076899998 0.833
-0.16150001 0.077 0.83399999
-0.1499 0.077 0.83399999
-0.1485 0.077 0.83399999
-0.1469 0.076899998 0.833
-0.1454 0.076899998 0.833
-0.14399999 0.076899998 0.833
-0.1411 0.076899998 0.833
-0.13950001 0.076800004 0.83200002
-0.13689999 0.077 0.83399999
-0.1355 0.077 0.83399999
-0.1319 0.077399999 0.83899999
-0.13060001 0.077500001 0.83999997
-0.12899999 0.077399999 0.83899999
-0.1242 0.077200003 0.83600003
-0.1132 0.0766 0.82999998
-0.1117 0.076499999 0.829
-0.1102 0.076499999 0.829
-0.1088 0.076499999 0.829
-0.1074 0.076499999 0.829
-0.1059 0.076499999 0.829
-0.1047 0.076700002 0.83099997
-0.1035 0.076899998 0.833
-0.1021 0.076899998 0.833
-0.1007 0.076899998 0.833
-0.099200003 0.076899998 0.833
-0.097800002 0.076899998 0.833
-0.096199997 0.076800004 0.83200002
-0.094899997 0.076899998 0.833
-0.0933 0.076800004 0.83200002
-0.092 0.076899998 0.833
-0.090599999 0.076899998 0.833
-0.089100003 0.076899998 0.833
-0.087700002 0.076899998 0.833
-0.086099997 0.076800004 0.83200002
-0.084600002 0.076700002 0.83099997
-0.082999997 0.0766 0.82999998
-0.081600003 0.0766 0.82999998
-0.0801 0.076499999 0.829
-0.078599997 0.076499999 0.829
-0.077299997 0.0766 0.82999998
-0.075900003 0.076700002 0.83099997
-0.074699998 0.076899998 0.833
-0.073200002 0.076899998 0.833
-0.071900003 0.077 0.83399999
-0.070600003 0.077200003 0.83600003
-0.069200002 0.077299997 0.83700001
-0.0678 0.077299997 0.83700001
-0.066200003 0.077200003 0.83600003
-0.0647 0.077100001 0.83499998
-0.063199997 0.077 0.83399999
-0.061799999 0.077 0.83399999
-0.060199998 0.076800004 0.83200002
-0.058600001 0.076700002 0.83099997
-0.0572 0.076700002 0.83099997
-0.055799998 0.076700002 0.83099997
-0.054299999 0.076700002 0.83099997
-0.052999999 0.076800004 0.83200002
-0.0515 0.076800004 0.83200002
-0.050099999 0.076899998 0.833
-0.048700001 0.077 0.83399999
-0.047400001 0.077200003 0.83600003
-0.046100002 0.077299997 0.838
-0.0447 0.077399999 0.83899999
-0.043299999 0.077500001 0.83999997
-0.0418 0.077500001 0.83999997
-0.040399998 0.077600002 0.84100002
-0.038899999 0.077500001 0.83999997
-0.0374 0.077399999 0.83899999
-0.0359 0.077299997 0.83700001
-0.034299999 0.077 0.83399999
-0.030999999 0.083700001 0.90700001
-0.0294 0.0836 0.90600002
-0.027799999 0.083499998 0.90499997
-0.0262 0.083300002 0.903
-0.024599999 0.0832 0.90100002
-0.023 0.083099999 0.89999998
-0.021400001 0.082900003 0.898
-0.0198 0.082699999 0.89600003
-0.018200001 0.082699999 0.89600003
-0.0166 0.082599998 0.89499998
-0.012 0.083099999 0.89999998
-0.0074 0.083300002 0.90200001
-0.0057999999 0.083300002 0.903
-0.0043000001 0.083400004 0.90399998
-0.0027000001 0.083300002 0.903
-0.0011 0.083300002 0.903
0.00039999999 0.083300002 0.903
0.0020000001 0.083300002 0.903
0.0035999999 0.083300002 0.90200001
0.0051000002 0.0832 0.90100002
0.0066999998 0.083099999 0.89999998
0.0082 0.083099999 0.89999998
0.0098000001 0.083099999 0.89999998
0.0114 0.083099999 0.89999998
0.0129 0.083099999 0.89999998
0.0145 0.083099999 0.89999998
0.016000001 0.083099999 0.89999998
0.0176 0.0832 0.90100002
0.019200001 0.083099999 0.89999998
0.0207 0.082999997 0.89899999
0.0222 0.082800001 0.89700001
0.023700001 0.082500003 0.89399999
0.0252 0.082400002 0.89300001
0.026699999 0.082199998 0.89099997
0.028200001 0.082199998 0.89099997
0.0298 0.082199998 0.89099997
0.031300001 0.0823 0.89200002
0.033 0.082500003 0.89399999
0.034600001 0.082699999 0.89600003
0.036200002 0.082900003 0.898
0.037799999 0.082999997 0.89899999
0.0394 0.083099999 0.89999998
0.041099999 0.083300002 0.90200001
0.0427 0.083300002 0.903
0.044199999 0.0832 0.90100002
0.045699999 0.0832 0.90100002
0.047200002 0.083099999 0.89999998
0.048700001 0.082900003 0.898
0.050099999 0.082699999 0.89600003
0.051600002 0.082500003 0.89399999
0.053100001 0.082400002 0.89300001
0.0546 0.082400002 0.89300001
0.056299999 0.082599998 0.89499998
0.0579 0.082699999 0.89600003
0.0594 0.082599998 0.89499998
0.061000001 0.082699999 0.89600003
0.062700003 0.082900003 0.898
0.064400002 0.083099999 0.89999998
0.065899998 0.083099999 0.89999998
0.067400001 0.082999997 0.89899999
0.0691 0.083099999 0.89999998
0.070600003 0.083099999 0.89999998
0.0722 0.083099999 0.89999998
0.073700003 0.083099999 0.89999998
0.075400002 0.0832 0.90100002
0.077100001 0.083300002 0.903
0.080499999 0.0836 0.90600002
0.082099997 0.0836 0.90600002
0.083700001 0.0836 0.90600002
0.085199997 0.0836 0.90600002
0.086800002 0.0836 0.90600002
0.088299997 0.083499998 0.90499997
0.089599997 0.083300002 0.903
0.091300003 0.083400004 0.90399998
0.093000002 0.083499998 0.90499997
0.096100003 0.083499998 0.90499997
0.097599998 0.083400004 0.90399998
0.099200003 0.083499998 0.90499997
0.1008 0.083499998 0.90499997
0.1024 0.083499998 0.90499997
0.1038 0.083400004 0.90399998
0.1055 0.083499998 0.90499997
0.1069 0.083300002 0.903
0.1083 0.083300002 0.90200001
0.1096 0.083099999 0.89999998
0.1109 0.082900003 0.898
0.1122 0.082699999 0.89600003
0.1138 0.082699999 0.89600003
0.1153 0.082699999 0.89600003
0.117 0.082800001 0.89700001
0.1187 0.082900003 0.898
0.1204 0.082999997 0.89899999
0.122 0.082999997 0.89899999
0.1232 0.082800001 0.89700001
0.1245 0.082599998 0.89499998
0.1258 0.082400002 0.89300001
0.12729999 0.082400002 0.89300001
0.1287 0.0823 0.89200002
0.1303 0.0823 0.89200002
0.132 0.082400002 0.89300001
0.1338 0.082599998 0.89499998
0.1355 0.082699999 0.89600003
0.1375 0.082999997 0.89899999
0.1393 0.083099999 0.89999998
0.1408 0.083099999 0.89999998
0.1425 0.0832 0.90100002
0.1441 0.0832 0.90100002
0.14569999 0.0832 0.90100002
0.1471 0.083099999 0.89999998
0.14830001 0.082900003 0.898
0.1495 0.082699999 0.89600003
0.15109999 0.082699999 0.89600003
0.153 0.082900003 0.898
0.1552 0.083300002 0.90200001
0.15710001 0.083400004 0.90399998
0.1592 0.083700001 0.90700001
0.1608 0.083700001 0.90700001
0.16230001 0.083700001 0.90700001
0.1636 0.083499998 0.90499997
0.1648 0.083300002 0.903
0.16599999 0.0832 0.90100002
0.1675 0.0832 0.90100002
0.1693 0.083300002 0.90200001
0.171 0.083300002 0.903
0.1726 0.083300002 0.903
0.1745 0.083499998 0.90499997
0.1761 0.083499998 0.90499997
0.1779 0.0836 0.90600002
0.18099999 0.0836 0.90600002
0.1824 0.083499998 0.90499997
0.1837 0.083400004 0.90399998
0.1851 0.083300002 0.903
0.1869 0.083400004 0.90399998
-0.4131 0.083400004 0.88700002
-0.347 0.082999997 0.88300002
-0.34470001 0.0832 0.88499999
-0.3439 0.083400004 0.88700002
-0.34200001 0.083300002 0.88599998
-0.34079999 0.083400004 0.88700002
-0.33930001 0.083400004 0.88700002
-0.3378 0.083400004 0.88700002
-0.33590001 0.083300002 0.88599998
-0.33469999 0.083400004 0.88700002
-0.3335 0.083499998 0.88800001
-0.33239999 0.0836 0.889
-0.33050001 0.083499998 0.88800001
-0.32890001 0.083499998 0.88800001
-0.3274 0.083499998 0.88800001
-0.32550001 0.083400004 0.88700002
-0.32359999 0.083300002 0.88599998
-0.32170001 0.0832 0.88499999
-0.32010001 0.0832 0.88499999
-0.31389999 0.0836 0.889
-0.3145 0.084200002 0.89499998
-0.31529999 0.084799998 0.90200001
-0.3145 0.085000001 0.90399998
-0.31259999 0.084899999 0.903
-0.31029999 0.084700003 0.90100002
-0.30649999 0.0845 0.89899999
-0.29190001 0.082999997 0.88300002
-0.28999999 0.082900003 0.88200003
-0.28029999 0.083700001 0.88999999
-0.2791 0.083800003 0.89099997
-0.2782 0.083999999 0.89300001
-0.27599999 0.084299996 0.89600003
-0.27469999 0.084299996 0.89700001
-0.27070001 0.084100001 0.89399999
-0.2683 0.083800003 0.89099997
-0.26460001 0.0836 0.889
-0.26030001 0.083700001 0.88999999
-0.25749999 0.083800003 0.89099997
-0.25409999 0.083700001 0.88999999
-0.25279999 0.083800003 0.89099997
-0.25099999 0.083700001 0.88999999
-0.24950001 0.083700001 0.88999999
-0.2482 0.083800003 0.89099997
-0.2472 0.083999999 0.89300001
-0.2449 0.084299996 0.89600003
-0.24339999 0.084299996 0.89600003
-0.2403 0.084299996 0.89600003
-0.2384 0.084200002 0.89499998
-0.234 0.083700001 0.88999999
-0.2304 0.083499998 0.88800001
-0.2286 0.083400004 0.88700002
-0.2271 0.083400004 0.88700002
-0.19859999 0.078199998 0.83200002
-0.1969 0.078100003 0.83099997
-0.1955 0.078100003 0.83099997
-0.19400001 0.078100003 0.83099997
-0.17839999 0.078199998 0.83200002
-0.1751 0.078000002 0.82999998
-0.1737 0.078000002 0.82999998
-0.17219999 0.078000002 0.82999998
-0.1708 0.078000002 0.82999998
-0.1693 0.078000002 0.82999998
-0.1681 0.078100003 0.83099997
-0.16670001 0.078100003 0.83099997
-0.1652 0.078100003 0.83099997
-0.164 0.078199998 0.83200002
-0.16249999 0.078199998 0.83200002
-0.1611 0.078199998 0.83200002
-0.15979999 0.078299999 0.833
-0.1497 0.078299999 0.833
-0.1481 0.078199998 0.83200002
-0.1452 0.078199998 0.83200002
-0.14380001 0.078199998 0.83200002
-0.1424 0.078199998 0.83200002
-0.1409 0.078199998 0.83200002
-0.13950001 0.078199998 0.83200002
-0.13680001 0.078299999 0.833
-0.13420001 0.078500003 0.83499998
-0.1331 0.078699999 0.83700001
-0.1319 0.078900002 0.83899999
-0.1293 0.079099998 0.84100002
-0.1277 0.079000004 0.83999997
-0.12630001 0.079000004 0.83999997
-0.1164 0.078199998 0.83200002
-0.1148 0.078100003 0.83099997
-0.1089 0.078000002 0.82999998
-0.1075 0.078000002 0.82999998
-0.106 0.078000002 0.82999998
-0.1047 0.078100003 0.83099997
-0.1034 0.078199998 0.83200002
-0.1021 0.078299999 0.833
-0.1005 0.078199998 0.83200002
-0.099100001 0.078199998 0.83200002
-0.0977 0.078199998 0.83200002
-0.096199997 0.078199998 0.83200002
-0.094800003 0.078199998 0.83200002
-0.0933 0.078199998 0.83200002
-0.092 0.078299999 0.833
-0.090599999 0.078299999 0.833
-0.089100003 0.078299999 0.833
-0.087700002 0.078299999 0.833
-0.086199999 0.078299999 0.833
-0.084700003 0.078199998 0.83200002
-0.083099999 0.078100003 0.83099997
-0.081600003 0.078000002 0.82999998
-0.080200002 0.078000002 0.82999998
-0.078699999 0.078000002 0.82999998
-0.077399999 0.078100003 0.83099997
-0.075999998 0.078199998 0.83200002
-0.0748 0.078400001 0.83399999
-0.073299997 0.078400001 0.83399999
-0.071999997 0.078500003 0.83499998
-0.070799999 0.0788 0.838
-0.069399998 0.078900002 0.83899999
-0.067900002 0.078900002 0.83899999
-0.066399999 0.0788 0.838
-0.064999998 0.0788 0.838
-0.063500002 0.0788 0.838
-0.061900001 0.078599997 0.83600003
-0.060199998 0.078299999 0.833
-0.058600001 0.078100003 0.83099997
-0.057100002 0.078000002 0.82999998
-0.0557 0.078000002 0.82999998
-0.054299999 0.078000002 0.82999998
-0.052900001 0.078100003 0.83099997
-0.0515 0.078199998 0.83200002
-0.050099999 0.078199998 0.83200002
-0.048700001 0.078400001 0.83399999
-0.047499999 0.078699999 0.83700001
-0.046100002 0.0788 0.838
-0.0447 0.078900002 0.83899999
-0.043200001 0.078900002 0.83899999
-0.0418 0.079000004 0.83999997
-0.040399998 0.079000004 0.83999997
-0.038899999 0.078900002 0.83899999
-0.0374 0.0788 0.838
-0.035799999 0.078500003 0.83499998
-0.034200002 0.078299999 0.833
-0.030999999 0.085299999 0.90700001
-0.0294 0.085199997 0.90600002
-0.027799999 0.085100003 0.90499997
-0.0261 0.084799998 0.90200001
-0.024499999 0.084600002 0.89999998
-0.0229 0.0845 0.89899999
-0.021400001 0.084399998 0.898
-0.0198 0.084299996 0.89700001
-0.018200001 0.084299996 0.89700001
-0.0057999999 0.084899999 0.903
-0.0043000001 0.084899999 0.903
-0.0027000001 0.085000001 0.90399998
-0.0011 0.084899999 0.903
0.00039999999 0.084899999 0.903
0.0020000001 0.084799998 0.90200001
0.0035999999 0.084700003 0.90100002
0.0051000002 0.084700003 0.90100002
0.0066999998 0.084600002 0.89999998
0.0082 0.084600002 0.89999998
0.0098000001 0.084600002 0.89999998
0.0114 0.084600002 0.89999998
0.0129 0.084600002 0.89999998
0.0145 0.084600002 0.89999998
0.016000001 0.084700003 0.90100002
0.0176 0.084700003 0.90100002
0.019200001 0.084700003 0.90100002
0.0207 0.084600002 0.89999998
0.0222 0.0845 0.89899999
0.023800001 0.084299996 0.89700001
0.0252 0.084200002 0.89499998
0.026799999 0.084100001 0.89399999
0.0283 0.083999999 0.89300001
0.0298 0.083999999 0.89300001
0.031399999 0.084100001 0.89399999
0.033 0.084200002 0.89499998
0.034600001 0.084299996 0.89700001
0.036200002 0.084399998 0.898
0.037799999 0.0845 0.89899999
0.0394 0.084600002 0.89999998
0.041000001 0.084700003 0.90100002
0.0427 0.084899999 0.903
0.044199999 0.084700003 0.90100002
0.045699999 0.084700003 0.90100002
0.047200002 0.084600002 0.89999998
0.048700001 0.084399998 0.898
0.050099999 0.084299996 0.89600003
0.051600002 0.084200002 0.89499998
0.053100001 0.084100001 0.89399999
0.054699998 0.084100001 0.89399999
0.056299999 0.084200002 0.89499998
0.0579 0.084299996 0.89600003
0.0594 0.084299996 0.89600003
0.061000001 0.084299996 0.89600003
0.062700003 0.084399998 0.898
0.064300001 0.0845 0.89899999
0.065899998 0.084600002 0.89999998
0.067400001 0.0845 0.89899999
0.0691 0.084600002 0.89999998
0.070600003 0.084600002 0.89999998
0.0722 0.084600002 0.89999998
0.073700003 0.084600002 0.89999998
0.075499997 0.084799998 0.90200001
0.080600001 0.085299999 0.90700001
0.082099997 0.085199997 0.90600002
0.083700001 0.085299999 0.90700001
0.085199997 0.085199997 0.90600002
0.086800002 0.085199997 0.90600002
0.088299997 0.085100003 0.90499997
0.089699998 0.085000001 0.90399998
0.091200002 0.084899999 0.903
0.092799999 0.084899999 0.903
0.094300002 0.084899999 0.903
0.095899999 0.084899999 0.903
0.097499996 0.084899999 0.903
0.099100001 0.085000001 0.90399998
0.1007 0.085000001 0.90399998
0.1024 0.085100003 0.90499997
0.1071 0.085100003 0.90499997
0.1084 0.084899999 0.903
0.1096 0.084600002 0.89999998
0.1109 0.084399998 0.898
0.1121 0.084200002 0.89499998
0.1137 0.084200002 0.89499998
0.1151 0.084100001 0.89399999
0.1168 0.084200002 0.89499998
0.1183 0.084200002 0.89499998
0.1199 0.084200002 0.89499998
0.1213 0.084100001 0.89399999
0.1226 0.083899997 0.89200002
0.124 0.083800003 0.89099997
0.12540001 0.083700001 0.88999999
0.1269 0.083700001 0.88999999
0.1285 0.083700001 0.88999999
0.13 0.083700001 0.88999999
0.13169999 0.083800003 0.89099997
0.13339999 0.083899997 0.89200002
0.13519999 0.084100001 0.89399999
0.1371 0.084299996 0.89600003
0.1389 0.084399998 0.898
0.1407 0.0845 0.89899999
0.1424 0.084600002 0.89999998
0.1441 0.084700003 0.90100002
0.14569999 0.084700003 0.90100002
0.1471 0.084600002 0.89999998
0.1481 0.084299996 0.89700001
0.14929999 0.084200002 0.89499998
0.1507 0.084100001 0.89399999
0.15260001 0.084299996 0.89600003
0.1573 0.085100003 0.90499997
0.1592 0.085299999 0.90700001
0.1608 0.085299999 0.90700001
0.16230001 0.085299999 0.90700001
0.1636 0.085100003 0.90499997
0.1649 0.085000001 0.90399998
0.1661 0.084799998 0.90200001
0.16769999 0.084799998 0.90200001
0.16949999 0.084899999 0.903
0.17120001 0.085000001 0.90399998
0.17299999 0.085100003 0.90499997
0.17470001 0.085199997 0.90600002
0.17649999 0.085299999 0.90700001
0.17829999 0.0854 0.90799999
0.1798 0.0854 0.90799999
0.1824 0.085100003 0.90499997
0.1837 0.085000001 0.90399998
0.1849 0.084799998 0.90200001
0.1865 0.084799998 0.90200001
-0.41460001 0.084899999 0.88700002
-0.40759999 0.084799998 0.88499999
-0.37200001 0.086499996 0.903
-0.352 0.084700003 0.884
-0.34810001 0.0845 0.88200003
-0.3439 0.084600002 0.88300002
-0.34279999 0.084700003 0.884
-0.34119999 0.084700003 0.884
-0.34009999 0.084799998 0.88499999
-0.33849999 0.084799998 0.88499999
-0.33700001 0.084799998 0.88499999
-0.3355 0.084799998 0.88499999
-0.3339 0.084799998 0.88499999
-0.3335 0.085000001 0.88800001
-0.33050001 0.085000001 0.88800001
-0.32890001 0.085000001 0.88800001
-0.32550001 0.084899999 0.88700002
-0.32359999 0.084899999 0.88599998
-0.32170001 0.084799998 0.88499999
-0.31979999 0.084700003 0.884
-0.31709999 0.084799998 0.88499999
-0.3159 0.084899999 0.88599998
-0.31349999 0.085000001 0.88800001
-0.31760001 0.086599998 0.90399998
-0.31639999 0.0867 0.90499997
-0.31479999 0.0867 0.90499997
-0.31330001 0.0867 0.90499997
-0.29660001 0.085000001 0.88800001
-0.29249999 0.084799998 0.88499999
-0.28850001 0.0845 0.88200003
-0.2791 0.085299999 0.89099997
-0.2782 0.085500002 0.89300001
-0.27689999 0.086099997 0.89899999
-0.2757 0.086199999 0.89999998
-0.27410001 0.086199999 0.89999998
-0.27250001 0.086199999 0.89999998
-0.27039999 0.086000003 0.898
-0.26359999 0.085299999 0.89099997
-0.25749999 0.085299999 0.89099997
-0.25560001 0.085199997 0.88999999
-0.25409999 0.085199997 0.88999999
-0.2525 0.085199997 0.88999999
-0.2507 0.085100003 0.889
-0.2492 0.085100003 0.889
-0.24789999 0.085199997 0.88999999
-0.2466 0.085299999 0.89099997
-0.24339999 0.0858 0.89600003
-0.2421 0.085900001 0.89700001
-0.24079999 0.086000003 0.898
-0.2387 0.0858 0.89600003
-0.2366 0.085600004 0.89399999
-0.23459999 0.0854 0.89200002
-0.2325 0.085199997 0.88999999
-0.2307 0.085100003 0.889
-0.2271 0.084899999 0.88700002
-0.2235 0.084799998 0.88499999
-0.19859999 0.079700001 0.83200002
-0.1969 0.079599999 0.83099997
-0.1957 0.079700001 0.83200002
-0.1926 0.079599999 0.83099997
-0.1767 0.079599999 0.83099997
-0.1737 0.079499997 0.82999998
-0.17200001 0.079400003 0.829
-0.1706 0.079400003 0.829
-0.1691 0.079400003 0.829
-0.1679 0.079499997 0.82999998
-0.16670001 0.079599999 0.83099997
-0.16500001 0.079499997 0.82999998
-0.1638 0.079599999 0.83099997
-0.16230001 0.079599999 0.83099997
-0.1609 0.079599999 0.83099997
-0.15800001 0.079599999 0.83099997
-0.1566 0.079599999 0.83099997
-0.1543 0.079899997 0.83399999
-0.15279999 0.079899997 0.83399999
-0.1512 0.079800002 0.833
-0.1496 0.079700001 0.83200002
-0.1479 0.079599999 0.83099997
-0.14650001 0.079599999 0.83099997
-0.1451 0.079599999 0.83099997
-0.1436 0.079599999 0.83099997
-0.14219999 0.079599999 0.83099997
-0.1409 0.079700001 0.83200002
-0.13950001 0.079700001 0.83200002
-0.138 0.079700001 0.83200002
-0.13689999 0.079899997 0.83399999
-0.1355 0.079899997 0.83399999
-0.13420001 0.079999998 0.83499998
-0.1319 0.080300003 0.83899999
-0.13079999 0.080499999 0.84100002
-0.1293 0.080499999 0.84100002
-0.1277 0.080399998 0.83999997
-0.12639999 0.080499999 0.84100002
-0.1246 0.080300003 0.83899999
-0.1229 0.080200002 0.83700001
-0.1215 0.080200002 0.83700001
-0.118 0.079800002 0.833
-0.1165 0.079800002 0.833
-0.1148 0.079599999 0.83099997
-0.1118 0.079499997 0.82999998
-0.1089 0.079499997 0.82999998
-0.1075 0.079499997 0.82999998
-0.106 0.079499997 0.82999998
-0.1046 0.079499997 0.82999998
-0.1034 0.079700001 0.83200002
-0.1021 0.079800002 0.833
-0.1005 0.079700001 0.83200002
-0.099100001 0.079700001 0.83200002
-0.0977 0.079700001 0.83200002
-0.096199997 0.079700001 0.83200002
-0.0933 0.079700001 0.83200002
-0.092 0.079800002 0.833
-0.090700001 0.079899997 0.83399999
-0.089199997 0.079899997 0.83399999
-0.087800004 0.079899997 0.83399999
-0.086300001 0.079899997 0.83399999
-0.084700003 0.079700001 0.83200002
-0.083099999 0.079599999 0.83099997
-0.081699997 0.079599999 0.83099997
-0.0801 0.079400003 0.829
-0.078699999 0.079499997 0.82999998
-0.077399999 0.079599999 0.83099997
-0.075999998 0.079700001 0.83200002
-0.0748 0.079899997 0.83399999
-0.073399998 0.079999998 0.83499998
-0.071999997 0.079999998 0.83499998
-0.070799999 0.080300003 0.838
-0.069399998 0.080300003 0.83899999
-0.068000004 0.080399998 0.83999997
-0.066600002 0.080399998 0.83999997
-0.065099999 0.080399998 0.83999997
-0.063699998 0.080399998 0.83999997
-0.062100001 0.080300003 0.83899999
-0.060400002 0.079999998 0.83499998
-0.058800001 0.079800002 0.833
-0.057300001 0.079700001 0.83200002
-0.055799998 0.079599999 0.83099997
-0.054299999 0.079599999 0.83099997
-0.052999999 0.079700001 0.83200002
-0.051600002 0.079800002 0.833
-0.050099999 0.079800002 0.833
-0.048799999 0.079999998 0.83499998
-0.047499999 0.080300003 0.838
-0.046100002 0.080300003 0.83899999
-0.0447 0.080300003 0.83899999
-0.043200001 0.080300003 0.83899999
-0.0418 0.080300003 0.83899999
-0.040399998 0.080399998 0.83999997
-0.038899999 0.080300003 0.83899999
-0.037300002 0.080200002 0.83700001
-0.035799999 0.079999998 0.83499998
-0.034200002 0.079700001 0.83200002
-0.032600001 0.079400003 0.829
-0.032699998 0.087099999 0.91000003
-0.030999999 0.086999997 0.90799999
-0.0294 0.086800002 0.90600002
-0.027799999 0.086599998 0.90399998
-0.0261 0.086300001 0.90100002
-0.024499999 0.086099997 0.89899999
-0.0229 0.085900001 0.89700001
-0.021299999 0.0858 0.89600003
-0.0057999999 0.086499996 0.903
-0.0043000001 0.086499996 0.903
-0.0027000001 0.086499996 0.903
-0.0011 0.086499996 0.903
0.00039999999 0.086499996 0.903
0.0020000001 0.086300001 0.90100002
0.0035999999 0.086199999 0.89999998
0.0051000002 0.086199999 0.89999998
0.0066999998 0.086199999 0.89999998
0.0082 0.086199999 0.89999998
0.0098000001 0.086199999 0.89999998
0.0114 0.086199999 0.89999998
0.0129 0.086199999 0.89999998
0.0145 0.086300001 0.90100002
0.016000001 0.086300001 0.90100002
0.0176 0.086300001 0.90100002
0.019200001 0.086300001 0.90100002
0.0207 0.086300001 0.90100002
0.022299999 0.086199999 0.89999998
0.023800001 0.086000003 0.898
0.0253 0.0858 0.89600003
0.026799999 0.085699998 0.89499998
0.0284 0.085699998 0.89499998
0.029899999 0.085699998 0.89499998
0.031500001 0.0858 0.89600003
0.033100002 0.085900001 0.89700001
0.034699999 0.086000003 0.898
0.0363 0.086099997 0.89899999
0.037900001 0.086199999 0.89999998
0.039500002 0.086300001 0.90100002
0.041099999 0.086400002 0.90200001
0.0427 0.086499996 0.903
0.044199999 0.086400002 0.90200001
0.045699999 0.086300001 0.90100002
0.0473 0.086300001 0.90100002
0.048799999 0.086199999 0.89999998
0.050299998 0.086099997 0.89899999
0.051800001 0.086000003 0.898
0.053199999 0.0858 0.89600003
0.0548 0.0858 0.89600003
0.056299999 0.0858 0.89600003
0.0579 0.0858 0.89600003
0.0594 0.085699998 0.89499998
0.061000001 0.0858 0.89600003
0.062600002 0.085900001 0.89700001
0.064199999 0.086000003 0.898
0.065899998 0.086199999 0.89999998
0.067500003 0.086199999 0.89999998
0.0691 0.086199999 0.89999998
0.070699997 0.086300001 0.90100002
0.072300002 0.086400002 0.90200001
0.073899999 0.086400002 0.90200001
0.075599998 0.086499996 0.903
0.079000004 0.086900003 0.90700001
0.080700003 0.086999997 0.90799999
0.0823 0.086999997 0.90799999
0.083800003 0.086999997 0.90799999
0.0854 0.086999997 0.90799999
0.086900003 0.086900003 0.90700001
0.088500001 0.086900003 0.90700001
0.0898 0.0867 0.90499997
0.091399997 0.0867 0.90499997
0.092900001 0.086599998 0.90399998
0.094400004 0.086599998 0.90399998
0.096000001 0.086599998 0.90399998
0.097599998 0.086599998 0.90399998
0.099100001 0.086599998 0.90399998
0.1008 0.0867 0.90499997
0.1024 0.0867 0.90499997
0.1071 0.0867 0.90499997
0.1084 0.086499996 0.903
0.1096 0.086199999 0.89999998
0.1106 0.085699998 0.89499998
0.1117 0.0854 0.89200002
0.1132 0.085299999 0.89099997
0.1147 0.085299999 0.89099997
0.1164 0.0854 0.89200002
0.1181 0.085500002 0.89300001
0.1195 0.0854 0.89200002
0.121 0.0854 0.89200002
0.1224 0.085299999 0.89099997
0.1238 0.085199997 0.88999999
0.1252 0.085100003 0.889
0.1268 0.085100003 0.889
0.1283 0.085100003 0.889
0.12989999 0.085100003 0.889
0.13150001 0.085199997 0.88999999
0.1332 0.085299999 0.89099997
0.13519999 0.085600004 0.89399999
0.1371 0.0858 0.89600003
0.1389 0.086000003 0.898
0.1407 0.086099997 0.89899999
0.1424 0.086199999 0.89999998
0.1441 0.086300001 0.90100002
0.1455 0.086199999 0.89999998
0.14669999 0.086000003 0.898
0.1478 0.085699998 0.89499998
0.15260001 0.0858 0.89600003
0.1575 0.086800002 0.90600002
0.1592 0.086900003 0.90700001
0.1608 0.086900003 0.90700001
0.16230001 0.086900003 0.90700001
0.1636 0.0867 0.90499997
0.1648 0.086499996 0.903
0.16599999 0.086300001 0.90100002
0.1675 0.086300001 0.90100002
0.16949999 0.086499996 0.903
0.1714 0.0867 0.90499997
0.17299999 0.0867 0.90499997
0.1751 0.086999997 0.90799999
0.1767 0.086999997 0.90799999
0.17829999 0.086999997 0.90799999
0.18350001 0.086499996 0.903
0.1847 0.086300001 0.90100002
0.18629999 0.086300001 0.90100002
0.18799999 0.086400002 0.90200001
0.18979999 0.086499996 0.903
-0.41420001 0.086400002 0.88599998
-0.3705 0.088 0.903
-0.34580001 0.0858 0.88
-0.34470001 0.085900001 0.88099998
-0.34349999 0.086000003 0.88200003
-0.34279999 0.086199999 0.884
-0.34079999 0.086099997 0.88300002
-0.33970001 0.086199999 0.884
-0.3382 0.086199999 0.884
-0.33700001 0.086300001 0.88499999
-0.3355 0.086300001 0.88499999
-0.3339 0.086300001 0.88499999
-0.3274 0.086599998 0.88800001
-0.32390001 0.086499996 0.88700002
-0.32170001 0.086300001 0.88499999
-0.31740001 0.086400002 0.88599998
-0.3159 0.086400002 0.88599998
-0.31349999 0.086599998 0.88800001
-0.31760001 0.088100001 0.90399998
-0.29570001 0.086800002 0.88999999
-0.29100001 0.086300001 0.88499999
-0.28909999 0.086199999 0.884
-0.28760001 0.086199999 0.884
-0.2845 0.086199999 0.884
-0.28330001 0.086300001 0.88499999
-0.28119999 0.086599998 0.88800001
-0.2791 0.087399997 0.89600003
-0.27849999 0.087700002 0.89899999
-0.2766 0.088 0.903
-0.27469999 0.087899998 0.90200001
-0.2728 0.087800004 0.90100002
-0.27129999 0.087800004 0.90100002
-0.2694 0.087800004 0.89999998
-0.26699999 0.087499999 0.89700001
-0.2633 0.087300003 0.89499998
-0.25749999 0.086900003 0.89099997
-0.25560001 0.086800002 0.88999999
-0.25409999 0.086800002 0.88999999
-0.25229999 0.0867 0.889
-0.25040001 0.086599998 0.88800001
-0.2489 0.086599998 0.88800001
-0.2476 0.0867 0.889
-0.2464 0.086800002 0.88999999
-0.24510001 0.086900003 0.89099997
-0.2438 0.086999997 0.89200002
-0.2431 0.087300003 0.89499998
-0.24240001 0.0876 0.898
-0.2411 0.087700002 0.89899999
-0.2392 0.0876 0.898
-0.23720001 0.087399997 0.89600003
-0.2351 0.087200001 0.89399999
-0.2333 0.087099999 0.89300001
-0.23119999 0.086900003 0.89099997
-0.22939999 0.086800002 0.88999999
-0.2005 0.081299998 0.83399999
-0.1988 0.081200004 0.833
-0.1974 0.081200004 0.833
-0.19589999 0.081200004 0.833
-0.1945 0.081200004 0.833
-0.18009999 0.081200004 0.833
-0.17839999 0.081100002 0.83200002
-0.177 0.081100002 0.83200002
-0.1753 0.081 0.83099997
-0.1737 0.080899999 0.82999998
-0.17200001 0.080799997 0.829
-0.1706 0.080799997 0.829
-0.1691 0.080799997 0.829
-0.1679 0.080899999 0.82999998
-0.1665 0.080899999 0.82999998
-0.1648 0.080799997 0.829
-0.1636 0.080899999 0.82999998
-0.1622 0.080899999 0.82999998
-0.16069999 0.080899999 0.82999998
-0.1593 0.080899999 0.82999998
-0.1578 0.080899999 0.82999998
-0.1564 0.080899999 0.82999998
-0.15530001 0.081100002 0.83200002
-0.1541 0.081200004 0.833
-0.15260001 0.081200004 0.833
-0.15099999 0.081100002 0.83200002
-0.1494 0.081 0.83099997
-0.1479 0.081 0.83099997
-0.1463 0.080899999 0.82999998
-0.14489999 0.080899999 0.82999998
-0.1436 0.081 0.83099997
-0.14219999 0.081 0.83099997
-0.1409 0.081100002 0.83200002
-0.13950001 0.081100002 0.83200002
-0.13689999 0.081299998 0.83399999
-0.1355 0.081299998 0.83399999
-0.1327 0.0814 0.83499998
-0.13160001 0.081600003 0.83700001
-0.1305 0.081799999 0.83899999
-0.1293 0.082000002 0.84100002
-0.1279 0.082000002 0.84100002
-0.1203 0.081799999 0.83899999
-0.1184 0.081500001 0.83600003
-0.1148 0.081 0.83099997
-0.1132 0.080899999 0.82999998
-0.1118 0.080899999 0.82999998
-0.1088 0.080799997 0.829
-0.1074 0.080799997 0.829
-0.1059 0.080799997 0.829
-0.1046 0.080899999 0.82999998
-0.1034 0.081100002 0.83200002
-0.102 0.081100002 0.83200002
-0.1005 0.081100002 0.83200002
-0.099100001 0.081100002 0.83200002
-0.097800002 0.081200004 0.833
-0.094899997 0.081200004 0.833
-0.092200004 0.0814 0.83499998
-0.090999998 0.081600003 0.83700001
-0.089500003 0.081600003 0.83700001
-0.088 0.081500001 0.83600003
-0.086400002 0.0814 0.83499998
-0.084799998 0.081200004 0.833
-0.083300002 0.081200004 0.833
-0.081699997 0.081 0.83099997
-0.080200002 0.080899999 0.82999998
-0.078699999 0.080899999 0.82999998
-0.077399999 0.081 0.83099997
-0.076099999 0.081200004 0.833
-0.0748 0.081299998 0.83399999
-0.073399998 0.0814 0.83499998
-0.071999997 0.0814 0.83499998
-0.070799999 0.081699997 0.838
-0.069399998 0.081799999 0.83899999
-0.068000004 0.081900001 0.83999997
-0.066600002 0.082000002 0.84100002
-0.065200001 0.082000002 0.84100002
-0.063699998 0.082000002 0.84100002
-0.062199999 0.081900001 0.83999997
-0.0605 0.081600003 0.83700001
-0.057399999 0.081299998 0.83399999
-0.0559 0.081200004 0.833
-0.054499999 0.081200004 0.833
-0.053100001 0.081299998 0.83399999
-0.0517 0.0814 0.83499998
-0.0502 0.0814 0.83499998
-0.048900001 0.081600003 0.83700001
-0.047600001 0.081799999 0.83899999
-0.046100002 0.081799999 0.83899999
-0.0447 0.081799999 0.83899999
-0.043200001 0.081799999 0.83899999
-0.0418 0.081799999 0.83899999
-0.040399998 0.081900001 0.83999997
-0.038899999 0.081900001 0.83999997
-0.0374 0.081699997 0.838
-0.035799999 0.081500001 0.83600003
-0.034200002 0.081200004 0.833
-0.030999999 0.088399999 0.90700001
-0.0294 0.088200003 0.90499997
-0.0277 0.088 0.903
-0.0261 0.087800004 0.89999998
-0.0244 0.087499999 0.89700001
-0.0229 0.087399997 0.89600003
-0.021299999 0.087399997 0.89600003
-0.0057999999 0.087899998 0.90200001
-0.0043000001 0.088 0.903
-0.0027000001 0.088100001 0.90399998
-0.0011 0.088 0.903
0.00039999999 0.088 0.903
0.0020000001 0.087800004 0.90100002
0.0035999999 0.087800004 0.89999998
0.0051000002 0.087700002 0.89899999
0.0066999998 0.0876 0.898
0.0082 0.0876 0.898
0.0098000001 0.0876 0.898
0.0113 0.0876 0.898
0.0129 0.087800004 0.89999998
0.016000001 0.087800004 0.90100002
0.0176 0.087899998 0.90200001
0.019200001 0.088 0.903
0.0207 0.087800004 0.90100002
0.022299999 0.087800004 0.90100002
0.023800001 0.087800004 0.89999998
0.0254 0.087700002 0.89899999
0.026900001 0.0876 0.898
0.0284 0.0876 0.898
0.029999999 0.0876 0.898
0.031599998 0.0876 0.898
0.033199999 0.087700002 0.89899999
0.034699999 0.087800004 0.89999998
0.0363 0.087800004 0.89999998
0.037900001 0.087800004 0.89999998
0.039500002 0.087800004 0.90100002
0.041000001 0.087800004 0.90100002
0.0427 0.088 0.903
0.044199999 0.087899998 0.90200001
0.0458 0.087899998 0.90200001
0.0473 0.087800004 0.90100002
0.048799999 0.087800004 0.90100002
0.050299998 0.087800004 0.89999998
0.051899999 0.087800004 0.89999998
0.053300001 0.0876 0.898
0.0548 0.087499999 0.89700001
0.056299999 0.087399997 0.89600003
0.057999998 0.087499999 0.89700001
0.059500001 0.087499999 0.89700001
0.061099999 0.087499999 0.89700001
0.062700003 0.0876 0.898
0.064300001 0.087700002 0.89899999
0.065899998 0.087800004 0.89999998
0.067500003 0.087800004 0.89999998
0.0691 0.087800004 0.90100002
0.070799999 0.087899998 0.90200001
0.072300002 0.087899998 0.90200001
0.074000001 0.088 0.903
0.079300001 0.088699996 0.91000003
0.080899999 0.088699996 0.91000003
0.082400002 0.088699996 0.91000003
0.083999999 0.088699996 0.91000003
0.085600004 0.088699996 0.91000003
0.087099999 0.088600002 0.90899998
0.088500001 0.088399999 0.90700001
0.0898 0.088200003 0.90499997
0.091300003 0.088100001 0.90399998
0.092799999 0.088 0.903
0.094300002 0.088 0.903
0.095799997 0.087899998 0.90200001
0.097499996 0.088 0.903
0.098999999 0.088 0.903
0.1006 0.088 0.903
0.1023 0.088100001 0.90399998
0.107 0.088100001 0.90399998
0.1083 0.087899998 0.90200001
0.1096 0.087800004 0.89999998
0.1108 0.087499999 0.89700001
0.1119 0.087099999 0.89300001
0.1133 0.086999997 0.89200002
0.1148 0.086999997 0.89200002
0.1164 0.086999997 0.89200002
0.1179 0.086999997 0.89200002
0.1195 0.086999997 0.89200002
0.121 0.086999997 0.89200002
0.1224 0.086900003 0.89099997
0.1238 0.086800002 0.88999999
0.1252 0.0867 0.889
0.1266 0.086599998 0.88800001
0.12819999 0.086599998 0.88800001
0.12970001 0.086599998 0.88800001
0.1312 0.086599998 0.88800001
0.1332 0.086900003 0.89099997
0.1354 0.087300003 0.89499998
0.1371 0.087399997 0.89600003
0.1389 0.0876 0.898
0.1407 0.087700002 0.89899999
0.1424 0.087800004 0.89999998
0.14390001 0.087800004 0.89999998
0.1455 0.087800004 0.89999998
0.14669999 0.0876 0.898
0.148 0.087399997 0.89600003
0.14920001 0.087200001 0.89399999
0.1506 0.087099999 0.89300001
0.15260001 0.087399997 0.89600003
0.155 0.087800004 0.90100002
0.1569 0.088 0.903
0.15889999 0.088200003 0.90499997
0.1602 0.088100001 0.90399998
0.1618 0.088100001 0.90399998
0.16320001 0.088 0.903
0.1646 0.087899998 0.90200001
0.16599999 0.087800004 0.90100002
0.1675 0.087800004 0.90100002
0.1698 0.088200003 0.90499997
0.1716 0.088299997 0.90600002
0.1733 0.088399999 0.90700001
0.1753 0.088600002 0.90899998
0.1769 0.088600002 0.90899998
0.1785 0.088600002 0.90899998
0.1798 0.088500001 0.90799999
0.1824 0.088200003 0.90499997
0.18350001 0.088 0.903
0.1849 0.087899998 0.90200001
0.18629999 0.087800004 0.90100002
0.18780001 0.087800004 0.90100002
0.18979999 0.088 0.903
-0.41370001 0.087800004 0.88499999
-0.41170001 0.087700002 0.884
-0.4082 0.0876 0.88300002
-0.40470001 0.087499999 0.88200003
-0.34310001 0.087399997 0.88099998
-0.34200001 0.087499999 0.88200003
-0.3405 0.087499999 0.88200003
-0.33930001 0.0876 0.88300002
-0.3382 0.087700002 0.884
-0.33660001 0.087700002 0.884
-0.3351 0.087700002 0.884
-0.3339 0.087800004 0.88499999
-0.322 0.087899998 0.88599998
-0.31740001 0.087899998 0.88599998
-0.31420001 0.088299997 0.88999999
-0.31799999 0.0898 0.90499997
-0.29859999 0.088699996 0.89399999
-0.29449999 0.088399999 0.89099997
-0.292 0.088100001 0.88800001
-0.29010001 0.088 0.88700002
-0.2886 0.088 0.88700002
-0.28670001 0.087899998 0.88599998
-0.27939999 0.088500001 0.89200002
-0.27849999 0.088699996 0.89399999
-0.2775 0.0889 0.89600003
-0.27720001 0.089299999 0.89999998
-0.27630001 0.089500003 0.90200001
-0.2744 0.089400001 0.90100002
-0.27309999 0.089500003 0.90200001
-0.27160001 0.089500003 0.90200001
-0.26969999 0.089400001 0.90100002
-0.26789999 0.089299999 0.89999998
-0.2577 0.088500001 0.89200002
-0.2559 0.088399999 0.89099997
-0.25409999 0.088299997 0.88999999
-0.2525 0.088299997 0.88999999
-0.25040001 0.088100001 0.88800001
-0.2489 0.088100001 0.88800001
-0.2474 0.088100001 0.88800001
-0.24609999 0.088200003 0.889
-0.2448 0.088299997 0.88999999
-0.24330001 0.088299997 0.88999999
-0.2423 0.088500001 0.89200002
-0.2418 0.0889 0.89600003
-0.2405 0.089000002 0.89700001
-0.2387 0.0889 0.89600003
-0.2366 0.088699996 0.89399999
-0.2348 0.088600002 0.89300001
-0.2333 0.088600002 0.89300001
-0.23119999 0.088399999 0.89099997
-0.2005 0.082800001 0.83399999
-0.1974 0.082699999 0.833
-0.1962 0.082800001 0.83399999
-0.1947 0.082800001 0.83399999
-0.1805 0.082900003 0.83499998
-0.1786 0.082699999 0.833
-0.1753 0.082500003 0.83099997
-0.1737 0.082400002 0.82999998
-0.1706 0.0823 0.829
-0.1691 0.0823 0.829
-0.16769999 0.0823 0.829
-0.1663 0.0823 0.829
-0.1648 0.0823 0.829
-0.16339999 0.0823 0.829
-0.162 0.0823 0.829
-0.1605 0.0823 0.829
-0.1591 0.0823 0.829
-0.1578 0.082400002 0.82999998
-0.1564 0.082400002 0.82999998
-0.1524 0.082599998 0.83200002
-0.1506 0.082400002 0.82999998
-0.149 0.0823 0.829
-0.1476 0.0823 0.829
-0.1462 0.0823 0.829
-0.14470001 0.0823 0.829
-0.1435 0.082400002 0.82999998
-0.142 0.082400002 0.82999998
-0.1409 0.082599998 0.83200002
-0.13950001 0.082599998 0.83200002
-0.1371 0.082900003 0.83499998
-0.13420001 0.082900003 0.83499998
-0.1327 0.082900003 0.83499998
-0.13160001 0.083099999 0.83700001
-0.1303 0.0832 0.838
-0.12899999 0.083300002 0.83899999
-0.12639999 0.083499998 0.84100002
-0.1248 0.083400004 0.83999997
-0.1232 0.083300002 0.83899999
-0.1165 0.082699999 0.833
-0.1148 0.082500003 0.83099997
-0.1132 0.082400002 0.82999998
-0.1118 0.082400002 0.82999998
-0.1102 0.0823 0.829
-0.1088 0.0823 0.829
-0.1072 0.082199998 0.82800001
-0.1058 0.082199998 0.82800001
-0.1045 0.0823 0.829
-0.1033 0.082500003 0.83099997
-0.102 0.082599998 0.83200002
-0.1004 0.082500003 0.83099997
-0.099100001 0.082599998 0.83200002
-0.097800002 0.082699999 0.833
-0.096299998 0.082699999 0.833
-0.094899997 0.082699999 0.833
-0.093400002 0.082699999 0.833
-0.092200004 0.082900003 0.83499998
-0.090999998 0.083099999 0.83700001
-0.089500003 0.083099999 0.83700001
-0.088100001 0.083099999 0.83700001
-0.086599998 0.083099999 0.83700001
-0.085000001 0.082900003 0.83499998
-0.083400004 0.082800001 0.83399999
-0.081900001 0.082699999 0.833
-0.080300003 0.082500003 0.83099997
-0.0788 0.082500003 0.83099997
-0.077500001 0.082599998 0.83200002
-0.076099999 0.082699999 0.833
-0.0748 0.082800001 0.83399999
-0.073399998 0.082900003 0.83499998
-0.071999997 0.082900003 0.83499998
-0.070799999 0.0832 0.838
-0.069399998 0.083300002 0.83899999
-0.068000004 0.083400004 0.83999997
-0.066600002 0.083499998 0.84100002
-0.065200001 0.083499998 0.84100002
-0.0638 0.0836 0.84200001
-0.0623 0.083499998 0.84100002
-0.060699999 0.083300002 0.83899999
-0.059099998 0.083099999 0.83700001
-0.057599999 0.082999997 0.83600003
-0.056000002 0.082900003 0.83499998
-0.0546 0.082900003 0.83499998
-0.053100001 0.082900003 0.83499998
-0.051800001 0.082999997 0.83600003
-0.0504 0.083099999 0.83700001
-0.048999999 0.0832 0.838
-0.047600001 0.083400004 0.83999997
-0.0462 0.083400004 0.83999997
-0.0447 0.083400004 0.83999997
-0.043200001 0.083300002 0.83899999
-0.0418 0.083300002 0.83899999
-0.040399998 0.083400004 0.83999997
-0.038899999 0.083400004 0.83999997
-0.0374 0.0832 0.838
-0.035799999 0.082900003 0.83499998
-0.034200002 0.082599998 0.83200002
-0.0309 0.089699998 0.90399998
-0.029300001 0.089599997 0.903
-0.0277 0.089500003 0.90200001
-0.0261 0.089299999 0.89999998
-0.024499999 0.089100003 0.898
-0.0229 0.089100003 0.898
-0.021400001 0.089199997 0.89899999
-0.0057999999 0.089400001 0.90100002
-0.0043000001 0.089599997 0.903
-0.0027000001 0.089599997 0.903
-0.0011 0.089599997 0.903
0.00039999999 0.089599997 0.903
0.0020000001 0.089400001 0.90100002
0.0035999999 0.089299999 0.89999998
0.0051000002 0.089199997 0.89899999
0.0066999998 0.089100003 0.898
0.0082 0.0889 0.89600003
0.0097000003 0.0889 0.89600003
0.0113 0.089000002 0.89700001
0.0129 0.089199997 0.89899999
0.0145 0.089299999 0.89999998
0.016000001 0.089400001 0.90100002
0.0176 0.089400001 0.90100002
0.019200001 0.089400001 0.90100002
0.0207 0.089400001 0.90100002
0.022299999 0.089299999 0.89999998
0.023800001 0.089299999 0.89999998
0.0254 0.089299999 0.89999998
0.026900001 0.089299999 0.89999998
0.0285 0.089299999 0.89999998
0.030099999 0.089299999 0.89999998
0.031599998 0.089299999 0.89999998
0.033199999 0.089400001 0.90100002
0.0348 0.089400001 0.90100002
0.0363 0.089400001 0.90100002
0.037900001 0.089400001 0.90100002
0.039500002 0.089400001 0.90100002
0.041000001 0.089400001 0.90100002
0.042599998 0.089400001 0.90100002
0.044199999 0.089400001 0.90100002
0.045699999 0.089400001 0.90100002
0.0473 0.089400001 0.90100002
0.048799999 0.089400001 0.90100002
0.0504 0.089400001 0.90100002
0.052000001 0.089400001 0.90100002
0.0535 0.089299999 0.89999998
0.055 0.089199997 0.89899999
0.056499999 0.089100003 0.898
0.057999998 0.089100003 0.898
0.059599999 0.089100003 0.898
0.061099999 0.089100003 0.898
0.062799998 0.089299999 0.89999998
0.064400002 0.089299999 0.89999998
0.065899998 0.089299999 0.89999998
0.067599997 0.089400001 0.90100002
0.0691 0.089400001 0.90100002
0.070900001 0.089599997 0.903
0.072400004 0.089599997 0.903
0.074000001 0.089599997 0.903
0.0757 0.0898 0.90499997
0.079400003 0.090400003 0.91100001
0.081 0.090499997 0.912
0.082400002 0.090300001 0.91000003
0.083999999 0.090300001 0.91000003
0.085500002 0.0902 0.90899998
0.086999997 0.090099998 0.90799999
0.088399999 0.089900002 0.90600002
0.089699998 0.089699998 0.90399998
0.091200002 0.089599997 0.903
0.092699997 0.089500003 0.90200001
0.0942 0.089500003 0.90200001
0.095700003 0.089400001 0.90100002
0.097199999 0.089400001 0.90100002
0.098899998 0.089500003 0.90200001
0.1006 0.089599997 0.903
0.1023 0.089699998 0.90399998
0.104 0.0898 0.90499997
0.1055 0.0898 0.90499997
0.1071 0.0898 0.90499997
0.1084 0.089599997 0.903
0.1097 0.089400001 0.90100002
0.1111 0.089199997 0.89899999
0.112 0.088699996 0.89399999
0.1133 0.088500001 0.89200002
0.1147 0.088399999 0.89099997
0.1162 0.088399999 0.89099997
0.1181 0.088600002 0.89300001
0.1196 0.088600002 0.89300001
0.121 0.088500001 0.89200002
0.1224 0.088399999 0.89099997
0.1238 0.088299997 0.88999999
0.12540001 0.088299997 0.88999999
0.1268 0.088200003 0.889
0.1283 0.088200003 0.889
0.12970001 0.088100001 0.88800001
0.13150001 0.088299997 0.88999999
0.13349999 0.088600002 0.89300001
0.1355 0.0889 0.89600003
0.1374 0.089100003 0.898
0.1391 0.089199997 0.89899999
0.1408 0.089299999 0.89999998
0.1424 0.089299999 0.89999998
0.14390001 0.089299999 0.89999998
0.1455 0.089299999 0.89999998
0.14659999 0.089000002 0.89700001
0.1478 0.088799998 0.89499998
0.149 0.088600002 0.89300001
0.1506 0.088600002 0.89300001
0.15260001 0.0889 0.89600003
0.15449999 0.089100003 0.898
0.1564 0.089299999 0.89999998
0.15809999 0.089400001 0.90100002
0.15970001 0.089400001 0.90100002
0.16150001 0.089500003 0.90200001
0.163 0.089500003 0.90200001
0.1644 0.089400001 0.90100002
0.1661 0.089500003 0.90200001
0.1679 0.089599997 0.903
0.17 0.089900002 0.90600002
0.1718 0.090000004 0.90700001
0.1735 0.090099998 0.90799999
0.1753 0.0902 0.90899998
0.1769 0.0902 0.90899998
0.17829999 0.090099998 0.90799999
0.1798 0.090099998 0.90799999
0.1822 0.089699998 0.90399998
0.18350001 0.089599997 0.903
0.1849 0.089500003 0.90200001
0.1865 0.089500003 0.90200001
0.18799999 0.089500003 0.90200001
0.18979999 0.089599997 0.903
-0.41170001 0.089299999 0.884
-0.40400001 0.089299999 0.884
-0.40189999 0.089500003 0.88599998
-0.37799999 0.091499999 0.90600002
-0.37720001 0.091700003 0.90799999
-0.345 0.088600002 0.87800002
-0.34200001 0.088600002 0.87800002
-0.34119999 0.0889 0.88
-0.34009999 0.089000002 0.88099998
-0.3389 0.089100003 0.88200003
-0.33739999 0.089100003 0.88200003
-0.33629999 0.089199997 0.88300002
-0.3339 0.089400001 0.88499999
-0.3224 0.089599997 0.88700002
-0.31740001 0.089500003 0.88599998
-0.31169999 0.091399997 0.90499997
-0.3098 0.091300003 0.90399998
-0.3008 0.090499997 0.89600003
-0.29710001 0.090300001 0.89399999
-0.29519999 0.0902 0.89300001
-0.29300001 0.090000004 0.89099997
-0.2911 0.089900002 0.88999999
-0.28920001 0.0898 0.889
-0.2784 0.0898 0.889
-0.2775 0.090000004 0.89099997
-0.27720001 0.090400003 0.89499998
-0.27689999 0.090800002 0.89899999
-0.27599999 0.090999998 0.90100002
-0.2744 0.090999998 0.90100002
-0.2728 0.090999998 0.90100002
-0.26969999 0.090999998 0.90100002
-0.26789999 0.090899996 0.89999998
-0.26230001 0.090599999 0.89700001
-0.25749999 0.090000004 0.89099997
-0.25560001 0.089900002 0.88999999
-0.25409999 0.089900002 0.88999999
-0.252 0.089699998 0.88800001
-0.2502 0.089599997 0.88700002
-0.24860001 0.089599997 0.88700002
-0.2474 0.089699998 0.88800001
-0.2458 0.089699998 0.88800001
-0.2446 0.0898 0.889
-0.2427 0.089699998 0.88800001
-0.24169999 0.089900002 0.88999999
-0.241 0.0902 0.89300001
-0.2395 0.0902 0.89300001
-0.2379 0.0902 0.89300001
-0.2361 0.090099998 0.89200002
-0.23459999 0.090099998 0.89200002
-0.23270001 0.090000004 0.89099997
-0.2309 0.089900002 0.88999999
-0.2291 0.0898 0.889
-0.2271 0.089599997 0.88700002
-0.22499999 0.089400001 0.88499999
-0.1974 0.084100001 0.833
-0.1964 0.084299996 0.83499998
-0.19499999 0.084299996 0.83499998
-0.1815 0.084100001 0.833
-0.1805 0.084299996 0.83499998
-0.1786 0.084100001 0.833
-0.177 0.083999999 0.83200002
-0.1753 0.083899997 0.83099997
-0.1737 0.083800003 0.82999998
-0.1706 0.083700001 0.829
-0.1691 0.083700001 0.829
-0.16769999 0.083700001 0.829
-0.1663 0.083700001 0.829
-0.1648 0.083700001 0.829
-0.16339999 0.083700001 0.829
-0.162 0.083700001 0.829
-0.1605 0.083700001 0.829
-0.1591 0.083700001 0.829
-0.1576 0.083700001 0.829
-0.1503 0.0836 0.82800001
-0.1488 0.0836 0.82800001
-0.14740001 0.0836 0.82800001
-0.14579999 0.083499998 0.82700002
-0.14470001 0.083700001 0.829
-0.1433 0.083700001 0.829
-0.142 0.083800003 0.82999998
