# .PCD v0.7 - Point Cloud Data file format
VERSION 0.7
FIELDS x y z
SIZE 4 4 4
TYPE F F F
COUNT 1 1 1
WIDTH 1470
HEIGHT 1
VIEWPOINT 0 0 0 1 0 0 0
POINTS 1470
DATA ascii
0.046999998 -0.0074 0.89600003
0.0484 -0.0073000002 0.89300001
0.050000001 -0.0073000002 0.89300001
0.067199998 -0.0074 0.89600003
0.068599999 -0.0073000002 0.89399999
0.07 -0.0073000002 0.89200002
0.071500003 -0.0073000002 0.89099997
0.072800003 -0.0073000002 0.889
0.074500002 -0.0073000002 0.88999999
0.076200001 -0.0073000002 0.89200002
0.0779 -0.0073000002 0.89399999
0.079599999 -0.0074 0.89600003
0.081299998 -0.0074 0.89700001
0.082900003 -0.0074 0.898
0.0845 -0.0074 0.898
0.085900001 -0.0074 0.89700001
0.087399997 -0.0074 0.89600003
0.088799998 -0.0074 0.89499998
0.0902 -0.0073000002 0.89300001
0.091700003 -0.0073000002 0.89300001
0.0933 -0.0073000002 0.89300001
0.094800003 -0.0073000002 0.89300001
0.0964 -0.0073000002 0.89300001
0.097999997 -0.0073000002 0.89399999
0.099600002 -0.0073000002 0.89399999
0.1013 -0.0074 0.89499998
0.1028 -0.0074 0.89499998
0.1044 -0.0074 0.89499998
0.1059 -0.0074 0.89499998
0.1076 -0.0074 0.89600003
0.1091 -0.0074 0.89600003
0.1107 -0.0074 0.89600003
0.112 -0.0073000002 0.89399999
0.1134 -0.0073000002 0.89300001
0.1148 -0.0073000002 0.89200002
0.1161 -0.0073000002 0.88999999
0.1177 -0.0073000002 0.88999999
0.1192 -0.0073000002 0.88999999
0.1207 -0.0073000002 0.88999999
0.1224 -0.0073000002 0.89099997
0.1241 -0.0073000002 0.89200002
0.1258 -0.0073000002 0.89300001
0.1275 -0.0073000002 0.89399999
0.12890001 -0.0073000002 0.89300001
0.1304 -0.0073000002 0.89300001
0.132 -0.0073000002 0.89300001
0.1337 -0.0073000002 0.89399999
0.1354 -0.0074 0.89499998
0.1366 -0.0073000002 0.89300001
0.1382 -0.0073000002 0.89300001
0.13959999 -0.0073000002 0.89200002
0.1411 -0.0073000002 0.89200002
0.1425 -0.0073000002 0.89099997
0.14399999 -0.0073000002 0.89099997
0.14560001 -0.0073000002 0.89099997
0.14749999 -0.0073000002 0.89300001
0.149 -0.0073000002 0.89300001
0.15090001 -0.0074 0.89499998
0.15260001 -0.0074 0.89600003
0.1543 -0.0074 0.89700001
0.1557 -0.0074 0.89600003
0.1573 -0.0074 0.89600003
0.1586 -0.0074 0.89499998
0.16230001 -0.0074 0.898
0.1638 -0.0074 0.898
0.16580001 -0.0074 0.89999998
0.1673 -0.0074 0.89999998
0.1689 -0.0074 0.89999998
0.1706 -0.0074 0.90100002
0.17219999 -0.0074 0.90100002
0.17380001 -0.0074 0.90100002
0.1751 -0.0074 0.89999998
0.1769 -0.0074 0.90100002
0.17829999 -0.0074 0.89999998
0.1798 -0.0074 0.89999998
0.1814 -0.0074 0.89999998
0.1829 -0.0074 0.89999998
0.18430001 -0.0074 0.89899999
0.18610001 -0.0074 0.89999998
0.18780001 -0.0074 0.90100002
0.1894 -0.0074 0.90100002
0.19140001 -0.0074 0.903
0.1925 -0.0074 0.90100002
-0.41119999 -0.0055999998 0.87
-0.4102 -0.0055999998 0.87099999
-0.36489999 -0.0057000001 0.88200003
-0.36340001 -0.0057000001 0.88200003
-0.3619 -0.0057000001 0.88200003
-0.3599 -0.0057000001 0.88099998
-0.34540001 -0.0057000001 0.88300002
-0.3443 -0.0057000001 0.884
-0.3382 -0.0057999999 0.88800001
-0.32969999 -0.0057000001 0.88599998
-0.32780001 -0.0057000001 0.88499999
-0.3263 -0.0057000001 0.88499999
-0.32440001 -0.0057000001 0.884
-0.3202 -0.0057000001 0.88099998
-0.3091 -0.0057000001 0.884
-0.30700001 -0.0057999999 0.88700002
-0.3055 -0.0057999999 0.88700002
-0.30430001 -0.0057999999 0.88800001
-0.3017 -0.0057000001 0.88499999
-0.30019999 -0.0057000001 0.88499999
-0.29710001 -0.0057000001 0.88499999
-0.29409999 -0.0057000001 0.88499999
-0.2879 -0.0057000001 0.88499999
-0.28639999 -0.0057000001 0.88499999
-0.28490001 -0.0057000001 0.88499999
-0.28330001 -0.0057000001 0.88499999
-0.2818 -0.0057000001 0.88499999
-0.2744 -0.0057000001 0.88599998
-0.27289999 -0.0057000001 0.88599998
-0.27110001 -0.0057000001 0.88499999
-0.26949999 -0.0057000001 0.88499999
-0.26800001 -0.0057000001 0.88499999
-0.2665 -0.0057000001 0.88499999
-0.2649 -0.0057000001 0.88499999
-0.2631 -0.0057000001 0.884
-0.26159999 -0.0057000001 0.884
-0.25999999 -0.0057000001 0.884
-0.25850001 -0.0057000001 0.884
-0.257 -0.0057000001 0.884
-0.25510001 -0.0057000001 0.88300002
-0.25330001 -0.0057000001 0.88200003
-0.2518 -0.0057000001 0.88200003
-0.25060001 -0.0057000001 0.88300002
-0.2472 -0.0057000001 0.88200003
-0.2457 -0.0057000001 0.88200003
-0.2447 -0.0057000001 0.884
-0.24349999 -0.0057000001 0.88499999
-0.24160001 -0.0057000001 0.884
-0.2401 -0.0057000001 0.884
-0.2386 -0.0057000001 0.884
-0.237 -0.0057000001 0.884
-0.23549999 -0.0057000001 0.884
-0.2325 -0.0057000001 0.884
-0.2309 -0.0057000001 0.884
-0.22939999 -0.0057000001 0.884
-0.2279 -0.0057000001 0.884
-0.2263 -0.0057000001 0.884
-0.22480001 -0.0057000001 0.884
-0.2233 -0.0057000001 0.884
-0.22149999 -0.0057000001 0.88300002
-0.2182 -0.0057000001 0.88200003
-0.2146 -0.0057000001 0.88
-0.2124 -0.0057000001 0.87699997
-0.2104 -0.0057000001 0.875
-0.2084 -0.0057000001 0.87300003
-0.2069 -0.0057000001 0.87300003
-0.2058 -0.0057000001 0.875
-0.205 -0.0057000001 0.87800002
-0.2042 -0.0057000001 0.88099998
-0.2033 -0.0057000001 0.884
-0.20200001 -0.0057000001 0.88499999
-0.2005 -0.0057000001 0.88499999
-0.199 -0.0057000001 0.88499999
-0.1972 -0.0057000001 0.884
-0.1957 -0.0057000001 0.884
-0.1939 -0.0057000001 0.88300002
-0.19220001 -0.0057000001 0.88200003
-0.1902 -0.0057000001 0.88
-0.1881 -0.0057000001 0.87699997
-0.1689 -0.0054000001 0.82800001
-0.16769999 -0.0054000001 0.829
-0.1663 -0.0054000001 0.829
-0.1648 -0.0054000001 0.829
-0.1636 -0.0054000001 0.82999998
-0.1622 -0.0054000001 0.82999998
-0.16069999 -0.0054000001 0.82999998
-0.1593 -0.0054000001 0.82999998
-0.1576 -0.0054000001 0.829
-0.1564 -0.0054000001 0.82999998
-0.1548 -0.0054000001 0.829
-0.1533 -0.0054000001 0.829
-0.15189999 -0.0054000001 0.829
-0.1505 -0.0054000001 0.829
-0.149 -0.0054000001 0.829
-0.1476 -0.0054000001 0.829
-0.1462 -0.0054000001 0.829
-0.1451 -0.0054000001 0.83099997
-0.1436 -0.0054000001 0.83099997
-0.14219999 -0.0054000001 0.83099997
-0.1409 -0.0054000001 0.83200002
-0.13959999 -0.0054000001 0.833
-0.1382 -0.0054000001 0.833
-0.13680001 -0.0054000001 0.833
-0.13510001 -0.0054000001 0.83200002
-0.13349999 -0.0054000001 0.83099997
-0.1321 -0.0054000001 0.83099997
-0.13070001 -0.0054000001 0.83099997
-0.12909999 -0.0054000001 0.82999998
-0.1275 -0.0054000001 0.829
-0.126 -0.0054000001 0.829
-0.1243 -0.0054000001 0.82700002
-0.1229 -0.0054000001 0.82700002
-0.1213 -0.0054000001 0.82599998
-0.1197 -0.0054000001 0.82499999
-0.118 -0.0052999998 0.82300001
-0.1065 -0.0052999998 0.82200003
-0.1052 -0.0052999998 0.82300001
-0.104 -0.0054000001 0.82499999
-0.1027 -0.0054000001 0.82599998
-0.1015 -0.0054000001 0.82800001
-0.1002 -0.0054000001 0.829
-0.098899998 -0.0054000001 0.82999998
-0.097400002 -0.0054000001 0.82999998
-0.096000001 -0.0054000001 0.82999998
-0.094400004 -0.0054000001 0.829
-0.093000002 -0.0054000001 0.829
-0.091600001 -0.0054000001 0.829
-0.090099998 -0.0054000001 0.829
-0.088600002 -0.0054000001 0.82800001
-0.087099999 -0.0054000001 0.82800001
-0.0858 -0.0054000001 0.829
-0.084399998 -0.0054000001 0.829
-0.082900003 -0.0054000001 0.829
-0.081500001 -0.0054000001 0.829
-0.080200002 -0.0054000001 0.82999998
-0.078599997 -0.0054000001 0.829
-0.077299997 -0.0054000001 0.82999998
-0.0757 -0.0054000001 0.829
-0.074000001 -0.0054000001 0.82599998
-0.0726 -0.0054000001 0.82599998
-0.071099997 -0.0054000001 0.82499999
-0.069700003 -0.0054000001 0.82499999
-0.0682 -0.0054000001 0.82499999
-0.066699997 -0.0052999998 0.824
-0.065399997 -0.0054000001 0.82499999
-0.064000003 -0.0054000001 0.82599998
-0.062600002 -0.0054000001 0.82599998
-0.0612 -0.0054000001 0.82700002
-0.059799999 -0.0054000001 0.82700002
-0.058400001 -0.0054000001 0.82800001
-0.057100002 -0.0054000001 0.82999998
-0.0557 -0.0054000001 0.82999998
-0.054299999 -0.0054000001 0.82999998
-0.052900001 -0.0054000001 0.83099997
-0.0515 -0.0054000001 0.83200002
-0.050099999 -0.0054000001 0.83200002
-0.048599999 -0.0054000001 0.83099997
-0.0471 -0.0054000001 0.83099997
-0.045699999 -0.0054000001 0.83099997
-0.044199999 -0.0054000001 0.83099997
-0.042800002 -0.0054000001 0.83099997
-0.041299999 -0.0054000001 0.82999998
-0.027100001 -0.0054000001 0.83499998
-0.025599999 -0.0054000001 0.83399999
-0.0241 -0.0054000001 0.833
-0.022700001 -0.0054000001 0.833
-0.021199999 -0.0054000001 0.83099997
-0.0198 -0.0054000001 0.83399999
-0.0184 -0.0054000001 0.83600003
-0.017000001 -0.0054000001 0.83899999
-0.0026 -0.0057000001 0.87900001
-0.0011 -0.0057000001 0.88499999
0.00039999999 -0.0057999999 0.889
0.0020000001 -0.0057999999 0.89099997
0.0035000001 -0.0057999999 0.89200002
0.0051000002 -0.0057999999 0.89300001
0.0066 -0.0057999999 0.89600003
0.0082 -0.0057999999 0.89600003
0.0129 -0.0057999999 0.90100002
0.0145 -0.0059000002 0.903
0.016100001 -0.0059000002 0.903
0.0176 -0.0059000002 0.90200001
0.019200001 -0.0057999999 0.89999998
0.0206 -0.0057999999 0.89700001
0.0221 -0.0057999999 0.89300001
0.023600001 -0.0057999999 0.89200002
0.0252 -0.0057999999 0.89200002
0.026699999 -0.0057999999 0.89200002
0.0283 -0.0057999999 0.89300001
0.0425 -0.0057999999 0.89899999
0.044100001 -0.0057999999 0.89899999
0.045499999 -0.0057999999 0.89700001
0.046999998 -0.0057999999 0.89499998
0.0484 -0.0057999999 0.89200002
0.065700002 -0.0057999999 0.89700001
0.067199998 -0.0057999999 0.89600003
0.068599999 -0.0057999999 0.89399999
0.07 -0.0057999999 0.89200002
0.071500003 -0.0057999999 0.89099997
0.072800003 -0.0057999999 0.889
0.074500002 -0.0057999999 0.88999999
0.076300003 -0.0057999999 0.89300001
0.078000002 -0.0057999999 0.89499998
0.079599999 -0.0057999999 0.89600003
0.081299998 -0.0057999999 0.89700001
0.082800001 -0.0057999999 0.89700001
0.0845 -0.0057999999 0.898
0.0858 -0.0057999999 0.89600003
0.087300003 -0.0057999999 0.89499998
0.088699996 -0.0057999999 0.89399999
0.090300001 -0.0057999999 0.89399999
0.091899998 -0.0057999999 0.89499998
0.093400002 -0.0057999999 0.89399999
0.094899997 -0.0057999999 0.89399999
0.0964 -0.0057999999 0.89300001
0.097900003 -0.0057999999 0.89300001
0.0995 -0.0057999999 0.89300001
0.101 -0.0057999999 0.89300001
0.1023 -0.0057999999 0.89099997
0.1039 -0.0057999999 0.89099997
0.1056 -0.0057999999 0.89200002
0.1072 -0.0057999999 0.89300001
0.1091 -0.0057999999 0.89600003
0.1108 -0.0057999999 0.89700001
0.1121 -0.0057999999 0.89499998
0.1134 -0.0057999999 0.89300001
0.115 -0.0057999999 0.89300001
0.1162 -0.0057999999 0.89099997
0.1177 -0.0057999999 0.88999999
0.1192 -0.0057999999 0.88999999
0.1207 -0.0057999999 0.88999999
0.1224 -0.0057999999 0.89099997
0.124 -0.0057999999 0.89099997
0.1257 -0.0057999999 0.89200002
0.12729999 -0.0057999999 0.89300001
0.12890001 -0.0057999999 0.89300001
0.1303 -0.0057999999 0.89200002
0.132 -0.0057999999 0.89300001
0.13349999 -0.0057999999 0.89300001
0.13510001 -0.0057999999 0.89300001
0.1366 -0.0057999999 0.89300001
0.138 -0.0057999999 0.89200002
0.13940001 -0.0057999999 0.89099997
0.141 -0.0057999999 0.89099997
0.1425 -0.0057999999 0.89099997
0.14399999 -0.0057999999 0.89099997
0.14560001 -0.0057999999 0.89099997
0.14749999 -0.0057999999 0.89300001
0.14929999 -0.0057999999 0.89499998
0.15449999 -0.0057999999 0.898
0.15710001 -0.0057999999 0.89499998
0.16 -0.0057999999 0.89399999
0.1619 -0.0057999999 0.89600003
0.1638 -0.0057999999 0.898
0.16580001 -0.0057999999 0.89999998
0.1673 -0.0057999999 0.89999998
0.1689 -0.0057999999 0.89999998
0.1706 -0.0057999999 0.90100002
0.17200001 -0.0057999999 0.89999998
0.1736 -0.0057999999 0.89999998
0.1753 -0.0057999999 0.90100002
0.1769 -0.0057999999 0.90100002
0.17839999 -0.0057999999 0.90100002
0.18000001 -0.0057999999 0.90100002
0.1816 -0.0057999999 0.90100002
0.1831 -0.0057999999 0.90100002
0.18449999 -0.0057999999 0.89999998
0.18629999 -0.0057999999 0.90100002
0.18780001 -0.0057999999 0.90100002
0.18979999 -0.0059000002 0.903
0.19159999 -0.0059000002 0.90399998
0.19310001 -0.0059000002 0.90399998
-0.41119999 -0.0041 0.87
-0.36340001 -0.0041999999 0.88200003
-0.36140001 -0.0041999999 0.88099998
-0.35569999 -0.0041999999 0.87800002
-0.34650001 -0.0041999999 0.87800002
-0.34619999 -0.0041999999 0.88099998
-0.34310001 -0.0041999999 0.88499999
-0.34240001 -0.0041999999 0.88700002
-0.3382 -0.0041999999 0.88800001
-0.33129999 -0.0041999999 0.88599998
-0.3301 -0.0041999999 0.88700002
-0.32820001 -0.0041999999 0.88599998
-0.3263 -0.0041999999 0.88499999
-0.32210001 -0.0041999999 0.88200003
-0.3202 -0.0041999999 0.88099998
-0.30840001 -0.0041999999 0.88200003
-0.3075 -0.0041999999 0.884
-0.30669999 -0.0041999999 0.88599998
-0.3055 -0.0041999999 0.88700002
-0.30399999 -0.0041999999 0.88700002
-0.30239999 -0.0041999999 0.88700002
-0.30090001 -0.0041999999 0.88700002
-0.2987 -0.0041999999 0.88499999
-0.29710001 -0.0041999999 0.88499999
-0.2956 -0.0041999999 0.88499999
-0.29249999 -0.0041999999 0.88499999
-0.2895 -0.0041999999 0.88499999
-0.2879 -0.0041999999 0.88499999
-0.28490001 -0.0041999999 0.88499999
-0.28060001 -0.0041999999 0.88599998
-0.2714 -0.0041999999 0.88599998
-0.26949999 -0.0041999999 0.88499999
-0.26339999 -0.0041999999 0.88499999
-0.26190001 -0.0041999999 0.88499999
-0.26030001 -0.0041999999 0.88499999
-0.2588 -0.0041999999 0.88499999
-0.257 -0.0041999999 0.884
-0.25510001 -0.0041999999 0.88300002
-0.25330001 -0.0041999999 0.88200003
-0.25209999 -0.0041999999 0.88300002
-0.2472 -0.0041999999 0.88200003
-0.24600001 -0.0041999999 0.88300002
-0.2447 -0.0041999999 0.884
-0.24349999 -0.0041999999 0.88499999
-0.24160001 -0.0041999999 0.884
-0.2401 -0.0041999999 0.884
-0.2386 -0.0041999999 0.884
-0.237 -0.0041999999 0.884
-0.2358 -0.0041999999 0.88499999
-0.2342 -0.0041999999 0.88499999
-0.23119999 -0.0041999999 0.88499999
-0.2296 -0.0041999999 0.88499999
-0.2281 -0.0041999999 0.88499999
-0.2263 -0.0041999999 0.884
-0.2233 -0.0041999999 0.884
-0.22149999 -0.0041999999 0.88300002
-0.2182 -0.0041999999 0.88200003
-0.2166 -0.0041999999 0.88200003
-0.21510001 -0.0041999999 0.88200003
-0.2129 -0.0041999999 0.87900001
-0.2111 -0.0041999999 0.87800002
-0.2096 -0.0041999999 0.87800002
-0.2068 -0.0041999999 0.87900001
-0.2044 -0.0041999999 0.88200003
-0.2036 -0.0041999999 0.88499999
-0.20200001 -0.0041999999 0.88499999
-0.2005 -0.0041999999 0.88499999
-0.199 -0.0041999999 0.88499999
-0.1972 -0.0041999999 0.884
-0.1952 -0.0041999999 0.88200003
-0.1937 -0.0041999999 0.88200003
-0.19220001 -0.0041999999 0.88200003
-0.1902 -0.0041999999 0.88
-0.1883 -0.0041999999 0.87800002
-0.16869999 -0.0038999999 0.82700002
-0.1673 -0.0038999999 0.82700002
-0.16590001 -0.0038999999 0.82700002
-0.1644 -0.0038999999 0.82700002
-0.16339999 -0.0038999999 0.829
-0.162 -0.0038999999 0.829
-0.1605 -0.0038999999 0.829
-0.15889999 -0.0038999999 0.82800001
-0.1573 -0.0038999999 0.82700002
-0.15620001 -0.0038999999 0.829
-0.15459999 -0.0038999999 0.82800001
-0.1531 -0.0038999999 0.82800001
-0.1517 -0.0038999999 0.82800001
-0.1503 -0.0038999999 0.82800001
-0.149 -0.0038999999 0.829
-0.1476 -0.0038999999 0.829
-0.1462 -0.0038999999 0.829
-0.14489999 -0.0038999999 0.82999998
-0.1435 -0.0038999999 0.82999998
-0.14219999 -0.0038999999 0.83099997
-0.1407 -0.0038999999 0.83099997
-0.1393 -0.0038999999 0.83099997
-0.138 -0.0040000002 0.83200002
-0.1366 -0.0040000002 0.83200002
-0.13510001 -0.0040000002 0.83200002
-0.13349999 -0.0038999999 0.83099997
-0.1321 -0.0038999999 0.83099997
-0.13070001 -0.0038999999 0.83099997
-0.12909999 -0.0038999999 0.82999998
-0.1275 -0.0038999999 0.829
-0.126 -0.0038999999 0.829
-0.1243 -0.0038999999 0.82700002
-0.1229 -0.0038999999 0.82700002
-0.1214 -0.0038999999 0.82700002
-0.1199 -0.0038999999 0.82599998
-0.1183 -0.0038999999 0.82499999
-0.1167 -0.0038999999 0.824
-0.1066 -0.0038999999 0.82300001
-0.1053 -0.0038999999 0.824
-0.104 -0.0038999999 0.82499999
-0.1028 -0.0038999999 0.82700002
-0.1015 -0.0038999999 0.82800001
-0.1002 -0.0038999999 0.829
-0.098899998 -0.0038999999 0.82999998
-0.097400002 -0.0038999999 0.82999998
-0.096100003 -0.0038999999 0.83099997
-0.094499998 -0.0038999999 0.82999998
-0.093099996 -0.0038999999 0.82999998
-0.091600001 -0.0038999999 0.829
-0.090000004 -0.0038999999 0.82800001
-0.088500001 -0.0038999999 0.82700002
-0.086900003 -0.0038999999 0.82599998
-0.085500002 -0.0038999999 0.82599998
-0.084100001 -0.0038999999 0.82599998
-0.082599998 -0.0038999999 0.82599998
-0.081299998 -0.0038999999 0.82700002
-0.0801 -0.0038999999 0.829
-0.078500003 -0.0038999999 0.82800001
-0.077299997 -0.0038999999 0.82999998
-0.0757 -0.0038999999 0.829
-0.074100003 -0.0038999999 0.82700002
-0.0726 -0.0038999999 0.82599998
-0.071199998 -0.0038999999 0.82599998
-0.069700003 -0.0038999999 0.82499999
-0.0682 -0.0038999999 0.82499999
-0.066799998 -0.0038999999 0.82499999
-0.065399997 -0.0038999999 0.82499999
-0.064000003 -0.0038999999 0.82599998
-0.062700003 -0.0038999999 0.82700002
-0.061299998 -0.0038999999 0.82800001
-0.059900001 -0.0038999999 0.829
-0.058600001 -0.0038999999 0.82999998
-0.057300001 -0.0040000002 0.83200002
-0.055799998 -0.0038999999 0.83099997
-0.054299999 -0.0038999999 0.83099997
-0.052999999 -0.0040000002 0.83200002
-0.0515 -0.0040000002 0.83200002
-0.050099999 -0.0040000002 0.83200002
-0.048599999 -0.0040000002 0.83200002
-0.0471 -0.0038999999 0.83099997
-0.045600001 -0.0038999999 0.82999998
-0.044199999 -0.0038999999 0.83099997
-0.042800002 -0.0038999999 0.82999998
-0.041299999 -0.0038999999 0.829
-0.039799999 -0.0038999999 0.829
-0.0285 -0.0040000002 0.83399999
-0.027100001 -0.0040000002 0.83399999
-0.025599999 -0.0040000002 0.83399999
-0.0241 -0.0040000002 0.833
-0.022700001 -0.0040000002 0.83200002
-0.021199999 -0.0040000002 0.83200002
-0.0198 -0.0040000002 0.833
-0.0184 -0.0040000002 0.83499998
-0.017000001 -0.0040000002 0.83700001
-0.0156 -0.0040000002 0.83700001
-0.0141 -0.0040000002 0.83700001
-0.0026 -0.0041999999 0.88200003
-0.0011 -0.0041999999 0.88599998
0.00039999999 -0.0041999999 0.88800001
0.0020000001 -0.0041999999 0.88999999
0.0035000001 -0.0041999999 0.89200002
0.0051000002 -0.0041999999 0.89399999
0.0066 -0.0043000001 0.89600003
0.0082 -0.0043000001 0.89600003
0.0098000001 -0.0043000001 0.898
0.0114 -0.0043000001 0.89999998
0.0129 -0.0043000001 0.90100002
0.0145 -0.0043000001 0.903
0.016100001 -0.0043000001 0.903
0.0176 -0.0043000001 0.903
0.019200001 -0.0043000001 0.90100002
0.0207 -0.0043000001 0.89999998
0.0222 -0.0043000001 0.89700001
0.023700001 -0.0043000001 0.89499998
0.0252 -0.0041999999 0.89399999
0.026699999 -0.0041999999 0.89300001
0.0283 -0.0041999999 0.89399999
0.029999999 -0.0043000001 0.89700001
0.0425 -0.0043000001 0.898
0.044 -0.0043000001 0.898
0.045400001 -0.0043000001 0.89499998
0.046799999 -0.0041999999 0.89099997
0.0482 -0.0041999999 0.88999999
0.065899998 -0.0043000001 0.89899999
0.067400001 -0.0043000001 0.898
0.068700001 -0.0043000001 0.89499998
0.070100002 -0.0041999999 0.89300001
0.071500003 -0.0041999999 0.89099997
0.072899997 -0.0041999999 0.88999999
0.074600004 -0.0041999999 0.89099997
0.076300003 -0.0041999999 0.89300001
0.078000002 -0.0043000001 0.89499998
0.079700001 -0.0043000001 0.89700001
0.081299998 -0.0043000001 0.89700001
0.082800001 -0.0043000001 0.89700001
0.084399998 -0.0043000001 0.89700001
0.0858 -0.0043000001 0.89600003
0.087300003 -0.0043000001 0.89499998
0.088600002 -0.0041999999 0.89300001
0.0902 -0.0041999999 0.89300001
0.091799997 -0.0041999999 0.89399999
0.0933 -0.0041999999 0.89300001
0.094800003 -0.0041999999 0.89300001
0.097800002 -0.0041999999 0.89200002
0.099299997 -0.0041999999 0.89099997
0.1007 -0.0041999999 0.88999999
0.1022 -0.0041999999 0.88999999
0.1037 -0.0041999999 0.889
0.1053 -0.0041999999 0.88999999
0.107 -0.0041999999 0.89099997
0.1088 -0.0041999999 0.89300001
0.1106 -0.0043000001 0.89499998
0.1121 -0.0043000001 0.89499998
0.1135 -0.0041999999 0.89399999
0.115 -0.0041999999 0.89300001
0.1164 -0.0041999999 0.89200002
0.1178 -0.0041999999 0.89099997
0.1193 -0.0041999999 0.89099997
0.1209 -0.0041999999 0.89099997
0.1224 -0.0041999999 0.89099997
0.124 -0.0041999999 0.89099997
0.1257 -0.0041999999 0.89200002
0.12729999 -0.0041999999 0.89300001
0.12890001 -0.0041999999 0.89300001
0.1303 -0.0041999999 0.89200002
0.1318 -0.0041999999 0.89200002
0.13349999 -0.0041999999 0.89300001
0.13510001 -0.0041999999 0.89300001
0.1365 -0.0041999999 0.89200002
0.13789999 -0.0041999999 0.89099997
0.13940001 -0.0041999999 0.89099997
0.141 -0.0041999999 0.89099997
0.14229999 -0.0041999999 0.88999999
0.14390001 -0.0041999999 0.88999999
0.14749999 -0.0041999999 0.89300001
0.14929999 -0.0043000001 0.89499998
0.1576 -0.0043000001 0.898
0.16060001 -0.0043000001 0.89700001
0.16230001 -0.0043000001 0.898
0.1638 -0.0043000001 0.898
0.16580001 -0.0043000001 0.89999998
0.1673 -0.0043000001 0.89999998
0.1689 -0.0043000001 0.89999998
0.1705 -0.0043000001 0.89999998
0.1718 -0.0043000001 0.89899999
0.1734 -0.0043000001 0.89899999
0.1751 -0.0043000001 0.89999998
0.1767 -0.0043000001 0.89999998
0.17839999 -0.0043000001 0.90100002
0.18000001 -0.0043000001 0.90100002
0.1816 -0.0043000001 0.90100002
0.1829 -0.0043000001 0.89999998
0.18430001 -0.0043000001 0.89899999
0.18610001 -0.0043000001 0.89999998
0.18780001 -0.0043000001 0.90100002
0.18960001 -0.0043000001 0.90200001
0.1918 -0.0043000001 0.90499997
0.1938 -0.0043000001 0.90700001
-0.34689999 -0.0026 0.875
-0.3457 -0.0026 0.87599999
-0.345 -0.0027000001 0.87800002
-0.3439 -0.0027000001 0.87900001
-0.3427 -0.0027000001 0.88
-0.34240001 -0.0027000001 0.88300002
-0.3416 -0.0027000001 0.88499999
-0.3405 -0.0027000001 0.88599998
-0.33270001 -0.0027000001 0.88999999
-0.3308 -0.0027000001 0.889
-0.3263 -0.0027000001 0.88499999
-0.32440001 -0.0027000001 0.884
-0.31490001 -0.0027000001 0.87900001
-0.31189999 -0.0027000001 0.87900001
-0.30950001 -0.0027000001 0.88099998
-0.308 -0.0027000001 0.88099998
-0.30680001 -0.0027000001 0.88200003
-0.30630001 -0.0027000001 0.88499999
-0.3055 -0.0027000001 0.88700002
-0.30399999 -0.0027000001 0.88700002
-0.3021 -0.0027000001 0.88599998
-0.30019999 -0.0027000001 0.88499999
-0.2987 -0.0027000001 0.88499999
-0.29710001 -0.0027000001 0.88499999
-0.2956 -0.0027000001 0.88499999
-0.29370001 -0.0027000001 0.884
-0.29100001 -0.0027000001 0.88499999
-0.28670001 -0.0027000001 0.88599998
-0.28549999 -0.0027000001 0.88700002
-0.27970001 -0.0027000001 0.88800001
-0.27810001 -0.0027000001 0.88800001
-0.27169999 -0.0027000001 0.88700002
-0.2701 -0.0027000001 0.88700002
-0.26859999 -0.0027000001 0.88700002
-0.2674 -0.0027000001 0.88800001
-0.264 -0.0027000001 0.88700002
-0.2624 -0.0027000001 0.88700002
-0.25749999 -0.0027000001 0.88599998
-0.25569999 -0.0027000001 0.88499999
-0.25420001 -0.0027000001 0.88499999
-0.2527 -0.0027000001 0.88499999
-0.25080001 -0.0027000001 0.884
-0.249 -0.0027000001 0.88300002
-0.2475 -0.0027000001 0.88300002
-0.2457 -0.0027000001 0.88200003
-0.24420001 -0.0027000001 0.88200003
-0.2429 -0.0027000001 0.88300002
-0.2411 -0.0027000001 0.88200003
-0.2396 -0.0027000001 0.88200003
-0.2383 -0.0027000001 0.88300002
-0.237 -0.0027000001 0.884
-0.2358 -0.0027000001 0.88499999
-0.23450001 -0.0027000001 0.88599998
-0.233 -0.0027000001 0.88599998
-0.2314 -0.0027000001 0.88599998
-0.2281 -0.0027000001 0.88499999
-0.22660001 -0.0027000001 0.88499999
-0.22480001 -0.0027000001 0.884
-0.223 -0.0027000001 0.88300002
-0.2212 -0.0027000001 0.88200003
-0.2194 -0.0027000001 0.88099998
-0.2182 -0.0027000001 0.88200003
-0.2166 -0.0027000001 0.88200003
-0.2149 -0.0027000001 0.88099998
-0.2129 -0.0027000001 0.87900001
-0.2111 -0.0027000001 0.87800002
-0.2093 -0.0026 0.87699997
-0.208 -0.0027000001 0.87800002
-0.2068 -0.0027000001 0.87900001
-0.2057 -0.0027000001 0.88099998
-0.2044 -0.0027000001 0.88200003
-0.2033 -0.0027000001 0.884
-0.20200001 -0.0027000001 0.88499999
-0.2005 -0.0027000001 0.88499999
-0.1987 -0.0027000001 0.884
-0.197 -0.0027000001 0.88300002
-0.1952 -0.0027000001 0.88200003
-0.1937 -0.0027000001 0.88200003
-0.192 -0.0027000001 0.88099998
-0.19 -0.0027000001 0.87900001
-0.1881 -0.0026 0.87699997
-0.1718 -0.0024999999 0.82800001
-0.1706 -0.0024999999 0.829
-0.1689 -0.0024999999 0.82800001
-0.1673 -0.0024999999 0.82700002
-0.16590001 -0.0024999999 0.82700002
-0.1644 -0.0024999999 0.82700002
-0.16339999 -0.0024999999 0.829
-0.162 -0.0024999999 0.829
-0.1605 -0.0024999999 0.829
-0.1591 -0.0024999999 0.829
-0.1576 -0.0024999999 0.829
-0.15620001 -0.0024999999 0.829
-0.1548 -0.0024999999 0.829
-0.1533 -0.0024999999 0.829
-0.15189999 -0.0024999999 0.829
-0.1505 -0.0024999999 0.829
-0.149 -0.0024999999 0.829
-0.1478 -0.0024999999 0.82999998
-0.1462 -0.0024999999 0.829
-0.14489999 -0.0024999999 0.82999998
-0.1435 -0.0024999999 0.82999998
-0.14219999 -0.0024999999 0.83099997
-0.1407 -0.0024999999 0.83099997
-0.1391 -0.0024999999 0.82999998
-0.13789999 -0.0024999999 0.83099997
-0.1364 -0.0024999999 0.83099997
-0.1348 -0.0024999999 0.82999998
-0.1319 -0.0024999999 0.82999998
-0.1305 -0.0024999999 0.82999998
-0.12890001 -0.0024999999 0.829
-0.1275 -0.0024999999 0.829
-0.126 -0.0024999999 0.829
-0.1244 -0.0024999999 0.82800001
-0.123 -0.0024999999 0.82800001
-0.1214 -0.0024999999 0.82700002
-0.12 -0.0024999999 0.82700002
-0.1184 -0.0024999999 0.82599998
-0.1168 -0.0024999999 0.82499999
-0.1153 -0.0024999999 0.824
-0.1067 -0.0024999999 0.824
-0.1052 -0.0024999999 0.82300001
-0.1039 -0.0024999999 0.824
-0.1026 -0.0024999999 0.82499999
-0.1014 -0.0024999999 0.82700002
-0.1002 -0.0024999999 0.829
-0.098899998 -0.0024999999 0.82999998
-0.097499996 -0.0024999999 0.83099997
-0.096100003 -0.0024999999 0.83099997
-0.094499998 -0.0024999999 0.82999998
-0.093099996 -0.0024999999 0.82999998
-0.091600001 -0.0024999999 0.829
-0.089900002 -0.0024999999 0.82700002
-0.088399999 -0.0024999999 0.82599998
-0.086800002 -0.0024999999 0.82499999
-0.085299999 -0.0024999999 0.824
-0.083999999 -0.0024999999 0.82499999
-0.082500003 -0.0024999999 0.82499999
-0.081100002 -0.0024999999 0.82499999
-0.079899997 -0.0024999999 0.82700002
-0.078500003 -0.0024999999 0.82800001
-0.077200003 -0.0024999999 0.829
-0.0757 -0.0024999999 0.82800001
-0.074000001 -0.0024999999 0.82599998
-0.0726 -0.0024999999 0.82599998
-0.071199998 -0.0024999999 0.82599998
-0.069700003 -0.0024999999 0.82599998
-0.0682 -0.0024999999 0.82499999
-0.066799998 -0.0024999999 0.82499999
-0.065499999 -0.0024999999 0.82599998
-0.064099997 -0.0024999999 0.82700002
-0.062700003 -0.0024999999 0.82700002
-0.061299998 -0.0024999999 0.82800001
-0.059900001 -0.0024999999 0.829
-0.058600001 -0.0024999999 0.83099997
-0.0515 -0.0024999999 0.83200002
-0.050099999 -0.0024999999 0.83200002
-0.048599999 -0.0024999999 0.83099997
-0.0471 -0.0024999999 0.83099997
-0.045600001 -0.0024999999 0.82999998
-0.044199999 -0.0024999999 0.83099997
-0.0427 -0.0024999999 0.829
-0.041200001 -0.0024999999 0.82700002
-0.039700001 -0.0024999999 0.82700002
-0.0285 -0.0024999999 0.833
-0.027000001 -0.0024999999 0.833
-0.025599999 -0.0024999999 0.833
-0.0241 -0.0024999999 0.833
-0.022700001 -0.0024999999 0.83200002
-0.021299999 -0.0024999999 0.833
-0.0198 -0.0024999999 0.833
-0.0184 -0.0024999999 0.83399999
-0.017000001 -0.0024999999 0.83499998
-0.0155 -0.0024999999 0.83499998
-0.0141 -0.0024999999 0.83499998
-0.0126 -0.0024999999 0.83399999
-0.0111 -0.0024999999 0.833
-0.0026 -0.0027000001 0.88200003
-0.0011 -0.0027000001 0.88599998
0.00039999999 -0.0027000001 0.88700002
0.0020000001 -0.0027000001 0.889
0.0035000001 -0.0027000001 0.88999999
0.0051000002 -0.0027000001 0.89300001
0.0066 -0.0027000001 0.89399999
0.0082 -0.0027000001 0.89499998
0.0098000001 -0.0027000001 0.89700001
0.0114 -0.0027000001 0.89999998
0.0129 -0.0027000001 0.90100002
0.0145 -0.0027000001 0.90200001
0.016100001 -0.0027000001 0.903
0.0176 -0.0027000001 0.90200001
0.019200001 -0.0027000001 0.90100002
0.0207 -0.0027000001 0.89999998
0.0222 -0.0027000001 0.898
0.023700001 -0.0027000001 0.89600003
0.0252 -0.0027000001 0.89499998
0.026699999 -0.0027000001 0.89300001
0.0284 -0.0027000001 0.89499998
0.029899999 -0.0027000001 0.89600003
0.031599998 -0.0027000001 0.898
0.033199999 -0.0027000001 0.89999998
0.0348 -0.0027000001 0.90100002
0.0425 -0.0027000001 0.898
0.043900002 -0.0027000001 0.89600003
0.045299999 -0.0027000001 0.89300001
0.046700001 -0.0027000001 0.88999999
0.067400001 -0.0027000001 0.898
0.068700001 -0.0027000001 0.89499998
0.070100002 -0.0027000001 0.89300001
0.071500003 -0.0027000001 0.89099997
0.072899997 -0.0027000001 0.88999999
0.074600004 -0.0027000001 0.89200002
0.076399997 -0.0027000001 0.89499998
0.078100003 -0.0027000001 0.89600003
0.079800002 -0.0027000001 0.898
0.0814 -0.0027000001 0.898
0.082900003 -0.0027000001 0.898
0.084399998 -0.0027000001 0.89700001
0.0858 -0.0027000001 0.89600003
0.087300003 -0.0027000001 0.89499998
0.088600002 -0.0027000001 0.89300001
0.0902 -0.0027000001 0.89300001
0.0977 -0.0027000001 0.89099997
0.098999999 -0.0027000001 0.889
0.1006 -0.0027000001 0.889
0.102 -0.0027000001 0.88800001
0.1034 -0.0027000001 0.88700002
0.1051 -0.0027000001 0.88800001
0.1067 -0.0027000001 0.889
0.1088 -0.0027000001 0.89300001
0.1106 -0.0027000001 0.89499998
0.1121 -0.0027000001 0.89499998
0.1137 -0.0027000001 0.89499998
0.1152 -0.0027000001 0.89499998
0.1166 -0.0027000001 0.89399999
0.1179 -0.0027000001 0.89200002
0.1195 -0.0027000001 0.89200002
0.1209 -0.0027000001 0.89099997
0.1224 -0.0027000001 0.89099997
0.1241 -0.0027000001 0.89200002
0.1257 -0.0027000001 0.89200002
0.12729999 -0.0027000001 0.89300001
0.1286 -0.0027000001 0.89099997
0.1301 -0.0027000001 0.89099997
0.13169999 -0.0027000001 0.89099997
0.13349999 -0.0027000001 0.89300001
0.13510001 -0.0027000001 0.89300001
0.1365 -0.0027000001 0.89200002
0.13789999 -0.0027000001 0.89099997
0.13940001 -0.0027000001 0.89099997
0.141 -0.0027000001 0.89099997
0.14399999 -0.0027000001 0.89099997
0.14560001 -0.0027000001 0.89099997
0.1478 -0.0027000001 0.89499998
0.1497 -0.0027000001 0.89700001
0.1578 -0.0027000001 0.89899999
0.1592 -0.0027000001 0.898
0.16060001 -0.0027000001 0.89700001
0.16230001 -0.0027000001 0.898
0.16419999 -0.0027000001 0.89999998
0.16599999 -0.0027000001 0.90100002
0.1673 -0.0027000001 0.89999998
0.1691 -0.0027000001 0.90100002
0.1705 -0.0027000001 0.89999998
0.1716 -0.0027000001 0.898
0.1732 -0.0027000001 0.898
0.17470001 -0.0027000001 0.898
0.1763 -0.0027000001 0.898
0.1781 -0.0027000001 0.89899999
0.1796 -0.0027000001 0.89899999
0.1812 -0.0027000001 0.89899999
0.18269999 -0.0027000001 0.89899999
0.1841 -0.0027000001 0.898
0.18610001 -0.0027000001 0.89999998
0.18780001 -0.0027000001 0.90100002
0.18979999 -0.0027000001 0.903
0.192 -0.0027000001 0.90600002
0.1944 -0.0027000001 0.91000003
-0.359 -0.0011 0.875
-0.3461 -0.0011 0.87300003
-0.345 -0.0011 0.87800002
-0.3439 -0.0011 0.87900001
-0.3427 -0.0011 0.88
-0.34200001 -0.0011 0.88200003
-0.34119999 -0.0011 0.884
-0.3247 -0.0011 0.88499999
-0.31220001 -0.0011 0.88
-0.30840001 -0.0011 0.88200003
-0.30599999 -0.0011 0.884
-0.3055 -0.0011 0.88700002
-0.30430001 -0.0011 0.88800001
-0.30239999 -0.0011 0.88700002
-0.30090001 -0.0011 0.88700002
-0.29899999 -0.0011 0.88599998
-0.29750001 -0.0011 0.88599998
-0.2956 -0.0011 0.88499999
-0.29409999 -0.0011 0.88499999
-0.2784 -0.0011 0.889
-0.27410001 -0.0011 0.88999999
-0.2723 -0.0011 0.889
-0.271 -0.0011 0.88999999
-0.26980001 -0.0011 0.89099997
-0.26890001 -0.0011 0.89300001
-0.26789999 -0.0012000001 0.89499998
-0.2658 -0.0011 0.89300001
-0.2642 -0.0011 0.89300001
-0.2527 -0.0011 0.88499999
-0.24959999 -0.0011 0.88499999
-0.24779999 -0.0011 0.884
-0.2462 -0.0011 0.884
-0.2447 -0.0011 0.884
-0.2432 -0.0011 0.884
-0.24160001 -0.0011 0.884
-0.2401 -0.0011 0.884
-0.2388 -0.0011 0.88499999
-0.2376 -0.0011 0.88599998
-0.23630001 -0.0011 0.88700002
-0.235 -0.0011 0.88800001
-0.2335 -0.0011 0.88800001
-0.23199999 -0.0011 0.88800001
-0.22660001 -0.0011 0.88499999
-0.22499999 -0.0011 0.88499999
-0.223 -0.0011 0.88300002
-0.2212 -0.0011 0.88200003
-0.21969999 -0.0011 0.88200003
-0.2182 -0.0011 0.88200003
-0.21690001 -0.0011 0.88300002
-0.21510001 -0.0011 0.88200003
-0.2133 -0.0011 0.88099998
-0.21179999 -0.0011 0.88099998
-0.20999999 -0.0011 0.88
-0.2088 -0.0011 0.88099998
-0.2057 -0.0011 0.88099998
-0.2042 -0.0011 0.88099998
-0.20290001 -0.0011 0.88200003
-0.2018 -0.0011 0.884
-0.2001 -0.0011 0.88300002
-0.1983 -0.0011 0.88200003
-0.1965 -0.0011 0.88099998
-0.1948 -0.0011 0.88
-0.1935 -0.0011 0.88099998
-0.1917 -0.0011 0.88
-0.18979999 -0.0011 0.87800002
-0.1706 -0.0011 0.829
-0.16869999 -0.0011 0.82700002
-0.1673 -0.0011 0.82700002
-0.16590001 -0.0011 0.82700002
-0.1644 -0.0011 0.82700002
-0.16320001 -0.0011 0.82800001
-0.16159999 -0.0011 0.82700002
-0.1601 -0.0011 0.82700002
-0.1587 -0.0011 0.82700002
-0.1575 -0.0011 0.82800001
-0.15620001 -0.0011 0.829
-0.1548 -0.0011 0.829
-0.1533 -0.0011 0.829
-0.15189999 -0.0011 0.829
-0.1505 -0.0011 0.829
-0.14920001 -0.0011 0.82999998
-0.1476 -0.0011 0.829
-0.1462 -0.0011 0.829
-0.14489999 -0.0011 0.82999998
-0.1435 -0.0011 0.82999998
-0.142 -0.0011 0.82999998
-0.1406 -0.0011 0.82999998
-0.139 -0.0011 0.829
-0.1375 -0.0011 0.829
-0.13609999 -0.0011 0.829
-0.1347 -0.0011 0.829
-0.1332 -0.0011 0.829
-0.1318 -0.0011 0.829
-0.1303 -0.0011 0.829
-0.12720001 -0.0011 0.82700002
-0.1259 -0.0011 0.82800001
-0.1244 -0.0011 0.82800001
-0.123 -0.0011 0.82800001
-0.1214 -0.0011 0.82700002
-0.1199 -0.0011 0.82599998
-0.1183 -0.0011 0.82499999
-0.1168 -0.0011 0.82499999
-0.1153 -0.0011 0.824
-0.1122 -0.0011 0.82200003
-0.108 -0.0011 0.82300001
-0.1067 -0.0011 0.824
-0.1053 -0.0011 0.824
-0.104 -0.0011 0.82499999
-0.1028 -0.0011 0.82700002
-0.1015 -0.0011 0.82800001
-0.1003 -0.0011 0.82999998
-0.098999999 -0.0011 0.83099997
-0.097499996 -0.0011 0.83099997
-0.096100003 -0.0011 0.83099997
-0.094700001 -0.0011 0.83099997
-0.093199998 -0.0011 0.83099997
-0.091700003 -0.0011 0.82999998
-0.089900002 -0.0011 0.82700002
-0.088399999 -0.0011 0.82599998
-0.0867 -0.0011 0.824
-0.085299999 -0.0011 0.824
-0.083999999 -0.0011 0.82499999
-0.082500003 -0.0011 0.82499999
-0.081200004 -0.0011 0.82599998
-0.079999998 -0.0011 0.82800001
-0.078500003 -0.0011 0.82800001
-0.077200003 -0.0011 0.829
-0.0757 -0.0011 0.82800001
-0.074000001 -0.0011 0.82599998
-0.0726 -0.0011 0.82599998
-0.071199998 -0.0011 0.82599998
-0.069700003 -0.0011 0.82499999
-0.068300001 -0.0011 0.82599998
-0.066799998 -0.0011 0.82499999
-0.065499999 -0.0011 0.82599998
-0.064099997 -0.0011 0.82700002
-0.062700003 -0.0011 0.82700002
-0.061299998 -0.0011 0.82800001
-0.059900001 -0.0011 0.829
-0.050000001 -0.0011 0.83099997
-0.048599999 -0.0011 0.83200002
-0.0471 -0.0011 0.83099997
-0.045699999 -0.0011 0.83099997
-0.044199999 -0.0011 0.83099997
-0.0427 -0.0011 0.829
-0.041200001 -0.0011 0.82700002
-0.039700001 -0.0011 0.82700002
-0.030099999 -0.0011 0.83700001
-0.0285 -0.0011 0.83499998
-0.027100001 -0.0011 0.83399999
-0.025599999 -0.0011 0.83399999
-0.0241 -0.0011 0.833
-0.022700001 -0.0011 0.833
-0.021299999 -0.0011 0.83399999
-0.0198 -0.0011 0.83399999
-0.0184 -0.0011 0.83499998
-0.017000001 -0.0011 0.83499998
-0.0155 -0.0011 0.83600003
-0.0141 -0.0011 0.83499998
-0.0126 -0.0011 0.83399999
-0.0011 -0.0011 0.88499999
0.0035000001 -0.0011 0.889
0.0051000002 -0.0011 0.89200002
0.0066 -0.0011 0.89300001
0.0082 -0.0012000001 0.89499998
0.0098000001 -0.0012000001 0.898
0.0114 -0.0012000001 0.90100002
0.0129 -0.0012000001 0.90200001
0.0145 -0.0012000001 0.903
0.016100001 -0.0012000001 0.903
0.0176 -0.0012000001 0.903
0.019200001 -0.0012000001 0.903
0.0208 -0.0012000001 0.90200001
0.022299999 -0.0012000001 0.89999998
0.023800001 -0.0012000001 0.898
0.0253 -0.0012000001 0.89600003
0.026799999 -0.0012000001 0.89499998
0.0284 -0.0012000001 0.89499998
0.029899999 -0.0012000001 0.89499998
0.031500001 -0.0012000001 0.89600003
0.033100002 -0.0012000001 0.89700001
0.034699999 -0.0012000001 0.898
0.0363 -0.0012000001 0.89999998
0.042399999 -0.0012000001 0.89600003
0.043900002 -0.0012000001 0.89499998
0.045200001 -0.0011 0.89099997
0.067299999 -0.0012000001 0.89700001
0.068700001 -0.0012000001 0.89499998
0.070200004 -0.0012000001 0.89399999
0.071599998 -0.0011 0.89300001
0.072999999 -0.0011 0.89099997
0.074699998 -0.0011 0.89300001
0.076399997 -0.0012000001 0.89499998
0.078199998 -0.0012000001 0.89700001
0.079800002 -0.0012000001 0.898
0.0814 -0.0012000001 0.898
0.082900003 -0.0012000001 0.898
0.0845 -0.0012000001 0.898
0.085900001 -0.0012000001 0.89700001
0.087300003 -0.0012000001 0.89499998
0.088699996 -0.0012000001 0.89399999
0.0902 -0.0011 0.89300001
0.091899998 -0.0012000001 0.89499998
0.094700001 -0.0011 0.89200002
0.096199997 -0.0011 0.89099997
0.097599998 -0.0011 0.88999999
0.1034 -0.0011 0.88700002
0.1051 -0.0011 0.88800001
0.1067 -0.0011 0.889
0.1088 -0.0011 0.89300001
0.1106 -0.0012000001 0.89499998
0.1122 -0.0012000001 0.89600003
0.1138 -0.0012000001 0.89600003
0.1152 -0.0012000001 0.89499998
0.1165 -0.0011 0.89300001
0.1179 -0.0011 0.89200002
0.1193 -0.0011 0.89099997
0.1209 -0.0011 0.89099997
0.1224 -0.0011 0.89099997
0.1241 -0.0011 0.89200002
0.1258 -0.0011 0.89300001
0.12729999 -0.0011 0.89300001
0.12890001 -0.0011 0.89300001
0.1303 -0.0011 0.89200002
0.132 -0.0011 0.89300001
0.13349999 -0.0011 0.89300001
0.13510001 -0.0011 0.89300001
0.1365 -0.0011 0.89200002
0.13789999 -0.0011 0.89099997
0.13940001 -0.0011 0.89099997
0.141 -0.0011 0.89099997
0.14229999 -0.0011 0.88999999
0.14399999 -0.0011 0.89099997
0.14560001 -0.0011 0.89099997
0.14749999 -0.0011 0.89300001
0.1495 -0.0012000001 0.89600003
0.1533 -0.0012000001 0.89999998
0.1549 -0.0012000001 0.89999998
0.1576 -0.0012000001 0.898
0.15899999 -0.0012000001 0.89700001
0.1604 -0.0012000001 0.89600003
0.1619 -0.0012000001 0.89600003
0.1637 -0.0012000001 0.89700001
0.16580001 -0.0012000001 0.89999998
0.1673 -0.0012000001 0.89999998
0.1689 -0.0012000001 0.89999998
0.1705 -0.0012000001 0.89999998
0.1716 -0.0012000001 0.898
0.1732 -0.0012000001 0.898
0.17470001 -0.0012000001 0.898
0.1761 -0.0012000001 0.89700001
0.1779 -0.0012000001 0.898
0.1794 -0.0012000001 0.898
0.18099999 -0.0012000001 0.898
0.1825 -0.0012000001 0.898
0.1841 -0.0012000001 0.898
0.1858 -0.0012000001 0.89899999
0.18799999 -0.0012000001 0.90200001
0.18979999 -0.0012000001 0.903
0.19239999 -0.0012000001 0.90799999
0.19490001 -0.0012000001 0.912
-0.3457 0.00039999999 0.87599999
-0.345 0.00039999999 0.87800002
-0.3439 0.00039999999 0.87900001
-0.3423 0.00039999999 0.87900001
-0.3416 0.00039999999 0.88099998
-0.3405 0.00039999999 0.88200003
-0.33849999 0.00039999999 0.88499999
-0.33239999 0.00039999999 0.889
-0.32820001 0.00039999999 0.88599998
-0.3141 0.00039999999 0.88099998
-0.31220001 0.00039999999 0.88
-0.30950001 0.00039999999 0.88099998
-0.308 0.00039999999 0.88099998
-0.30649999 0.00039999999 0.88099998
-0.30450001 0.00039999999 0.884
-0.30399999 0.00039999999 0.88700002
-0.3021 0.00039999999 0.88599998
-0.30090001 0.00039999999 0.88700002
-0.29899999 0.00039999999 0.88599998
-0.29710001 0.00039999999 0.88499999
-0.2956 0.00039999999 0.88499999
-0.29249999 0.00039999999 0.88499999
-0.28400001 0.00039999999 0.88700002
-0.2692 0.00039999999 0.89399999
-0.26969999 0.00039999999 0.90100002
-0.2545 0.00039999999 0.88599998
-0.2529 0.00039999999 0.88599998
-0.25139999 0.00039999999 0.88599998
-0.24959999 0.00039999999 0.88499999
-0.24680001 0.00039999999 0.88599998
-0.2437 0.00039999999 0.88599998
-0.2422 0.00039999999 0.88599998
-0.24070001 0.00039999999 0.88599998
-0.2394 0.00039999999 0.88700002
-0.2379 0.00039999999 0.88700002
-0.2366 0.00039999999 0.88800001
-0.235 0.00039999999 0.88800001
-0.2335 0.00039999999 0.88800001
-0.23199999 0.00039999999 0.88800001
-0.23019999 0.00039999999 0.88700002
-0.22840001 0.00039999999 0.88599998
-0.22660001 0.00039999999 0.88499999
-0.22499999 0.00039999999 0.88499999
-0.2233 0.00039999999 0.884
-0.22149999 0.00039999999 0.88300002
-0.21969999 0.00039999999 0.88200003
-0.2184 0.00039999999 0.88300002
-0.21709999 0.00039999999 0.884
-0.2156 0.00039999999 0.884
-0.2138 0.00039999999 0.88300002
-0.2123 0.00039999999 0.88300002
-0.2105 0.00039999999 0.88200003
-0.20900001 0.00039999999 0.88200003
-0.2075 0.00039999999 0.88200003
-0.2059 0.00039999999 0.88200003
-0.20290001 0.00039999999 0.88200003
-0.2016 0.00039999999 0.88300002
-0.2001 0.00039999999 0.88300002
-0.1983 0.00039999999 0.88200003
-0.19679999 0.00039999999 0.88200003
-0.19499999 0.00039999999 0.88099998
-0.1935 0.00039999999 0.88099998
-0.19149999 0.00039999999 0.87900001
-0.18960001 0.00039999999 0.87699997
-0.17039999 0.00039999999 0.82800001
-0.16850001 0.00039999999 0.82599998
-0.1671 0.00039999999 0.82599998
-0.1655 0.00039999999 0.82499999
-0.164 0.00039999999 0.82499999
-0.1628 0.00039999999 0.82599998
-0.16140001 0.00039999999 0.82599998
-0.15989999 0.00039999999 0.82599998
-0.1587 0.00039999999 0.82700002
-0.1575 0.00039999999 0.82800001
-0.15620001 0.00039999999 0.829
-0.1548 0.00039999999 0.829
-0.15350001 0.00039999999 0.82999998
-0.1521 0.00039999999 0.82999998
-0.1505 0.00039999999 0.829
-0.14920001 0.00039999999 0.82999998
-0.1476 0.00039999999 0.829
-0.1462 0.00039999999 0.829
-0.14470001 0.00039999999 0.829
-0.1433 0.00039999999 0.829
-0.1418 0.00039999999 0.829
-0.14040001 0.00039999999 0.829
-0.1388 0.00039999999 0.82800001
-0.1374 0.00039999999 0.82800001
-0.1358 0.00039999999 0.82700002
-0.13429999 0.00039999999 0.82700002
-0.1329 0.00039999999 0.82700002
-0.13 0.00039999999 0.82700002
-0.1286 0.00039999999 0.82700002
-0.12720001 0.00039999999 0.82700002
-0.1259 0.00039999999 0.82800001
-0.1246 0.00039999999 0.829
-0.1232 0.00039999999 0.829
-0.1216 0.00039999999 0.82800001
-0.12 0.00039999999 0.82700002
-0.1186 0.00039999999 0.82700002
-0.117 0.00039999999 0.82599998
-0.1154 0.00039999999 0.82499999
-0.1139 0.00039999999 0.824
-0.1126 0.00039999999 0.82499999
-0.1111 0.00039999999 0.82499999
-0.1085 0.00039999999 0.82700002
-0.1071 0.00039999999 0.82700002
-0.1057 0.00039999999 0.82700002
-0.1044 0.00039999999 0.82800001
-0.103 0.00039999999 0.829
-0.1016 0.00039999999 0.829
-0.1004 0.00039999999 0.83099997
-0.098999999 0.00039999999 0.83099997
-0.097499996 0.00039999999 0.83099997
-0.096100003 0.00039999999 0.83099997
-0.094499998 0.00039999999 0.82999998
-0.093000002 0.00039999999 0.829
-0.091300003 0.00039999999 0.82700002
-0.089699998 0.00039999999 0.82499999
-0.088 0.00039999999 0.82300001
-0.086599998 0.00039999999 0.82300001
-0.083999999 0.00039999999 0.82499999
-0.082500003 0.00039999999 0.82499999
-0.081299998 0.00039999999 0.82700002
-0.0801 0.00039999999 0.829
-0.078599997 0.00039999999 0.829
-0.077200003 0.00039999999 0.829
-0.075599998 0.00039999999 0.82700002
-0.074000001 0.00039999999 0.82499999
-0.072499998 0.00039999999 0.82499999
-0.071199998 0.00039999999 0.82599998
-0.069700003 0.00039999999 0.82499999
-0.0682 0.00039999999 0.82499999
-0.0669 0.00039999999 0.82599998
-0.065499999 0.00039999999 0.82700002
-0.064199999 0.00039999999 0.82800001
-0.062799998 0.00039999999 0.829
-0.061500002 0.00039999999 0.82999998
-0.059999999 0.00039999999 0.82999998
-0.0515 0.00039999999 0.83200002
-0.050099999 0.00039999999 0.83200002
-0.048599999 0.00039999999 0.83200002
-0.047200002 0.00039999999 0.83200002
-0.045699999 0.00039999999 0.83099997
-0.044199999 0.00039999999 0.83099997
-0.042800002 0.00039999999 0.82999998
-0.041200001 0.00039999999 0.82700002
-0.0396 0.00039999999 0.824
-0.0381 0.00039999999 0.82200003
-0.031500001 0.00039999999 0.83700001
-0.030099999 0.00039999999 0.83700001
-0.0285 0.00039999999 0.83499998
-0.027100001 0.00039999999 0.83399999
-0.025599999 0.00039999999 0.83399999
-0.0242 0.00039999999 0.83399999
-0.022700001 0.00039999999 0.83399999
-0.021299999 0.00039999999 0.83399999
-0.0198 0.00039999999 0.83399999
-0.0184 0.00039999999 0.83499998
-0.017000001 0.00039999999 0.83499998
-0.0155 0.00039999999 0.83499998
-0.0141 0.00039999999 0.83499998
-0.0126 0.00039999999 0.83399999
0.00039999999 0.00039999999 0.88700002
0.0035000001 0.00039999999 0.88999999
0.0051000002 0.00039999999 0.89200002
0.0066 0.00039999999 0.89499998
0.0082 0.00039999999 0.89700001
0.0098000001 0.00039999999 0.89899999
0.0114 0.00039999999 0.90100002
0.013 0.00039999999 0.903
0.0145 0.00039999999 0.903
0.016100001 0.00039999999 0.903
0.0176 0.00039999999 0.903
0.019200001 0.00039999999 0.903
0.0208 0.00039999999 0.90200001
0.022299999 0.00039999999 0.89999998
0.023800001 0.00039999999 0.89899999
0.0253 0.00039999999 0.898
0.026799999 0.00039999999 0.89600003
0.0284 0.00039999999 0.89499998
0.029899999 0.00039999999 0.89600003
0.031500001 0.00039999999 0.89600003
0.033 0.00039999999 0.89600003
0.034699999 0.00039999999 0.898
0.0363 0.00039999999 0.89999998
0.065700002 0.00039999999 0.89700001
0.067100003 0.00039999999 0.89399999
0.068499997 0.00039999999 0.89300001
0.069899999 0.00039999999 0.89099997
0.071400002 0.00039999999 0.88999999
0.072899997 0.00039999999 0.88999999
0.074600004 0.00039999999 0.89099997
0.076300003 0.00039999999 0.89300001
0.078100003 0.00039999999 0.89600003
0.0814 0.00039999999 0.898
0.082900003 0.00039999999 0.898
0.084600002 0.00039999999 0.89899999
0.086000003 0.00039999999 0.898
0.0876 0.00039999999 0.898
0.0889 0.00039999999 0.89600003
0.090599999 0.00039999999 0.89700001
0.092299998 0.00039999999 0.898
0.096199997 0.00039999999 0.89099997
0.097599998 0.00039999999 0.88999999
0.098999999 0.00039999999 0.889
0.1005 0.00039999999 0.88800001
0.1019 0.00039999999 0.88700002
0.1034 0.00039999999 0.88700002
0.1051 0.00039999999 0.88800001
0.1069 0.00039999999 0.88999999
0.1088 0.00039999999 0.89300001
0.1106 0.00039999999 0.89499998
0.1122 0.00039999999 0.89600003
0.1137 0.00039999999 0.89499998
0.1153 0.00039999999 0.89600003
0.1168 0.00039999999 0.89499998
0.1182 0.00039999999 0.89399999
0.1196 0.00039999999 0.89300001
0.1211 0.00039999999 0.89300001
0.1227 0.00039999999 0.89300001
0.1244 0.00039999999 0.89399999
0.1261 0.00039999999 0.89499998
0.1275 0.00039999999 0.89399999
0.12890001 0.00039999999 0.89300001
0.1304 0.00039999999 0.89300001
0.132 0.00039999999 0.89300001
0.1337 0.00039999999 0.89399999
0.13519999 0.00039999999 0.89399999
0.1366 0.00039999999 0.89300001
0.1382 0.00039999999 0.89300001
0.13959999 0.00039999999 0.89200002
0.1411 0.00039999999 0.89200002
0.1425 0.00039999999 0.89099997
0.14399999 0.00039999999 0.89099997
0.14560001 0.00039999999 0.89099997
0.14749999 0.00039999999 0.89300001
0.1516 0.00039999999 0.89899999
0.1533 0.00039999999 0.89999998
0.1549 0.00039999999 0.89999998
0.15620001 0.00039999999 0.89899999
0.1578 0.00039999999 0.89899999
0.1592 0.00039999999 0.898
0.16060001 0.00039999999 0.89700001
0.1619 0.00039999999 0.89600003
0.1638 0.00039999999 0.898
0.16580001 0.00039999999 0.89999998
0.1673 0.00039999999 0.89999998
0.16869999 0.00039999999 0.89899999
0.1701 0.00039999999 0.898
0.1714 0.00039999999 0.89700001
0.1728 0.00039999999 0.89600003
0.1744 0.00039999999 0.89600003
0.17569999 0.00039999999 0.89499998
0.17730001 0.00039999999 0.89499998
0.1788 0.00039999999 0.89499998
0.1804 0.00039999999 0.89499998
0.18189999 0.00039999999 0.89499998
0.1837 0.00039999999 0.89600003
0.1856 0.00039999999 0.898
0.1876 0.00039999999 0.89999998
0.18960001 0.00039999999 0.90200001
0.1918 0.00039999999 0.90499997
-0.39590001 0.0019 0.88300002
-0.34799999 0.0019 0.87800002
-0.34650001 0.0019 0.87800002
-0.34540001 0.0019 0.87900001
-0.3439 0.0019 0.87900001
-0.3423 0.0019 0.87900001
-0.34119999 0.0019 0.88
-0.34009999 0.0019 0.88099998
-0.33849999 0.0019 0.88099998
-0.32820001 0.0019 0.88599998
-0.3263 0.0019 0.88499999
-0.3247 0.0019 0.88499999
-0.3053 0.0019 0.88200003
-0.30450001 0.0019 0.884
-0.30399999 0.0019 0.88700002
-0.3021 0.0019 0.88599998
-0.30019999 0.0019 0.88499999
-0.2913 0.0019 0.88599998
-0.28279999 0.0019 0.88800001
-0.28119999 0.0019 0.88800001
-0.2809 0.0019 0.89200002
-0.28 0.0019 0.89399999
-0.2726 0.0020000001 0.89499998
-0.26980001 0.0020000001 0.89600003
-0.2703 0.0020000001 0.903
-0.26820001 0.0020000001 0.90100002
-0.25479999 0.0019 0.88700002
-0.25319999 0.0019 0.88700002
-0.25170001 0.0019 0.88700002
-0.2471 0.0019 0.88700002
-0.2455 0.0019 0.88700002
-0.244 0.0019 0.88700002
-0.24250001 0.0019 0.88700002
-0.24089999 0.0019 0.88700002
-0.2394 0.0019 0.88700002
-0.23630001 0.0019 0.88700002
-0.2348 0.0019 0.88700002
-0.2332 0.0019 0.88700002
-0.2317 0.0019 0.88700002
-0.23019999 0.0019 0.88700002
-0.22840001 0.0019 0.88599998
