# .PCD v0.7 - Point Cloud Data file format
VERSION 0.7
FIELDS x y z
SIZE 4 4 4
TYPE F F F
COUNT 1 1 1
WIDTH 1520
HEIGHT 1
VIEWPOINT 0 0 0 1 0 0 0
POINTS 1520
DATA ascii
-0.0040000002 0.028100001 0.84100002
-0.0024999999 0.028100001 0.84100002
-0.0011 0.028100001 0.84299999
0.00039999999 0.028100001 0.84299999
0.0019 0.028200001 0.84399998
0.0033 0.028200001 0.84600002
0.0048000002 0.028200001 0.84600002
0.0063 0.028200001 0.84600002
0.0077 0.028200001 0.84600002
0.0092000002 0.0283 0.84799999
0.0107 0.0283 0.84799999
-0.101 0.0294 0.83600003
-0.097800002 0.029200001 0.833
-0.096299998 0.029200001 0.833
-0.094899997 0.029200001 0.833
-0.093599997 0.029300001 0.83399999
-0.092 0.029200001 0.833
-0.090599999 0.029200001 0.833
-0.080700003 0.0294 0.83600003
-0.079400003 0.0294 0.83700001
-0.0779 0.0294 0.83700001
-0.076300003 0.029300001 0.83499998
-0.074900001 0.029300001 0.83499998
-0.073299997 0.029300001 0.83399999
-0.071900003 0.029300001 0.83399999
-0.0704 0.029300001 0.83399999
-0.068999998 0.029300001 0.83399999
-0.067500003 0.029300001 0.83399999
-0.066200003 0.029300001 0.83499998
-0.0647 0.029300001 0.83499998
-0.063299999 0.0294 0.83600003
-0.061999999 0.0294 0.838
-0.060699999 0.0295 0.83899999
-0.0592 0.0295 0.83899999
-0.057799999 0.0295 0.83899999
-0.056299999 0.0295 0.83899999
-0.054900002 0.0295 0.83899999
-0.053399999 0.0295 0.83899999
-0.051899999 0.0294 0.838
-0.0504 0.0294 0.83700001
-0.031800002 0.0296 0.84399998
-0.025800001 0.0295 0.83899999
-0.0243 0.0295 0.83999997
-0.0229 0.0296 0.84200001
-0.021500001 0.0296 0.84299999
-0.02 0.0296 0.84299999
-0.0186 0.0296 0.84399998
-0.017100001 0.0296 0.84399998
-0.0156 0.0296 0.84200001
-0.0142 0.0295 0.84100002
-0.0127 0.0295 0.83999997
-0.0112 0.0295 0.83999997
-0.0098000001 0.0295 0.83899999
-0.0082999999 0.0295 0.83999997
-0.0068999999 0.0295 0.83899999
-0.0054000001 0.0295 0.83899999
-0.0040000002 0.0294 0.838
-0.0024999999 0.0295 0.83899999
-0.0011 0.0295 0.83999997
0.00039999999 0.0295 0.84100002
0.0019 0.0296 0.84200001
0.0033 0.0296 0.84299999
0.0048000002 0.0296 0.84399998
0.0063 0.0296 0.84399998
0.0077 0.0296 0.84399998
0.0092000002 0.0297 0.84500003
0.0107 0.0297 0.84500003
0.0121 0.0297 0.84500003
0.0135 0.0296 0.84200001
-0.37040001 0.032299999 0.87699997
-0.1009 0.0308 0.83499998
-0.099200003 0.0307 0.833
-0.097800002 0.0307 0.833
-0.096299998 0.0307 0.833
-0.094899997 0.0307 0.833
-0.093400002 0.0307 0.833
-0.092 0.0307 0.833
-0.090400003 0.0307 0.83200002
-0.080600001 0.0308 0.83499998
-0.079400003 0.0308 0.83700001
-0.0779 0.0308 0.83700001
-0.076499999 0.0308 0.83700001
-0.074900001 0.0308 0.83499998
-0.073299997 0.0307 0.83399999
-0.071900003 0.0307 0.83399999
-0.070299998 0.0307 0.833
-0.068899997 0.0307 0.833
-0.067500003 0.0307 0.833
-0.066100001 0.0307 0.83399999
-0.064599998 0.0307 0.83399999
-0.063299999 0.0308 0.83499998
-0.061900001 0.0308 0.83600003
-0.060600001 0.0309 0.838
-0.059099998 0.0309 0.838
-0.057799999 0.0309 0.83899999
-0.056299999 0.0309 0.83899999
-0.054900002 0.0309 0.83899999
-0.0535 0.0309 0.83999997
-0.051899999 0.0309 0.83899999
-0.0504 0.0309 0.838
-0.033300001 0.031099999 0.84500003
-0.031800002 0.031099999 0.84500003
-0.030300001 0.031099999 0.84500003
-0.0288 0.031099999 0.84299999
-0.0273 0.030999999 0.84100002
-0.025800001 0.030999999 0.84100002
-0.0244 0.030999999 0.84100002
-0.0229 0.030999999 0.84200001
-0.021500001 0.031099999 0.84299999
-0.02 0.031099999 0.84299999
-0.0186 0.031099999 0.84299999
-0.017100001 0.031099999 0.84299999
-0.0156 0.030999999 0.84100002
-0.0142 0.0309 0.83999997
-0.0127 0.0309 0.83899999
-0.0112 0.0309 0.838
-0.0098000001 0.0309 0.838
-0.0082999999 0.0309 0.838
-0.0068999999 0.0309 0.838
-0.0054000001 0.0308 0.83700001
-0.0038999999 0.0308 0.83700001
-0.0024999999 0.0309 0.838
-0.0011 0.0309 0.83899999
0.00039999999 0.0309 0.83899999
0.0019 0.0309 0.83999997
0.0033 0.030999999 0.84100002
0.0048000002 0.030999999 0.84200001
0.0062000002 0.030999999 0.84200001
0.0077 0.031099999 0.84299999
0.0092000002 0.031099999 0.84399998
0.0106 0.031099999 0.84399998
0.0121 0.030999999 0.84200001
0.0135 0.0309 0.83999997
0.015 0.0309 0.83999997
-0.37130001 0.0339 0.87900001
-0.101 0.032200001 0.83600003
-0.099299997 0.032200001 0.83399999
-0.097900003 0.032200001 0.83399999
-0.0964 0.032200001 0.83399999
-0.094899997 0.032099999 0.833
-0.093599997 0.032200001 0.83399999
-0.092 0.032099999 0.833
-0.090400003 0.032099999 0.83200002
-0.089000002 0.032099999 0.83200002
-0.0876 0.032099999 0.83200002
-0.081900001 0.032099999 0.833
-0.080499999 0.032200001 0.83399999
-0.0792 0.032200001 0.83499998
-0.077799998 0.032200001 0.83600003
-0.076399997 0.032200001 0.83600003
-0.074900001 0.032200001 0.83499998
-0.073299997 0.032200001 0.83399999
-0.071900003 0.032200001 0.83399999
-0.070299998 0.032099999 0.833
-0.068800002 0.032099999 0.83200002
-0.067400001 0.032099999 0.83200002
-0.066 0.032099999 0.833
-0.064599998 0.032099999 0.833
-0.063199997 0.032200001 0.83399999
-0.061799999 0.032200001 0.83499998
-0.0605 0.032299999 0.83700001
-0.059099998 0.032299999 0.838
-0.057700001 0.032299999 0.838
-0.056200001 0.032299999 0.838
-0.054900002 0.032400001 0.83899999
-0.053399999 0.032400001 0.83899999
-0.051899999 0.032400001 0.83899999
-0.0504 0.032299999 0.838
-0.048999999 0.032299999 0.838
-0.034699999 0.032600001 0.84500003
-0.033199999 0.032600001 0.84399998
-0.031800002 0.032600001 0.84399998
-0.030300001 0.032600001 0.84399998
-0.0288 0.032600001 0.84399998
-0.0273 0.032400001 0.84100002
-0.025800001 0.032400001 0.84100002
-0.0244 0.032400001 0.84100002
-0.023 0.032499999 0.84299999
-0.021500001 0.032499999 0.84299999
-0.02 0.032499999 0.84200001
-0.0185 0.032400001 0.84100002
-0.017100001 0.032400001 0.84100002
-0.0156 0.032400001 0.83899999
-0.0141 0.032400001 0.83899999
-0.0127 0.032299999 0.838
-0.0112 0.032299999 0.83700001
-0.0098000001 0.032299999 0.83700001
-0.0082999999 0.032299999 0.83700001
-0.0068999999 0.032299999 0.83700001
-0.0054000001 0.032299999 0.83700001
-0.0038999999 0.032200001 0.83600003
-0.0024999999 0.032299999 0.838
-0.0011 0.032400001 0.83899999
0.00039999999 0.032400001 0.83899999
0.0019 0.032400001 0.83999997
0.0033 0.032400001 0.84100002
0.0048000002 0.032499999 0.84200001
0.0062000002 0.032400001 0.84100002
0.0077 0.032499999 0.84200001
0.0092000002 0.032499999 0.84299999
0.0106 0.032499999 0.84299999
0.0121 0.032400001 0.84100002
0.0135 0.032400001 0.83899999
0.015 0.032400001 0.83999997
0.0165 0.032499999 0.84200001
0.017999999 0.032600001 0.84399998
-0.4172 0.0352 0.87300003
-0.1885 0.035399999 0.87900001
-0.18700001 0.035399999 0.87900001
-0.101 0.0337 0.83600003
-0.099299997 0.033599999 0.83399999
-0.097900003 0.033599999 0.83399999
-0.0964 0.033599999 0.83399999
-0.094899997 0.033599999 0.833
-0.093599997 0.033599999 0.83399999
-0.092100002 0.033599999 0.83399999
-0.090599999 0.033599999 0.833
-0.089100003 0.033599999 0.833
-0.087700002 0.033599999 0.833
-0.086199999 0.033599999 0.833
-0.084799998 0.033599999 0.833
-0.0832 0.033500001 0.83200002
-0.081900001 0.033599999 0.833
-0.080499999 0.033599999 0.83399999
-0.0792 0.0337 0.83499998
-0.077699997 0.033599999 0.83399999
-0.076200001 0.033599999 0.83399999
-0.074900001 0.0337 0.83499998
-0.073200002 0.033599999 0.833
-0.071800001 0.033599999 0.833
-0.070299998 0.033500001 0.83200002
-0.068800002 0.033500001 0.83200002
-0.067400001 0.033500001 0.83200002
-0.066 0.033599999 0.833
-0.064599998 0.033599999 0.83399999
-0.063299999 0.0337 0.83499998
-0.061900001 0.0337 0.83600003
-0.060600001 0.033799998 0.838
-0.059099998 0.033799998 0.838
-0.057700001 0.033799998 0.838
-0.056200001 0.033799998 0.838
-0.054900002 0.033799998 0.83899999
-0.0535 0.0339 0.83999997
-0.052000001 0.0339 0.83999997
-0.050500002 0.033799998 0.83899999
-0.048999999 0.033799998 0.83899999
-0.047499999 0.033799998 0.838
-0.046100002 0.033799998 0.83899999
-0.0447 0.033799998 0.83899999
-0.043200001 0.033799998 0.838
-0.0418 0.033799998 0.83899999
-0.040399998 0.0339 0.83999997
-0.039000001 0.0339 0.84200001
-0.037700001 0.0341 0.84500003
-0.036200002 0.0341 0.84600002
-0.034699999 0.0341 0.84500003
-0.033199999 0.034000002 0.84399998
-0.0317 0.034000002 0.84299999
-0.030300001 0.034000002 0.84299999
-0.0288 0.0339 0.84200001
-0.0273 0.0339 0.83999997
-0.025800001 0.033799998 0.83899999
-0.0243 0.0339 0.83999997
-0.0229 0.0339 0.84100002
-0.021500001 0.034000002 0.84299999
-0.02 0.034000002 0.84299999
-0.0186 0.0339 0.84200001
-0.017100001 0.0339 0.84100002
-0.0156 0.033799998 0.83899999
-0.0141 0.033799998 0.838
-0.0127 0.0337 0.83700001
-0.0112 0.0337 0.83499998
-0.0097000003 0.0337 0.83600003
-0.0082999999 0.0337 0.83600003
-0.0068000001 0.0337 0.83600003
-0.0054000001 0.0337 0.83600003
-0.0038999999 0.0337 0.83700001
-0.0024999999 0.033799998 0.838
-0.0011 0.033799998 0.83899999
0.00039999999 0.0339 0.83999997
0.0019 0.0339 0.84100002
0.0033 0.0339 0.84100002
0.0048000002 0.0339 0.84200001
0.0062000002 0.0339 0.84100002
0.0077 0.0339 0.84100002
0.0092000002 0.0339 0.84200001
0.0106 0.0339 0.84200001
0.0121 0.0339 0.83999997
0.0135 0.033799998 0.83899999
0.0149 0.033799998 0.83899999
0.0164 0.0339 0.84100002
0.017999999 0.034000002 0.84399998
0.019400001 0.0341 0.84500003
0.021 0.034200002 0.84799999
-0.4048 0.037 0.87900001
-0.39570001 0.037 0.87900001
-0.39410001 0.037 0.87900001
-0.1885 0.037 0.87900001
-0.18700001 0.037 0.87900001
-0.1013 0.0352 0.838
-0.099699996 0.0352 0.83700001
-0.097999997 0.035100002 0.83499998
-0.0964 0.035100002 0.83399999
-0.094999999 0.035100002 0.83399999
-0.093599997 0.035100002 0.83399999
-0.092100002 0.035100002 0.83399999
-0.090599999 0.035 0.833
-0.089000002 0.035 0.83200002
-0.0876 0.035 0.83200002
-0.086099997 0.035 0.83200002
-0.084799998 0.035 0.833
-0.083300002 0.035 0.833
-0.081900001 0.035 0.833
-0.080399998 0.035 0.833
-0.079099998 0.035100002 0.83399999
-0.077600002 0.035 0.833
-0.076200001 0.035100002 0.83399999
-0.074699998 0.035 0.833
-0.073200002 0.035 0.833
-0.071699999 0.035 0.83200002
-0.070299998 0.035 0.83200002
-0.068800002 0.035 0.83200002
-0.067400001 0.035 0.83200002
-0.065899998 0.035 0.83200002
-0.064599998 0.035 0.833
-0.063100003 0.035 0.833
-0.061799999 0.035100002 0.83499998
-0.0605 0.035100002 0.83600003
-0.059099998 0.0352 0.83700001
-0.057599999 0.0352 0.83700001
-0.056200001 0.0352 0.83700001
-0.054699998 0.0352 0.83700001
-0.053300001 0.0352 0.838
-0.051899999 0.035300002 0.83899999
-0.050500002 0.035300002 0.83899999
-0.048999999 0.035300002 0.83899999
-0.047600001 0.035300002 0.83999997
-0.0462 0.035399999 0.84100002
-0.0449 0.035399999 0.84299999
-0.043400001 0.035399999 0.84299999
-0.041999999 0.035399999 0.84299999
-0.0405 0.035399999 0.84299999
-0.039000001 0.035399999 0.84299999
-0.037700001 0.035500001 0.84500003
-0.036200002 0.035599999 0.84600002
-0.034699999 0.035500001 0.84500003
-0.033199999 0.035500001 0.84399998
-0.0317 0.035399999 0.84299999
-0.030300001 0.035399999 0.84299999
-0.0288 0.035399999 0.84200001
-0.0272 0.035300002 0.83899999
-0.025699999 0.0352 0.838
-0.0243 0.0352 0.838
-0.0229 0.035300002 0.83899999
-0.021500001 0.035399999 0.84100002
-0.02 0.035300002 0.83999997
-0.0185 0.035300002 0.83999997
-0.017100001 0.035300002 0.83999997
-0.0156 0.035300002 0.83899999
-0.0141 0.0352 0.838
-0.0127 0.0352 0.83700001
-0.0112 0.035100002 0.83499998
-0.0097000003 0.035100002 0.83499998
-0.0082999999 0.035100002 0.83399999
-0.0068000001 0.035100002 0.83399999
-0.0054000001 0.035100002 0.83399999
-0.0038999999 0.035100002 0.83499998
-0.0024999999 0.0352 0.83700001
-0.0011 0.035300002 0.83899999
0.00039999999 0.035300002 0.83999997
0.0019 0.035399999 0.84100002
0.0033 0.035399999 0.84299999
0.0048000002 0.035399999 0.84299999
0.0062000002 0.035399999 0.84299999
0.0077 0.035399999 0.84299999
0.0092000002 0.035399999 0.84299999
0.0106 0.035399999 0.84200001
0.012 0.035300002 0.83899999
0.0135 0.0352 0.83700001
0.0149 0.0352 0.838
0.0164 0.035300002 0.83999997
0.017899999 0.035399999 0.84100002
0.019400001 0.035500001 0.84399998
0.0209 0.035599999 0.84600002
0.022500001 0.035700001 0.84799999
0.025599999 0.035999998 0.85600001
0.0297 0.035599999 0.84600002
0.031199999 0.035500001 0.84500003
0.032600001 0.035500001 0.84399998
0.034000002 0.035500001 0.84399998
-0.40020001 0.0385 0.87900001
-0.3987 0.0385 0.87900001
-0.39669999 0.038400002 0.87800002
-0.39520001 0.038400002 0.87800002
-0.3937 0.038400002 0.87800002
-0.39219999 0.038400002 0.87800002
-0.1885 0.0385 0.87900001
-0.18700001 0.0385 0.87900001
-0.101 0.036600001 0.83600003
-0.0995 0.036600001 0.83499998
-0.097900003 0.036499999 0.83399999
-0.096299998 0.036499999 0.833
-0.094899997 0.036499999 0.833
-0.093599997 0.036499999 0.83399999
-0.092 0.036499999 0.833
-0.090599999 0.036499999 0.833
-0.089000002 0.036400001 0.83200002
-0.0876 0.036400001 0.83200002
-0.086099997 0.036400001 0.83200002
-0.084700003 0.036400001 0.83200002
-0.0832 0.036400001 0.83200002
-0.081799999 0.036400001 0.83200002
-0.080300003 0.036400001 0.83200002
-0.079000004 0.036499999 0.833
-0.077500001 0.036400001 0.83200002
-0.076099999 0.036499999 0.833
-0.074600004 0.036400001 0.83200002
-0.073100001 0.036400001 0.83099997
-0.071599998 0.036400001 0.83099997
-0.070299998 0.036400001 0.83200002
-0.068800002 0.036400001 0.83200002
-0.067400001 0.036400001 0.83200002
-0.065899998 0.036400001 0.83200002
-0.064599998 0.036499999 0.833
-0.063199997 0.036499999 0.83399999
-0.061799999 0.036499999 0.83399999
-0.060400002 0.036600001 0.83499998
-0.058899999 0.036600001 0.83499998
-0.057599999 0.036600001 0.83600003
-0.0561 0.036600001 0.83600003
-0.054699998 0.036600001 0.83600003
-0.053300001 0.036600001 0.83700001
-0.051899999 0.036699999 0.838
-0.0504 0.036699999 0.838
-0.048999999 0.036699999 0.83899999
-0.047600001 0.036800001 0.83999997
-0.0462 0.036800001 0.84100002
-0.044799998 0.036899999 0.84200001
-0.043400001 0.036899999 0.84299999
-0.041999999 0.036899999 0.84299999
-0.0405 0.036899999 0.84299999
-0.039000001 0.036899999 0.84299999
-0.037599999 0.036899999 0.84399998
-0.036200002 0.037 0.84500003
-0.034699999 0.036899999 0.84399998
-0.033199999 0.036899999 0.84299999
-0.0317 0.036800001 0.84100002
-0.030200001 0.036899999 0.84200001
-0.0287 0.036800001 0.84100002
-0.0272 0.036699999 0.83899999
-0.025699999 0.036699999 0.838
-0.0243 0.036699999 0.838
-0.0228 0.036699999 0.838
-0.021400001 0.036800001 0.83999997
-0.02 0.036800001 0.83999997
-0.0185 0.036800001 0.83999997
-0.017100001 0.036800001 0.84100002
-0.0156 0.036800001 0.83999997
-0.0141 0.036699999 0.838
-0.0127 0.036600001 0.83700001
-0.0112 0.036600001 0.83499998
-0.0097000003 0.036499999 0.83399999
-0.0082999999 0.036499999 0.83399999
-0.0068000001 0.036499999 0.833
-0.0054000001 0.036499999 0.83399999
-0.0038999999 0.036499999 0.83399999
-0.0024999999 0.036600001 0.83600003
-0.001 0.036699999 0.838
0.00039999999 0.036699999 0.83899999
0.0019 0.036800001 0.84100002
0.0033 0.036899999 0.84299999
0.0048000002 0.036899999 0.84299999
0.0062000002 0.036899999 0.84200001
0.0077 0.036800001 0.84100002
0.0091000004 0.036800001 0.84100002
0.0106 0.036699999 0.83899999
0.012 0.036600001 0.83700001
0.0134 0.036600001 0.83499998
0.0149 0.036600001 0.83600003
0.0164 0.036699999 0.838
0.017899999 0.036699999 0.83899999
0.019400001 0.036899999 0.84299999
0.0209 0.037 0.84500003
0.022399999 0.037099998 0.847
0.0239 0.037099998 0.84799999
0.0254 0.0372 0.84899998
0.026900001 0.037099998 0.84799999
0.0283 0.037099998 0.847
0.0297 0.037 0.84500003
0.031099999 0.036899999 0.84399998
0.032600001 0.036899999 0.84399998
0.034000002 0.036899999 0.84399998
0.035500001 0.036899999 0.84399998
-0.3978 0.039900001 0.87699997
-0.39629999 0.039900001 0.87699997
-0.39430001 0.039900001 0.87599999
-0.3928 0.039900001 0.87599999
-0.39129999 0.039900001 0.87599999
-0.34999999 0.039999999 0.87900001
-0.34540001 0.039999999 0.87900001
-0.1009 0.037999999 0.83499998
-0.0995 0.037999999 0.83499998
-0.097900003 0.037999999 0.83399999
-0.096299998 0.037900001 0.833
-0.094899997 0.037900001 0.833
-0.093599997 0.037999999 0.83399999
-0.092 0.037900001 0.833
-0.090599999 0.037900001 0.833
-0.089000002 0.037900001 0.83200002
-0.0876 0.037900001 0.83200002
-0.086199999 0.037900001 0.833
-0.084700003 0.037900001 0.83200002
-0.0832 0.037900001 0.83200002
-0.081799999 0.037900001 0.83200002
-0.080300003 0.037900001 0.83200002
-0.078900002 0.037900001 0.83200002
-0.077399999 0.037799999 0.83099997
-0.075900003 0.037799999 0.83099997
-0.074500002 0.037799999 0.83099997
-0.072999999 0.037799999 0.82999998
-0.071500003 0.037799999 0.82999998
-0.070200004 0.037799999 0.83099997
-0.068700001 0.037799999 0.83099997
-0.067400001 0.037900001 0.83200002
-0.065899998 0.037900001 0.83200002
-0.064599998 0.037900001 0.833
-0.063199997 0.037999999 0.83399999
-0.061799999 0.037999999 0.83399999
-0.0603 0.037999999 0.83399999
-0.058899999 0.037999999 0.83499998
-0.057500001 0.037999999 0.83499998
-0.056000002 0.037999999 0.83499998
-0.0546 0.037999999 0.83499998
-0.053300001 0.0381 0.83700001
-0.051800001 0.0381 0.83700001
-0.0504 0.0381 0.838
-0.048999999 0.038199998 0.83899999
-0.047600001 0.038199998 0.83999997
-0.0462 0.0383 0.84100002
-0.0449 0.038400002 0.84299999
-0.043499999 0.038400002 0.84399998
-0.041999999 0.038400002 0.84399998
-0.0405 0.038400002 0.84299999
-0.039099999 0.038400002 0.84399998
-0.037599999 0.038400002 0.84399998
-0.036200002 0.0385 0.84500003
-0.034699999 0.038400002 0.84399998
-0.033199999 0.0383 0.84200001
-0.0317 0.0383 0.84100002
-0.030200001 0.0383 0.84100002
-0.0287 0.0383 0.84100002
-0.0272 0.038199998 0.83899999
-0.025699999 0.0381 0.838
-0.0243 0.0381 0.838
-0.0229 0.038199998 0.83899999
-0.021500001 0.0383 0.84100002
-0.02 0.0383 0.84200001
-0.0186 0.038400002 0.84299999
-0.017100001 0.038400002 0.84299999
-0.015699999 0.038400002 0.84299999
-0.0142 0.0383 0.84100002
-0.0127 0.0381 0.838
-0.0112 0.037999999 0.83499998
-0.0097000003 0.037900001 0.833
-0.0082999999 0.037900001 0.83200002
-0.0068000001 0.037900001 0.83200002
-0.0054000001 0.037900001 0.83200002
-0.0038999999 0.037900001 0.833
-0.0024999999 0.037999999 0.83399999
-0.001 0.037999999 0.83600003
0.00039999999 0.0381 0.838
0.0019 0.038199998 0.83899999
0.0033 0.038199998 0.83999997
0.0048000002 0.0383 0.84100002
0.0062000002 0.0383 0.84100002
0.0077 0.0383 0.84100002
0.0091000004 0.038199998 0.83999997
0.0106 0.038199998 0.83899999
0.012 0.0381 0.838
0.0135 0.0381 0.83700001
0.0149 0.0381 0.83700001
0.0164 0.0381 0.838
0.017899999 0.038199998 0.83899999
0.019400001 0.038400002 0.84299999
0.0209 0.0385 0.84500003
0.022399999 0.0385 0.84600002
0.0239 0.0385 0.84600002
0.0254 0.0385 0.847
0.026799999 0.0385 0.84600002
0.028200001 0.0385 0.84500003
0.0297 0.038400002 0.84399998
0.031099999 0.038400002 0.84299999
0.032600001 0.038400002 0.84399998
0.0341 0.0385 0.84500003
0.035500001 0.038400002 0.84399998
0.036899999 0.038400002 0.84299999
0.038400002 0.038400002 0.84399998
-0.40130001 0.041499998 0.87800002
-0.3987 0.041499998 0.87900001
-0.39719999 0.041499998 0.87900001
-0.39570001 0.041499998 0.87900001
-0.39410001 0.041499998 0.87900001
-0.3515 0.041499998 0.87900001
-0.34729999 0.0414 0.87599999
-0.345 0.041499998 0.87800002
-0.33129999 0.041499998 0.87800002
-0.1009 0.0394 0.83499998
-0.0995 0.0394 0.83499998
-0.097999997 0.0394 0.83499998
-0.0964 0.0394 0.83399999
-0.094899997 0.0394 0.833
-0.093400002 0.0394 0.833
-0.091899998 0.039299998 0.83200002
-0.090400003 0.039299998 0.83200002
-0.0889 0.039299998 0.83099997
-0.087499999 0.039299998 0.83099997
-0.086099997 0.039299998 0.83200002
-0.084700003 0.039299998 0.83200002
-0.0832 0.039299998 0.83200002
-0.081799999 0.039299998 0.83200002
-0.080300003 0.039299998 0.83099997
-0.0788 0.039299998 0.83099997
-0.077399999 0.039299998 0.83099997
-0.075800002 0.0392 0.82999998
-0.0744 0.0392 0.82999998
-0.072999999 0.0392 0.82999998
-0.071500003 0.0392 0.82999998
-0.070200004 0.039299998 0.83099997
-0.068700001 0.039299998 0.83099997
-0.067400001 0.039299998 0.83200002
-0.065899998 0.039299998 0.83200002
-0.064599998 0.0394 0.833
-0.063100003 0.0394 0.833
-0.061799999 0.0394 0.83399999
-0.0603 0.0394 0.83399999
-0.058899999 0.0394 0.83499998
-0.057599999 0.039500002 0.83600003
-0.0561 0.039500002 0.83600003
-0.054699998 0.039500002 0.83600003
-0.053300001 0.039500002 0.83700001
-0.051800001 0.039500002 0.83700001
-0.0504 0.0396 0.838
-0.048999999 0.0396 0.83899999
-0.047600001 0.039700001 0.83999997
-0.0462 0.039700001 0.84100002
-0.0449 0.039799999 0.84299999
-0.043400001 0.039799999 0.84299999
-0.041999999 0.039799999 0.84299999
-0.0405 0.039799999 0.84299999
-0.039000001 0.039799999 0.84299999
-0.037599999 0.039799999 0.84299999
-0.036200002 0.039900001 0.84399998
-0.034699999 0.039799999 0.84299999
-0.033100002 0.039700001 0.84100002
-0.031599998 0.039700001 0.83999997
-0.030200001 0.039700001 0.83999997
-0.0287 0.039700001 0.84100002
-0.0273 0.039700001 0.83999997
-0.025800001 0.0396 0.83899999
-0.0243 0.0396 0.83899999
-0.0229 0.039700001 0.83999997
-0.021500001 0.039700001 0.84100002
-0.02 0.039799999 0.84200001
-0.0186 0.039799999 0.84299999
-0.017100001 0.039900001 0.84399998
-0.015699999 0.039799999 0.84299999
-0.0142 0.039700001 0.84100002
-0.0127 0.039500002 0.83700001
-0.0097000003 0.039299998 0.83200002
-0.0082 0.0392 0.82999998
-0.0068000001 0.0392 0.82999998
-0.0054000001 0.039299998 0.83099997
-0.0038999999 0.039299998 0.83200002
-0.0024999999 0.0394 0.83399999
-0.001 0.039500002 0.83700001
0.00039999999 0.0396 0.83899999
0.0019 0.039700001 0.83999997
0.0033 0.039700001 0.84100002
0.0048000002 0.039799999 0.84200001
0.0062000002 0.039799999 0.84200001
0.0077 0.039700001 0.84100002
0.0091000004 0.039700001 0.84100002
0.0106 0.039700001 0.83999997
0.012 0.0396 0.83899999
0.0135 0.039500002 0.83700001
0.0149 0.0396 0.838
0.0164 0.0396 0.83899999
0.017899999 0.0396 0.83899999
0.019400001 0.039700001 0.84100002
0.0209 0.039799999 0.84299999
0.022299999 0.039900001 0.84399998
0.023800001 0.039900001 0.84399998
0.0253 0.039900001 0.84500003
0.026699999 0.039799999 0.84299999
0.028100001 0.039799999 0.84200001
0.0296 0.039700001 0.84100002
0.030999999 0.039700001 0.83999997
0.032499999 0.039799999 0.84299999
0.034000002 0.039799999 0.84299999
0.035399999 0.039700001 0.84100002
0.036800001 0.039700001 0.84100002
0.0383 0.039700001 0.84100002
0.039799999 0.039799999 0.84200001
-0.39829999 0.043000001 0.87800002
-0.39669999 0.043000001 0.87800002
-0.39570001 0.043000001 0.87900001
-0.34689999 0.0429 0.875
-0.34529999 0.0429 0.875
-0.34380001 0.0429 0.875
-0.34310001 0.043000001 0.87699997
-0.24250001 0.0429 0.87599999
-0.241 0.0429 0.87599999
-0.099699996 0.041000001 0.83700001
-0.098200001 0.041000001 0.83700001
-0.096799999 0.041000001 0.83700001
-0.095100001 0.040899999 0.83499998
-0.093699999 0.040899999 0.83499998
-0.092 0.040800001 0.833
-0.090599999 0.040800001 0.833
-0.089000002 0.0407 0.83200002
-0.0876 0.0407 0.83200002
-0.086099997 0.0407 0.83200002
-0.084700003 0.0407 0.83200002
-0.0832 0.0407 0.83200002
-0.081799999 0.0407 0.83200002
-0.080300003 0.0407 0.83099997
-0.0788 0.0407 0.83099997
-0.077299997 0.040600002 0.82999998
-0.075800002 0.040600002 0.82999998
-0.0744 0.040600002 0.82999998
-0.072999999 0.040600002 0.82999998
-0.071500003 0.040600002 0.82999998
-0.070200004 0.0407 0.83099997
-0.068700001 0.0407 0.83099997
-0.067400001 0.0407 0.83200002
-0.065899998 0.0407 0.83200002
-0.064599998 0.040800001 0.833
-0.063199997 0.040800001 0.83399999
-0.061799999 0.040800001 0.83399999
-0.0603 0.040800001 0.83399999
-0.058899999 0.040899999 0.83499998
-0.057599999 0.040899999 0.83600003
-0.0561 0.040899999 0.83600003
-0.054699998 0.040899999 0.83600003
-0.053199999 0.040899999 0.83600003
-0.051800001 0.041000001 0.83700001
-0.0504 0.041000001 0.83700001
-0.048999999 0.041000001 0.838
-0.047499999 0.041000001 0.838
-0.0462 0.041099999 0.83999997
-0.044799998 0.041200001 0.84100002
-0.043400001 0.041299999 0.84299999
-0.041999999 0.041299999 0.84299999
-0.0405 0.041299999 0.84299999
-0.039000001 0.041200001 0.84200001
-0.037500001 0.041200001 0.84200001
-0.0361 0.041299999 0.84299999
-0.034600001 0.041200001 0.84100002
-0.033 0.041099999 0.83899999
-0.031500001 0.041000001 0.838
-0.030099999 0.041000001 0.838
-0.0287 0.041099999 0.83899999
-0.0272 0.041000001 0.838
-0.025699999 0.041000001 0.838
-0.0243 0.041000001 0.838
-0.0228 0.041000001 0.838
-0.021400001 0.041099999 0.83999997
-0.02 0.041200001 0.84100002
-0.0186 0.041299999 0.84299999
-0.017100001 0.041299999 0.84399998
-0.015699999 0.041299999 0.84399998
-0.0082 0.040600002 0.82999998
-0.0068000001 0.040600002 0.82999998
-0.0054000001 0.0407 0.83099997
-0.0038999999 0.0407 0.83200002
-0.0024999999 0.040800001 0.83399999
-0.001 0.041000001 0.83700001
0.00039999999 0.041000001 0.838
0.0019 0.041099999 0.83999997
0.0033 0.041200001 0.84100002
0.0048000002 0.041200001 0.84200001
0.0062000002 0.041200001 0.84200001
0.0077 0.041200001 0.84200001
0.0091000004 0.041200001 0.84100002
0.0106 0.041099999 0.83999997
0.012 0.041099999 0.83899999
0.0135 0.041099999 0.83899999
0.0149 0.041000001 0.838
0.0164 0.041000001 0.838
0.0178 0.041000001 0.83700001
0.019300001 0.041000001 0.838
0.0207 0.041000001 0.838
0.0222 0.041000001 0.838
0.023600001 0.041000001 0.838
0.0251 0.041000001 0.838
0.0265 0.041000001 0.83700001
0.028000001 0.041000001 0.83700001
0.0294 0.041000001 0.83700001
0.0309 0.041000001 0.83700001
0.032400001 0.041099999 0.83899999
0.0339 0.041099999 0.83999997
0.035300002 0.041099999 0.83899999
0.036800001 0.041099999 0.83899999
0.038199998 0.041000001 0.838
0.039700001 0.041099999 0.83899999
0.041200001 0.041099999 0.83999997
-0.34959999 0.044500001 0.87800002
-0.34450001 0.044300001 0.87300003
-0.23989999 0.044199999 0.87199998
-0.099699996 0.042399999 0.83700001
-0.098200001 0.042399999 0.83700001
-0.096799999 0.042399999 0.83700001
-0.095200002 0.042399999 0.83600003
-0.093699999 0.042300001 0.83499998
-0.092 0.042199999 0.833
-0.090599999 0.042199999 0.833
-0.089000002 0.042199999 0.83200002
-0.0876 0.042199999 0.83200002
-0.086099997 0.042199999 0.83200002
-0.084700003 0.042199999 0.83200002
-0.0832 0.042199999 0.83200002
-0.081799999 0.042199999 0.83200002
-0.080300003 0.042199999 0.83200002
-0.0788 0.042100001 0.83099997
-0.077399999 0.042100001 0.83099997
-0.075800002 0.042100001 0.82999998
-0.0744 0.042100001 0.82999998
-0.072999999 0.042100001 0.82999998
-0.071500003 0.042100001 0.82999998
-0.070100002 0.042100001 0.82999998
-0.068700001 0.042100001 0.83099997
-0.067400001 0.042199999 0.83200002
-0.065899998 0.042199999 0.83200002
-0.064599998 0.042199999 0.833
-0.063199997 0.042300001 0.83399999
-0.061799999 0.042300001 0.83399999
-0.0603 0.042300001 0.83399999
-0.058899999 0.042300001 0.83499998
-0.057599999 0.042399999 0.83600003
-0.056000002 0.042300001 0.83499998
-0.0546 0.042300001 0.83499998
-0.053100001 0.042300001 0.83499998
-0.051800001 0.042399999 0.83600003
-0.0504 0.042399999 0.83700001
-0.048900001 0.042399999 0.83700001
-0.047499999 0.042399999 0.83700001
-0.046100002 0.0425 0.83899999
-0.044799998 0.042599998 0.84100002
-0.043499999 0.042800002 0.84399998
-0.041999999 0.0427 0.84299999
-0.040399998 0.042599998 0.84100002
-0.038899999 0.042599998 0.84100002
-0.0374 0.042599998 0.83999997
-0.035999998 0.042599998 0.84100002
-0.034499999 0.042599998 0.83999997
-0.033 0.0425 0.838
-0.031500001 0.0425 0.838
-0.030099999 0.0425 0.838
-0.0286 0.0425 0.838
-0.0272 0.0425 0.838
-0.025699999 0.042399999 0.83700001
-0.0243 0.042399999 0.83700001
-0.0228 0.0425 0.838
-0.021400001 0.042599998 0.83999997
-0.02 0.0427 0.84200001
-0.0186 0.042800002 0.84399998
-0.017200001 0.042800002 0.84500003
-0.015699999 0.042800002 0.84500003
-0.0127 0.0425 0.838
-0.0112 0.042300001 0.83399999
-0.0097000003 0.042199999 0.83200002
-0.0082 0.042100001 0.83099997
-0.0068000001 0.042100001 0.83099997
-0.0054000001 0.042199999 0.83200002
-0.0038999999 0.042199999 0.833
-0.0024999999 0.042300001 0.83499998
-0.001 0.042399999 0.83700001
0.00039999999 0.0425 0.838
0.0019 0.042599998 0.83999997
0.0033 0.042599998 0.83999997
0.0048000002 0.042599998 0.84100002
0.0062000002 0.042599998 0.84100002
0.0077 0.042599998 0.84100002
0.0091000004 0.042599998 0.84100002
0.012 0.0425 0.83899999
0.0135 0.0425 0.838
0.0149 0.0425 0.838
0.0164 0.042399999 0.83700001
0.0178 0.042300001 0.83499998
0.019200001 0.042300001 0.83499998
0.0206 0.042300001 0.83399999
0.0221 0.042300001 0.83399999
0.023499999 0.042300001 0.83399999
0.024900001 0.042199999 0.833
0.0264 0.042199999 0.833
0.027799999 0.042199999 0.833
0.029300001 0.042300001 0.83399999
0.0308 0.042300001 0.83499998
0.032400001 0.0425 0.838
0.0339 0.042599998 0.83999997
0.035300002 0.0425 0.83899999
0.036800001 0.042599998 0.84100002
0.0383 0.042599998 0.84100002
0.039799999 0.042599998 0.84100002
0.041299999 0.0427 0.84200001
-0.34999999 0.046100002 0.87900001
-0.34729999 0.045899998 0.87599999
-0.34529999 0.045899998 0.875
-0.3434 0.0458 0.87400001
-0.1038 0.0438 0.83499998
-0.1026 0.043900002 0.83700001
-0.1011 0.043900002 0.83700001
-0.0999 0.044 0.83899999
-0.098399997 0.043900002 0.838
-0.096900001 0.043900002 0.838
-0.095299996 0.043900002 0.83700001
-0.093699999 0.0438 0.83499998
-0.092 0.043699998 0.833
-0.090400003 0.0436 0.83200002
-0.089000002 0.0436 0.83200002
-0.087499999 0.0436 0.83099997
-0.086000003 0.0436 0.83099997
-0.084600002 0.0436 0.83099997
-0.083099999 0.0436 0.83099997
-0.081799999 0.0436 0.83200002
-0.080300003 0.0436 0.83200002
-0.078900002 0.0436 0.83200002
-0.077399999 0.0436 0.83099997
-0.075900003 0.0436 0.83099997
-0.074500002 0.0436 0.83099997
-0.072999999 0.043499999 0.82999998
-0.071500003 0.043499999 0.82999998
-0.070200004 0.0436 0.83099997
-0.068700001 0.0436 0.83099997
-0.067400001 0.0436 0.83200002
-0.065899998 0.0436 0.83200002
-0.064599998 0.043699998 0.833
-0.063100003 0.043699998 0.833
-0.061700001 0.043699998 0.833
-0.0603 0.043699998 0.83399999
-0.058899999 0.043699998 0.83399999
-0.057500001 0.0438 0.83499998
-0.056000002 0.0438 0.83499998
-0.0546 0.0438 0.83499998
-0.053100001 0.0438 0.83499998
-0.051800001 0.0438 0.83600003
-0.050299998 0.0438 0.83600003
-0.048900001 0.043900002 0.83700001
-0.047499999 0.043900002 0.83700001
-0.046100002 0.044 0.83899999
-0.044799998 0.044100001 0.84100002
-0.043400001 0.044199999 0.84299999
-0.041900001 0.044100001 0.84100002
-0.0403 0.044 0.83899999
-0.038800001 0.043900002 0.838
-0.0374 0.043900002 0.838
-0.0359 0.043900002 0.838
-0.034499999 0.043900002 0.838
-0.033 0.043900002 0.83700001
-0.031500001 0.043900002 0.838
-0.030200001 0.044 0.83999997
-0.0287 0.044 0.83899999
-0.0272 0.044 0.83899999
-0.025699999 0.043900002 0.838
-0.0243 0.043900002 0.838
-0.0229 0.044 0.83899999
-0.021400001 0.044 0.83899999
-0.02 0.044100001 0.84100002
-0.0186 0.044199999 0.84299999
-0.017200001 0.044300001 0.84500003
-0.015699999 0.044300001 0.84500003
-0.0142 0.044199999 0.84299999
-0.0127 0.044 0.83899999
-0.0097000003 0.0436 0.83200002
-0.0082999999 0.0436 0.83200002
-0.0068000001 0.0436 0.83200002
-0.0054000001 0.0436 0.83200002
-0.0038999999 0.043699998 0.833
-0.0024999999 0.043699998 0.83399999
-0.001 0.0438 0.83600003
0.00039999999 0.043900002 0.83700001
0.0019 0.043900002 0.838
0.0033 0.044 0.83899999
0.0048000002 0.044 0.83899999
0.0062000002 0.044 0.83999997
0.0149 0.043900002 0.83700001
0.0163 0.0438 0.83499998
0.0177 0.043699998 0.83399999
0.019200001 0.043699998 0.833
0.0206 0.0436 0.83099997
0.022 0.0436 0.83099997
0.023399999 0.0436 0.83099997
0.024900001 0.0436 0.83099997
0.0263 0.0436 0.83099997
0.027799999 0.0436 0.83099997
0.029200001 0.0436 0.83200002
0.0307 0.043699998 0.833
0.032299999 0.0438 0.83600003
0.0339 0.044 0.83999997
0.035399999 0.044100001 0.84100002
0.036899999 0.044199999 0.84299999
0.038400002 0.044300001 0.84399998
0.039900001 0.044300001 0.84399998
0.041299999 0.044199999 0.84299999
-0.3989 0.047499999 0.87599999
-0.34650001 0.047600001 0.87800002
-0.34459999 0.047499999 0.87699997
-0.2388 0.047600001 0.87900001
-0.1081 0.045200001 0.83499998
-0.1043 0.045499999 0.83899999
-0.1028 0.045499999 0.83899999
-0.1015 0.045499999 0.83999997
-0.1002 0.045600001 0.84100002
-0.098700002 0.045600001 0.84100002
-0.097099997 0.045499999 0.83999997
-0.095600002 0.045499999 0.83899999
-0.093900003 0.045299999 0.83700001
-0.092100002 0.045200001 0.83399999
-0.090599999 0.0451 0.833
-0.089000002 0.0451 0.83200002
-0.0876 0.0451 0.83200002
-0.086099997 0.0451 0.83200002
-0.084700003 0.0451 0.83200002
-0.0832 0.0451 0.83200002
-0.081799999 0.0451 0.83200002
-0.080399998 0.0451 0.833
-0.079000004 0.0451 0.833
-0.077500001 0.0451 0.83200002
-0.075999998 0.0451 0.83200002
-0.074500002 0.045000002 0.83099997
-0.071599998 0.045000002 0.83099997
-0.070299998 0.0451 0.83200002
-0.068800002 0.0451 0.83200002
-0.067500003 0.0451 0.833
-0.066 0.0451 0.833
-0.064599998 0.0451 0.833
-0.063199997 0.045200001 0.83399999
-0.061799999 0.045200001 0.83399999
-0.0603 0.045200001 0.83399999
-0.058899999 0.045200001 0.83399999
-0.057500001 0.045200001 0.83499998
-0.056000002 0.045200001 0.83499998
-0.0546 0.045200001 0.83499998
-0.053100001 0.045200001 0.83399999
-0.0517 0.045200001 0.83499998
-0.0502 0.045200001 0.83499998
-0.048900001 0.045299999 0.83600003
-0.047400001 0.045299999 0.83600003
-0.046100002 0.045400001 0.838
-0.044799998 0.045600001 0.84100002
-0.043400001 0.045699999 0.84299999
-0.041900001 0.045600001 0.84100002
-0.040399998 0.045499999 0.83999997
-0.038899999 0.045499999 0.83899999
-0.0374 0.045400001 0.838
-0.0359 0.045400001 0.838
-0.034400001 0.045299999 0.83700001
-0.032900002 0.045299999 0.83600003
-0.031500001 0.045299999 0.83700001
-0.030099999 0.045499999 0.83899999
-0.0287 0.045499999 0.83899999
-0.0272 0.045499999 0.83899999
-0.025800001 0.045499999 0.83899999
-0.0243 0.045499999 0.83899999
-0.0229 0.045499999 0.83999997
-0.021500001 0.045600001 0.84200001
-0.020099999 0.045699999 0.84399998
-0.0186 0.0458 0.84500003
-0.017200001 0.045899998 0.847
-0.015699999 0.0458 0.84600002
-0.0142 0.045699999 0.84399998
-0.0127 0.045499999 0.83899999
-0.0112 0.045200001 0.83499998
-0.0097000003 0.0451 0.83200002
-0.0082 0.045000002 0.83099997
-0.0068000001 0.0451 0.83200002
-0.0054000001 0.0451 0.83200002
-0.0038999999 0.0451 0.833
-0.0024999999 0.045200001 0.83399999
-0.001 0.045200001 0.83499998
0.00039999999 0.045299999 0.83600003
0.0019 0.045299999 0.83700001
0.0033 0.045400001 0.838
0.0048000002 0.045299999 0.83700001
0.0163 0.045200001 0.83499998
0.0177 0.045200001 0.83399999
0.019099999 0.0451 0.83200002
0.0206 0.045000002 0.83099997
0.022 0.045000002 0.82999998
0.023399999 0.045000002 0.82999998
0.024800001 0.0449 0.829
0.0263 0.045000002 0.82999998
0.0277 0.045000002 0.82999998
0.029200001 0.045000002 0.83099997
0.0307 0.0451 0.833
0.032200001 0.045200001 0.83499998
0.033799998 0.045400001 0.838
0.035300002 0.045499999 0.83999997
0.036899999 0.045699999 0.84299999
0.038400002 0.045699999 0.84399998
0.039900001 0.045699999 0.84399998
0.0414 0.045699999 0.84399998
-0.1184 0.0473 0.84600002
-0.1165 0.0471 0.84299999
-0.1146 0.046999998 0.83999997
-0.113 0.0469 0.83899999
-0.1114 0.046799999 0.838
-0.1098 0.046799999 0.83700001
-0.1045 0.046999998 0.84100002
-0.1031 0.046999998 0.84100002
-0.1019 0.0471 0.84299999
-0.1005 0.047200002 0.84399998
-0.098899998 0.0471 0.84299999
-0.097400002 0.0471 0.84200001
-0.095700003 0.046999998 0.83999997
-0.093999997 0.046799999 0.838
-0.092200004 0.046700001 0.83499998
-0.090599999 0.046599999 0.833
-0.089000002 0.046500001 0.83200002
-0.0876 0.046500001 0.83200002
-0.086099997 0.046500001 0.83200002
-0.084700003 0.046500001 0.83200002
-0.0832 0.046500001 0.83200002
-0.081900001 0.046599999 0.833
-0.080399998 0.046599999 0.833
-0.079000004 0.046599999 0.833
-0.077500001 0.046500001 0.83200002
-0.075999998 0.046500001 0.83200002
-0.073100001 0.046500001 0.83099997
-0.071699999 0.046500001 0.83200002
-0.070299998 0.046500001 0.83200002
-0.068800002 0.046500001 0.83200002
-0.067400001 0.046500001 0.83200002
-0.065899998 0.046500001 0.83200002
-0.064599998 0.046599999 0.833
-0.063100003 0.046599999 0.833
-0.061799999 0.046599999 0.83399999
-0.0603 0.046599999 0.83399999
-0.058899999 0.046599999 0.83399999
-0.057500001 0.046700001 0.83499998
-0.056000002 0.046700001 0.83499998
-0.0546 0.046700001 0.83499998
-0.053100001 0.046599999 0.83399999
-0.0517 0.046700001 0.83499998
-0.0502 0.046700001 0.83499998
-0.048799999 0.046700001 0.83499998
-0.047400001 0.046700001 0.83600003
-0.046100002 0.046799999 0.838
-0.044799998 0.046999998 0.84100002
-0.043400001 0.0471 0.84299999
-0.041900001 0.0471 0.84200001
-0.040399998 0.046999998 0.83999997
-0.038899999 0.0469 0.83899999
-0.037300002 0.046799999 0.83700001
-0.0359 0.046799999 0.83700001
-0.034400001 0.046700001 0.83600003
-0.032900002 0.046700001 0.83499998
-0.031399999 0.046700001 0.83499998
-0.030099999 0.046799999 0.83700001
-0.0286 0.046799999 0.83700001
-0.0272 0.046799999 0.838
-0.025699999 0.046799999 0.838
-0.0243 0.0469 0.83899999
-0.0229 0.046999998 0.83999997
-0.021500001 0.0471 0.84200001
-0.020099999 0.047200002 0.84399998
-0.0186 0.047200002 0.84500003
-0.017200001 0.047400001 0.847
-0.015699999 0.0473 0.84600002
-0.0142 0.047200002 0.84399998
-0.0127 0.0469 0.83899999
-0.0112 0.046700001 0.83499998
-0.0097000003 0.046599999 0.833
-0.0082999999 0.046500001 0.83200002
-0.0068000001 0.046500001 0.83200002
-0.0054000001 0.046500001 0.83200002
-0.0038999999 0.046599999 0.833
-0.0024999999 0.046599999 0.833
-0.001 0.046700001 0.83499998
0.00039999999 0.046799999 0.83700001
0.0019 0.046799999 0.838
0.0033 0.046799999 0.838
0.0048000002 0.046799999 0.83700001
0.0163 0.046599999 0.83399999
0.0177 0.046599999 0.833
0.019099999 0.046500001 0.83200002
0.0206 0.046500001 0.83099997
0.022 0.046500001 0.83099997
0.023399999 0.046399999 0.82999998
0.024900001 0.046399999 0.82999998
0.0263 0.046399999 0.82999998
0.027799999 0.046500001 0.83099997
0.029200001 0.046500001 0.83200002
0.0308 0.046599999 0.83399999
0.032299999 0.046700001 0.83600003
0.033799998 0.0469 0.83899999
0.035300002 0.046999998 0.83999997
0.036899999 0.0471 0.84299999
0.038400002 0.0471 0.84299999
0.039900001 0.0471 0.84299999
0.041299999 0.0471 0.84299999
0.042599998 0.046999998 0.83999997
-0.1184 0.048799999 0.84600002
-0.1165 0.048599999 0.84299999
-0.1146 0.0484 0.83999997
-0.113 0.0484 0.83899999
-0.1113 0.0482 0.83700001
-0.1098 0.0482 0.83700001
-0.1084 0.0482 0.83700001
-0.106 0.048500001 0.84100002
-0.1048 0.048599999 0.84299999
-0.1033 0.048599999 0.84299999
-0.102 0.048599999 0.84399998
-0.1006 0.048700001 0.84500003
-0.099200003 0.048700001 0.84500003
-0.097599998 0.048599999 0.84399998
-0.095799997 0.048500001 0.84100002
-0.093999997 0.048300002 0.838
-0.092200004 0.048099998 0.83499998
-0.090700001 0.048099998 0.83399999
-0.089000002 0.048 0.83200002
-0.087499999 0.047899999 0.83099997
-0.086099997 0.048 0.83200002
-0.084600002 0.047899999 0.83099997
-0.0832 0.048 0.83200002
-0.081900001 0.048 0.833
-0.080399998 0.048 0.833
-0.079099998 0.048099998 0.83399999
-0.077600002 0.048 0.833
-0.076099999 0.048 0.833
-0.074699998 0.048 0.833
-0.073100001 0.048 0.83200002
-0.071699999 0.048 0.83200002
-0.070299998 0.048 0.83200002
-0.068800002 0.048 0.83200002
-0.067500003 0.048 0.833
-0.066 0.048 0.833
-0.064599998 0.048 0.833
-0.063199997 0.048099998 0.83399999
-0.061799999 0.048099998 0.83399999
-0.0603 0.048099998 0.83399999
-0.058899999 0.048099998 0.83399999
-0.057399999 0.048099998 0.83399999
-0.056000002 0.048099998 0.83499998
-0.0546 0.048099998 0.83499998
-0.053100001 0.048099998 0.83399999
-0.051600002 0.048099998 0.83399999
-0.0502 0.048099998 0.83499998
-0.048799999 0.048099998 0.83499998
-0.047400001 0.048099998 0.83499998
-0.046 0.0482 0.83700001
-0.0447 0.0484 0.83899999
-0.043400001 0.048500001 0.84200001
-0.041900001 0.048500001 0.84200001
-0.040399998 0.0484 0.83999997
-0.038800001 0.048300002 0.838
-0.037300002 0.0482 0.83700001
-0.035799999 0.048099998 0.83499998
-0.034299999 0.048099998 0.83499998
-0.0328 0.048099998 0.83399999
-0.031399999 0.048099998 0.83399999
-0.029999999 0.048099998 0.83499998
-0.0285 0.048099998 0.83499998
-0.027100001 0.048099998 0.83499998
-0.025699999 0.0482 0.83700001
-0.0243 0.048300002 0.838
-0.0229 0.0484 0.83999997
-0.021500001 0.048500001 0.84100002
-0.02 0.048599999 0.84299999
-0.0186 0.048599999 0.84399998
-0.017200001 0.048700001 0.84500003
-0.015699999 0.048599999 0.84399998
-0.0142 0.048500001 0.84200001
-0.0127 0.0482 0.83700001
-0.0112 0.048099998 0.83399999
-0.0097000003 0.048 0.833
-0.0082999999 0.048 0.83200002
-0.0068000001 0.048 0.83200002
-0.0054000001 0.048 0.83200002
-0.0038999999 0.048 0.833
-0.0024999999 0.048099998 0.83399999
-0.001 0.0482 0.83700001
0.00039999999 0.048300002 0.838
0.0019 0.0484 0.83899999
0.0033 0.0484 0.83899999
0.0163 0.048 0.833
0.0177 0.048 0.833
0.019099999 0.048 0.83200002
0.0206 0.048 0.83200002
0.022 0.048 0.83200002
0.023399999 0.047899999 0.83099997
0.024900001 0.047899999 0.83099997
0.0263 0.047899999 0.83099997
0.027799999 0.048 0.83200002
0.029200001 0.048 0.83200002
0.0307 0.048 0.833
0.032200001 0.048099998 0.83399999
0.0337 0.0482 0.83600003
0.0352 0.0482 0.83700001
0.036800001 0.0484 0.83999997
0.0383 0.048500001 0.84100002
0.039700001 0.0484 0.83999997
0.041099999 0.0484 0.83899999
0.042599998 0.0484 0.83899999
-0.1261 0.051600002 0.86900002
-0.1227 0.050799999 0.85600001
-0.1201 0.050299998 0.84799999
-0.1184 0.0502 0.84600002
-0.1166 0.050099999 0.84399998
-0.1146 0.049899999 0.83999997
-0.1129 0.049800001 0.838
-0.1113 0.049699999 0.83700001
-0.1098 0.049699999 0.83700001
-0.1085 0.049800001 0.838
-0.1061 0.050000001 0.84200001
-0.1048 0.050099999 0.84299999
-0.1034 0.050099999 0.84399998
-0.102 0.050099999 0.84399998
-0.1006 0.0502 0.84500003
-0.099100001 0.050099999 0.84399998
-0.097499996 0.050099999 0.84299999
-0.095799997 0.049899999 0.84100002
-0.094099998 0.049800001 0.83899999
-0.092399999 0.049699999 0.83700001
-0.090800002 0.049600001 0.83499998
-0.089199997 0.0495 0.83399999
-0.087700002 0.0495 0.833
-0.086199999 0.0495 0.833
-0.084700003 0.049400002 0.83200002
-0.083300002 0.0495 0.833
-0.081900001 0.0495 0.833
-0.080499999 0.0495 0.83399999
-0.079099998 0.0495 0.83399999
-0.077699997 0.0495 0.83399999
-0.076200001 0.0495 0.83399999
-0.0748 0.0495 0.83399999
-0.073200002 0.0495 0.833
-0.071800001 0.0495 0.833
-0.070299998 0.049400002 0.83200002
-0.068800002 0.049400002 0.83200002
-0.067500003 0.0495 0.833
-0.066 0.0495 0.833
-0.064599998 0.0495 0.83399999
-0.063199997 0.0495 0.83399999
-0.061799999 0.0495 0.83399999
-0.0603 0.0495 0.83399999
-0.058899999 0.0495 0.83399999
-0.057300001 0.0495 0.833
-0.056000002 0.0495 0.83399999
-0.054499999 0.0495 0.833
-0.052999999 0.0495 0.833
-0.051600002 0.0495 0.833
-0.0502 0.0495 0.83399999
-0.048700001 0.0495 0.83399999
-0.0473 0.0495 0.83399999
-0.046 0.049600001 0.83600003
-0.044599999 0.049800001 0.838
-0.043400001 0.050000001 0.84200001
-0.041900001 0.050000001 0.84200001
-0.040399998 0.049899999 0.83999997
-0.038899999 0.049800001 0.83899999
-0.037300002 0.049699999 0.83700001
-0.035799999 0.049600001 0.83499998
-0.034299999 0.049600001 0.83499998
-0.0328 0.0495 0.83399999
-0.031399999 0.0495 0.83399999
-0.029999999 0.049600001 0.83499998
-0.0285 0.049600001 0.83499998
-0.027100001 0.049600001 0.83499998
-0.025699999 0.049699999 0.83700001
-0.0243 0.049800001 0.838
-0.0229 0.049800001 0.83899999
-0.021500001 0.049899999 0.84100002
-0.02 0.050099999 0.84299999
-0.0186 0.050099999 0.84299999
-0.017100001 0.050099999 0.84399998
-0.015699999 0.050099999 0.84299999
-0.0142 0.049899999 0.83999997
-0.0127 0.049699999 0.83700001
-0.0112 0.0495 0.83399999
-0.0097000003 0.0495 0.833
-0.0082999999 0.0495 0.833
-0.0068000001 0.049400002 0.83200002
-0.0054000001 0.049400002 0.83200002
-0.0038999999 0.0495 0.833
-0.0024999999 0.0495 0.833
-0.001 0.049600001 0.83600003
0.00039999999 0.049800001 0.838
0.0163 0.0495 0.83399999
0.0177 0.0495 0.833
0.019200001 0.0495 0.833
0.0206 0.0495 0.833
0.0221 0.0495 0.833
0.023499999 0.049400002 0.83200002
0.027799999 0.0495 0.833
0.029300001 0.0495 0.833
0.0308 0.0495 0.83399999
0.032200001 0.049600001 0.83499998
0.033799998 0.049699999 0.83700001
0.035300002 0.049800001 0.838
0.036800001 0.049899999 0.83999997
0.0383 0.049899999 0.84100002
0.041099999 0.049800001 0.838
0.0425 0.049800001 0.838
0.044 0.049800001 0.838
-0.28799999 0.0535 0.87599999
-0.13060001 0.0537 0.87900001
-0.1277 0.053199999 0.87
-0.1246 0.052499998 0.85900003
-0.122 0.052000001 0.85100001
-0.1201 0.051800001 0.84799999
-0.1184 0.0517 0.84600002
-0.1166 0.051600002 0.84399998
-0.1146 0.0513 0.83999997
-0.1129 0.051199999 0.838
-0.1114 0.051199999 0.838
-0.11 0.051199999 0.838
-0.1087 0.0513 0.83899999
-0.1075 0.051399998 0.84100002
-0.1061 0.0515 0.84200001
-0.1034 0.051600002 0.84399998
-0.102 0.051600002 0.84399998
-0.1005 0.051600002 0.84399998
-0.099100001 0.051600002 0.84399998
-0.097400002 0.0515 0.84200001
-0.095600002 0.0513 0.83899999
-0.093900003 0.051100001 0.83700001
-0.092299998 0.051100001 0.83600003
-0.090800002 0.050999999 0.83499998
-0.087700002 0.050900001 0.833
-0.086199999 0.050900001 0.833
-0.084799998 0.050900001 0.833
-0.083300002 0.050900001 0.833
-0.082000002 0.050999999 0.83399999
-0.080600001 0.050999999 0.83499998
-0.079400003 0.051100001 0.83700001
-0.0779 0.051100001 0.83700001
-0.076399997 0.051100001 0.83600003
-0.074900001 0.050999999 0.83499998
-0.073299997 0.050999999 0.83399999
-0.071900003 0.050999999 0.83399999
-0.070299998 0.050900001 0.833
-0.068899997 0.050900001 0.833
-0.067500003 0.050999999 0.83399999
-0.066 0.050900001 0.833
-0.064599998 0.050999999 0.83399999
-0.063199997 0.050999999 0.83399999
-0.061799999 0.050999999 0.83399999
-0.0603 0.050999999 0.83399999
-0.058800001 0.050900001 0.833
-0.057300001 0.050900001 0.833
-0.056000002 0.050999999 0.83399999
-0.054499999 0.050900001 0.833
-0.052999999 0.050900001 0.833
-0.051600002 0.050900001 0.833
-0.050099999 0.050900001 0.833
-0.048700001 0.050900001 0.833
-0.0473 0.050999999 0.83399999
-0.045899998 0.050999999 0.83499998
-0.044599999 0.051199999 0.838
-0.043299999 0.0513 0.83999997
-0.0418 0.0513 0.83999997
-0.0403 0.0513 0.83899999
-0.038800001 0.051199999 0.838
-0.037300002 0.051100001 0.83700001
-0.035799999 0.050999999 0.83499998
-0.034299999 0.050999999 0.83499998
-0.0328 0.050999999 0.83399999
-0.031399999 0.050999999 0.83499998
-0.029999999 0.050999999 0.83499998
-0.0285 0.050999999 0.83499998
-0.027100001 0.051100001 0.83600003
-0.025699999 0.051100001 0.83700001
-0.0243 0.051199999 0.838
-0.0229 0.0513 0.83999997
-0.021500001 0.0515 0.84299999
-0.02 0.0515 0.84299999
-0.0186 0.0515 0.84299999
-0.017100001 0.051600002 0.84399998
-0.015699999 0.0515 0.84299999
-0.0142 0.051399998 0.84100002
-0.0127 0.051199999 0.838
-0.0112 0.050999999 0.83499998
-0.0097000003 0.050999999 0.83399999
-0.0082999999 0.050999999 0.83399999
-0.0068000001 0.050900001 0.833
-0.0054000001 0.050900001 0.833
-0.0038999999 0.050999999 0.83399999
-0.0024999999 0.050999999 0.83399999
-0.001 0.050999999 0.83499998
0.00039999999 0.050999999 0.83499998
0.0163 0.050999999 0.83499998
0.0177 0.050999999 0.83399999
0.019200001 0.050999999 0.83499998
0.0206 0.050999999 0.83399999
0.0221 0.050999999 0.83499998
0.023499999 0.050999999 0.83399999
0.025 0.050999999 0.83399999
0.0264 0.050999999 0.83399999
0.027899999 0.050999999 0.83399999
0.029300001 0.050999999 0.83399999
0.0308 0.050999999 0.83499998
0.032299999 0.051100001 0.83700001
0.033799998 0.051100001 0.83700001
0.035300002 0.0513 0.83899999
0.036800001 0.0513 0.83999997
0.0383 0.051399998 0.84100002
0.039700001 0.0513 0.83899999
0.041099999 0.0513 0.83899999
0.0425 0.051199999 0.838
0.044 0.051199999 0.838
0.046599999 0.050900001 0.833
0.048099998 0.050999999 0.83399999
0.049699999 0.051100001 0.83700001
-0.289 0.055199999 0.87900001
-0.2388 0.055199999 0.87900001
-0.1294 0.054699998 0.87099999
-0.1245 0.0539 0.85799998
-0.122 0.0535 0.85100001
-0.1201 0.053300001 0.84799999
