# .PCD v0.7 - Point Cloud Data file format
VERSION 0.7
FIELDS x y z
SIZE 4 4 4
TYPE F F F
COUNT 1 1 1
WIDTH 1503
HEIGHT 1
VIEWPOINT 0 0 0 1 0 0 0
POINTS 1503
DATA ascii
0.085600004 -0.0616 0.89399999
0.087399997 -0.061700001 0.89600003
0.089400001 -0.062100001 0.90100002
0.091300003 -0.0623 0.90399998
0.092900001 -0.0623 0.90399998
0.094300002 -0.062199999 0.903
0.095899999 -0.062199999 0.903
0.097199999 -0.062100001 0.90100002
0.098700002 -0.061999999 0.89999998
0.1 -0.061900001 0.898
0.1014 -0.061700001 0.89600003
0.1028 -0.0616 0.89499998
0.1045 -0.061700001 0.89600003
0.106 -0.061700001 0.89600003
0.1075 -0.0616 0.89499998
0.109 -0.0616 0.89499998
0.1103 -0.061500002 0.89300001
0.1119 -0.061500002 0.89300001
0.1132 -0.0614 0.89099997
0.1146 -0.061299998 0.88999999
0.116 -0.0612 0.889
0.1174 -0.0612 0.88800001
0.1191 -0.0612 0.889
0.1206 -0.0612 0.889
0.1221 -0.0612 0.889
0.1237 -0.0612 0.889
0.1252 -0.0612 0.889
0.1269 -0.061299998 0.88999999
0.1285 -0.061299998 0.88999999
0.13 -0.061299998 0.88999999
0.13150001 -0.061299998 0.88999999
0.1331 -0.061299998 0.88999999
0.1346 -0.061299998 0.88999999
0.1362 -0.061299998 0.88999999
0.1376 -0.0612 0.889
0.1389 -0.0612 0.88800001
0.14049999 -0.0612 0.88800001
0.142 -0.0612 0.88800001
0.1436 -0.0612 0.88800001
0.1451 -0.0612 0.88800001
0.14659999 -0.0612 0.88800001
0.14820001 -0.0612 0.88800001
0.1497 -0.0612 0.88800001
0.1513 -0.0612 0.88800001
0.15279999 -0.0612 0.88800001
0.1542 -0.061099999 0.88700002
0.1559 -0.0612 0.88800001
0.1574 -0.0612 0.88800001
0.15889999 -0.0612 0.88800001
0.1605 -0.0612 0.88800001
0.162 -0.0612 0.88800001
0.1636 -0.0612 0.88800001
0.16509999 -0.0612 0.88800001
0.16680001 -0.0612 0.889
0.1684 -0.0612 0.889
0.1728 -0.061700001 0.89600003
0.1751 -0.061999999 0.89999998
0.17730001 -0.062199999 0.903
0.1796 -0.0625 0.90700001
0.1822 -0.062799998 0.912
0.1842 -0.063000001 0.91399997
-0.41839999 -0.0592 0.88200003
-0.41690001 -0.0592 0.88200003
-0.41389999 -0.059 0.87900001
-0.41049999 -0.058800001 0.875
-0.40669999 -0.058400001 0.87
-0.4043 -0.0583 0.86799997
-0.4023 -0.058200002 0.86699998
-0.40079999 -0.058200002 0.86699998
-0.37760001 -0.0583 0.86900002
-0.3637 -0.059 0.87900001
-0.36129999 -0.058899999 0.87699997
-0.35569999 -0.0592 0.88200003
-0.3538 -0.0592 0.88099998
-0.33880001 -0.0581 0.866
-0.33700001 -0.0592 0.88099998
-0.31720001 -0.0592 0.88099998
-0.31529999 -0.059099998 0.88
-0.22759999 -0.059300002 0.88300002
-0.2261 -0.059300002 0.88300002
-0.2243 -0.0592 0.88200003
-0.2228 -0.0592 0.88200003
-0.221 -0.0592 0.88099998
-0.2194 -0.0592 0.88099998
-0.2177 -0.059099998 0.88
-0.2159 -0.059 0.87900001
-0.2146 -0.059099998 0.88
-0.2133 -0.0592 0.88099998
-0.2121 -0.0592 0.88200003
-0.21080001 -0.059300002 0.88300002
-0.2095 -0.0594 0.884
-0.2079 -0.0594 0.884
-0.2066 -0.0594 0.88499999
-0.2049 -0.0594 0.884
-0.2033 -0.0594 0.884
-0.2016 -0.059300002 0.88300002
-0.20029999 -0.0594 0.884
-0.197 -0.059300002 0.88300002
-0.1902 -0.059599999 0.88700002
-0.18889999 -0.059599999 0.88800001
-0.18359999 -0.0594 0.88499999
-0.18189999 -0.0594 0.884
-0.1804 -0.0594 0.884
-0.17900001 -0.0594 0.88499999
-0.17749999 -0.0594 0.88499999
-0.17290001 -0.0594 0.88499999
-0.1714 -0.0594 0.88499999
-0.15189999 -0.0557 0.829
-0.1505 -0.0557 0.829
-0.149 -0.0557 0.829
-0.14740001 -0.055599999 0.82800001
-0.146 -0.055599999 0.82800001
-0.1444 -0.055500001 0.82700002
-0.1429 -0.055500001 0.82700002
-0.14129999 -0.055500001 0.82599998
-0.1397 -0.055399999 0.82499999
-0.1381 -0.055300001 0.824
-0.1365 -0.055300001 0.82300001
-0.1353 -0.055300001 0.824
-0.134 -0.055399999 0.82499999
-0.13259999 -0.055399999 0.82499999
-0.1313 -0.055500001 0.82599998
-0.12989999 -0.055500001 0.82599998
-0.1284 -0.055500001 0.82599998
-0.12720001 -0.055500001 0.82700002
-0.126 -0.0557 0.829
-0.1246 -0.0557 0.829
-0.1232 -0.0557 0.829
-0.1217 -0.0557 0.829
-0.1203 -0.0557 0.829
-0.1143 -0.055500001 0.82700002
-0.1134 -0.055799998 0.83099997
-0.1121 -0.0559 0.83200002
-0.111 -0.0561 0.83499998
-0.1102 -0.056400001 0.83999997
-0.1092 -0.056600001 0.84299999
-0.1081 -0.0568 0.84600002
-0.1048 -0.056600001 0.84299999
-0.1068 -0.060199998 0.89700001
-0.1052 -0.060199998 0.89600003
-0.1034 -0.059999999 0.89399999
-0.1014 -0.059799999 0.88999999
-0.099699996 -0.059700001 0.889
-0.098099999 -0.059599999 0.88800001
-0.096500002 -0.059599999 0.88800001
-0.094999999 -0.059599999 0.88800001
-0.093599997 -0.059700001 0.889
-0.092 -0.059700001 0.889
-0.090599999 -0.059799999 0.88999999
-0.089199997 -0.059900001 0.89200002
-0.086000003 -0.059799999 0.89099997
-0.084399998 -0.059799999 0.88999999
-0.082699999 -0.059599999 0.88800001
-0.081 -0.059599999 0.88700002
-0.079400003 -0.059500001 0.88599998
-0.077799998 -0.0594 0.88499999
-0.075000003 -0.059599999 0.88800001
-0.073399998 -0.059599999 0.88800001
-0.072099999 -0.059799999 0.88999999
-0.070500001 -0.059799999 0.88999999
-0.0691 -0.059900001 0.89200002
-0.067699999 -0.059999999 0.89300001
-0.066100001 -0.059999999 0.89300001
-0.064599998 -0.059999999 0.89300001
-0.062899999 -0.059799999 0.89099997
-0.061299998 -0.059799999 0.89099997
-0.059700001 -0.059799999 0.88999999
-0.058200002 -0.059799999 0.88999999
-0.056600001 -0.059700001 0.889
-0.055 -0.059599999 0.88800001
-0.053399999 -0.059599999 0.88700002
-0.051800001 -0.059599999 0.88700002
-0.0502 -0.059500001 0.88599998
-0.048799999 -0.059599999 0.88700002
-0.047200002 -0.059599999 0.88700002
-0.045699999 -0.059599999 0.88700002
-0.044199999 -0.059599999 0.88800001
-0.0427 -0.059599999 0.88800001
-0.041099999 -0.059599999 0.88800001
-0.039700001 -0.059799999 0.88999999
-0.0381 -0.059799999 0.88999999
-0.036699999 -0.059999999 0.89300001
-0.0352 -0.059999999 0.89399999
-0.0337 -0.0601 0.89499998
-0.0307 -0.0603 0.898
-0.029100001 -0.0603 0.898
-0.0276 -0.060199998 0.89700001
-0.025900001 -0.0601 0.89499998
-0.0197 -0.059999999 0.89300001
-0.018100001 -0.059999999 0.89300001
-0.0166 -0.059900001 0.89200002
-0.015 -0.059799999 0.89099997
-0.0135 -0.059799999 0.89099997
-0.0119 -0.059799999 0.88999999
-0.0104 -0.059799999 0.88999999
-0.0088 -0.059700001 0.889
-0.0073000002 -0.059700001 0.889
-0.0057000001 -0.059700001 0.889
-0.0041999999 -0.059700001 0.889
-0.0027000001 -0.059799999 0.88999999
-0.0011 -0.059799999 0.89099997
0.00039999999 -0.059799999 0.89099997
0.0020000001 -0.059999999 0.89300001
0.0035000001 -0.059999999 0.89399999
0.0051000002 -0.060199998 0.89600003
0.0066 -0.060199998 0.89600003
0.0082 -0.060199998 0.89700001
0.0097000003 -0.060199998 0.89600003
0.0113 -0.0601 0.89499998
0.0128 -0.059999999 0.89300001
0.020400001 -0.059599999 0.88700002
0.0219 -0.059599999 0.88700002
0.023499999 -0.059599999 0.88800001
0.0251 -0.059599999 0.88800001
0.0266 -0.059599999 0.88800001
0.028100001 -0.059599999 0.88800001
0.0297 -0.059599999 0.88800001
0.031199999 -0.059599999 0.88800001
0.032699998 -0.059599999 0.88800001
0.034299999 -0.059599999 0.88800001
0.035799999 -0.059599999 0.88800001
0.0374 -0.059700001 0.889
0.039000001 -0.059799999 0.88999999
0.0405 -0.059799999 0.88999999
0.042100001 -0.059799999 0.89099997
0.043699998 -0.059799999 0.89099997
0.045200001 -0.059799999 0.89099997
0.048300002 -0.059799999 0.89099997
0.049800001 -0.059799999 0.89099997
0.051399998 -0.059799999 0.89099997
0.053100001 -0.059999999 0.89300001
0.054699998 -0.0601 0.89499998
0.056299999 -0.060199998 0.89600003
0.0579 -0.060199998 0.89600003
0.0594 -0.0601 0.89499998
0.060800001 -0.059999999 0.89300001
0.062199999 -0.059799999 0.89099997
0.063600004 -0.059700001 0.889
0.068099998 -0.059599999 0.88800001
0.069899999 -0.059799999 0.89099997
0.071500003 -0.059799999 0.89099997
0.073200002 -0.059999999 0.89300001
0.074900001 -0.0601 0.89499998
0.076399997 -0.0601 0.89499998
0.078000002 -0.0601 0.89499998
0.079499997 -0.0601 0.89499998
0.081100002 -0.0601 0.89499998
0.082599998 -0.0601 0.89499998
0.084200002 -0.0601 0.89499998
0.0858 -0.060199998 0.89600003
0.0876 -0.0603 0.898
0.089500003 -0.060600001 0.90200001
0.091300003 -0.060699999 0.90399998
0.092900001 -0.060699999 0.90399998
0.094300002 -0.060600001 0.903
0.095899999 -0.060600001 0.903
0.098700002 -0.060400002 0.89999998
0.1 -0.0603 0.898
0.1014 -0.060199998 0.89600003
0.1028 -0.0601 0.89499998
0.1044 -0.0601 0.89499998
0.106 -0.060199998 0.89600003
0.1076 -0.060199998 0.89600003
0.109 -0.0601 0.89499998
0.1104 -0.059999999 0.89399999
0.1119 -0.059999999 0.89300001
0.1133 -0.059900001 0.89200002
0.1147 -0.059799999 0.89099997
0.1161 -0.059799999 0.88999999
0.1177 -0.059799999 0.88999999
0.1192 -0.059799999 0.88999999
0.1206 -0.059700001 0.889
0.122 -0.059599999 0.88800001
0.1235 -0.059599999 0.88800001
0.1251 -0.059599999 0.88800001
0.1266 -0.059599999 0.88800001
0.12819999 -0.059599999 0.88800001
0.12989999 -0.059700001 0.889
0.1314 -0.059700001 0.889
0.1331 -0.059799999 0.88999999
0.1346 -0.059799999 0.88999999
0.1362 -0.059799999 0.88999999
0.1376 -0.059700001 0.889
0.1389 -0.059599999 0.88800001
0.14049999 -0.059599999 0.88800001
0.142 -0.059599999 0.88800001
0.14390001 -0.059799999 0.88999999
0.1454 -0.059799999 0.88999999
0.147 -0.059799999 0.88999999
0.1485 -0.059799999 0.88999999
0.1497 -0.059599999 0.88800001
0.1513 -0.059599999 0.88800001
0.15279999 -0.059599999 0.88800001
0.1542 -0.059599999 0.88700002
0.15549999 -0.059500001 0.88599998
0.15719999 -0.059599999 0.88700002
0.1584 -0.0594 0.88499999
0.1618 -0.059599999 0.88700002
0.16339999 -0.059599999 0.88700002
0.1649 -0.059599999 0.88700002
0.1666 -0.059599999 0.88800001
0.1682 -0.059599999 0.88800001
0.1707 -0.059999999 0.89300001
0.1728 -0.060199998 0.89600003
0.1751 -0.060400002 0.89999998
0.17730001 -0.060600001 0.903
0.1798 -0.061000001 0.90799999
0.1822 -0.0612 0.912
0.18440001 -0.0614 0.91500002
-0.4174 -0.057799999 0.88300002
-0.40759999 -0.057 0.87199998
-0.40169999 -0.0568 0.86900002
-0.3565 -0.057799999 0.884
-0.3538 -0.057599999 0.88099998
-0.31720001 -0.057599999 0.88099998
-0.2279 -0.057799999 0.884
-0.22660001 -0.0579 0.88499999
-0.22480001 -0.057799999 0.884
-0.2228 -0.057700001 0.88200003
-0.221 -0.057599999 0.88099998
-0.2192 -0.057599999 0.88
-0.2174 -0.057500001 0.87900001
-0.2159 -0.057500001 0.87900001
-0.21439999 -0.057500001 0.87900001
-0.2133 -0.057599999 0.88099998
-0.2123 -0.057799999 0.88300002
-0.211 -0.057799999 0.884
-0.2097 -0.0579 0.88499999
-0.2069 -0.057999998 0.88599998
-0.2051 -0.0579 0.88499999
-0.2036 -0.0579 0.88499999
-0.2018 -0.057799999 0.884
-0.20029999 -0.057799999 0.884
-0.197 -0.057799999 0.88300002
-0.18189999 -0.057799999 0.884
-0.1802 -0.057799999 0.88300002
-0.1788 -0.057799999 0.884
-0.17749999 -0.0579 0.88499999
-0.1762 -0.057999998 0.88599998
-0.17460001 -0.057999998 0.88599998
-0.1733 -0.057999998 0.88700002
-0.1716 -0.057999998 0.88599998
-0.1698 -0.0579 0.88499999
-0.15189999 -0.054200001 0.829
-0.1503 -0.054200001 0.82800001
-0.1487 -0.054099999 0.82700002
-0.1471 -0.054000001 0.82599998
-0.14560001 -0.054000001 0.82599998
-0.14399999 -0.054000001 0.82499999
-0.1424 -0.0539 0.824
-0.13959999 -0.0539 0.824
-0.1381 -0.0539 0.824
-0.1367 -0.0539 0.824
-0.1353 -0.0539 0.824
-0.134 -0.054000001 0.82499999
-0.13259999 -0.054000001 0.82499999
-0.1313 -0.054000001 0.82599998
-0.12989999 -0.054000001 0.82599998
-0.1284 -0.054000001 0.82599998
-0.12720001 -0.054099999 0.82700002
-0.126 -0.054200001 0.829
-0.1246 -0.054200001 0.829
-0.1232 -0.054200001 0.829
-0.1217 -0.054200001 0.829
-0.1203 -0.054200001 0.829
-0.1173 -0.054200001 0.82800001
-0.1157 -0.054099999 0.82700002
-0.1143 -0.054099999 0.82700002
-0.1132 -0.054299999 0.82999998
-0.1121 -0.054400001 0.83200002
-0.1108 -0.054499999 0.833
-0.1096 -0.0546 0.83499998
-0.1043 -0.058200002 0.889
-0.1027 -0.0581 0.88800001
-0.1008 -0.0579 0.88499999
-0.099399999 -0.057999998 0.88599998
-0.097800002 -0.057999998 0.88599998
-0.0964 -0.057999998 0.88700002
-0.094999999 -0.0581 0.88800001
-0.093599997 -0.058200002 0.889
-0.092100002 -0.058200002 0.88999999
-0.090700001 -0.0583 0.89099997
-0.089199997 -0.0583 0.89200002
-0.0876 -0.0583 0.89099997
-0.086000003 -0.058200002 0.88999999
-0.084200002 -0.0581 0.88800001
-0.082699999 -0.0581 0.88800001
-0.081 -0.057999998 0.88700002
-0.079400003 -0.057999998 0.88599998
-0.077799998 -0.0579 0.88499999
-0.076399997 -0.057999998 0.88700002
-0.075000003 -0.0581 0.88800001
-0.072099999 -0.058200002 0.88999999
-0.070600003 -0.0583 0.89099997
-0.0691 -0.0583 0.89200002
-0.067699999 -0.058400001 0.89300001
-0.066100001 -0.058400001 0.89300001
-0.064599998 -0.058400001 0.89300001
-0.062899999 -0.0583 0.89099997
-0.061299998 -0.0583 0.89099997
-0.059700001 -0.058200002 0.88999999
-0.058200002 -0.058200002 0.88999999
-0.056499999 -0.0581 0.88800001
-0.054900002 -0.057999998 0.88700002
-0.053399999 -0.057999998 0.88700002
-0.051800001 -0.057999998 0.88700002
-0.0502 -0.057999998 0.88599998
-0.048700001 -0.057999998 0.88599998
-0.047200002 -0.057999998 0.88599998
-0.045699999 -0.057999998 0.88700002
-0.044199999 -0.057999998 0.88700002
-0.042599998 -0.057999998 0.88700002
-0.041099999 -0.057999998 0.88700002
-0.0396 -0.0581 0.88800001
-0.0381 -0.058200002 0.889
-0.036600001 -0.0583 0.89099997
-0.035100002 -0.0583 0.89200002
-0.033599999 -0.058400001 0.89300001
-0.032099999 -0.058499999 0.89499998
-0.0306 -0.058600001 0.89600003
-0.029100001 -0.058699999 0.89700001
-0.026000001 -0.058600001 0.89600003
-0.0244 -0.058499999 0.89499998
-0.021299999 -0.058499999 0.89499998
-0.0197 -0.058499999 0.89499998
-0.018200001 -0.058499999 0.89399999
-0.0166 -0.058400001 0.89300001
-0.015 -0.058400001 0.89300001
-0.0135 -0.058400001 0.89300001
-0.0119 -0.0583 0.89099997
-0.0104 -0.058200002 0.88999999
-0.0088 -0.058200002 0.889
-0.0073000002 -0.0581 0.88800001
-0.0057000001 -0.0581 0.88800001
-0.0041999999 -0.058200002 0.889
-0.0027000001 -0.058200002 0.889
-0.0011 -0.058200002 0.88999999
0.00039999999 -0.0583 0.89099997
0.0020000001 -0.0583 0.89200002
0.0035000001 -0.058400001 0.89300001
0.0051000002 -0.058499999 0.89399999
0.0066 -0.058499999 0.89499998
0.0082 -0.058499999 0.89499998
0.0097000003 -0.058499999 0.89399999
0.0113 -0.058400001 0.89300001
0.0128 -0.058400001 0.89300001
0.0189 -0.0581 0.88800001
0.020400001 -0.0581 0.88800001
0.022 -0.0581 0.88800001
0.023499999 -0.058200002 0.889
0.0251 -0.058200002 0.88999999
0.0266 -0.058200002 0.88999999
0.028200001 -0.058200002 0.889
0.0297 -0.058200002 0.889
0.031199999 -0.058200002 0.889
0.0328 -0.058200002 0.889
0.034299999 -0.0581 0.88800001
0.0359 -0.058200002 0.889
0.0374 -0.058200002 0.889
0.039000001 -0.058200002 0.88999999
0.0405 -0.058200002 0.88999999
0.042100001 -0.0583 0.89099997
0.043699998 -0.0583 0.89099997
0.045299999 -0.0583 0.89200002
0.048300002 -0.0583 0.89099997
0.049800001 -0.0583 0.89099997
0.051399998 -0.0583 0.89099997
0.052999999 -0.0583 0.89200002
0.0546 -0.058400001 0.89300001
0.0561 -0.058400001 0.89300001
0.057700001 -0.058400001 0.89300001
0.0592 -0.0583 0.89200002
0.060699999 -0.0583 0.89099997
0.062100001 -0.058200002 0.88999999
0.063500002 -0.0581 0.88800001
0.066600002 -0.0581 0.88800001
0.069799997 -0.058200002 0.88999999
0.071500003 -0.0583 0.89099997
0.073100001 -0.0583 0.89200002
0.074699998 -0.058400001 0.89300001
0.076300003 -0.058400001 0.89300001
0.0779 -0.058499999 0.89399999
0.079499997 -0.058499999 0.89499998
0.081100002 -0.058499999 0.89499998
0.082599998 -0.058499999 0.89499998
0.084299996 -0.058600001 0.89600003
0.086000003 -0.058699999 0.898
0.087800004 -0.058899999 0.89999998
0.089500003 -0.059 0.90200001
0.091200002 -0.059099998 0.903
0.092799999 -0.059099998 0.903
0.094300002 -0.059099998 0.903
0.095899999 -0.059099998 0.903
0.097099997 -0.058899999 0.89999998
0.0986 -0.058800001 0.89899999
0.0999 -0.058699999 0.89700001
0.1013 -0.058499999 0.89499998
0.1027 -0.058499999 0.89399999
0.1041 -0.058400001 0.89300001
0.1058 -0.058499999 0.89399999
0.1075 -0.058499999 0.89499998
0.109 -0.058499999 0.89499998
0.1103 -0.058400001 0.89300001
0.1119 -0.058400001 0.89300001
0.1132 -0.0583 0.89099997
0.1147 -0.0583 0.89099997
0.1162 -0.0583 0.89099997
0.1178 -0.0583 0.89099997
0.1193 -0.0583 0.89099997
0.1207 -0.058200002 0.88999999
0.1221 -0.058200002 0.889
0.1235 -0.0581 0.88800001
0.1251 -0.0581 0.88800001
0.1266 -0.0581 0.88800001
0.12819999 -0.0581 0.88800001
0.12970001 -0.0581 0.88800001
0.1314 -0.058200002 0.889
0.1328 -0.0581 0.88800001
0.13429999 -0.0581 0.88800001
0.13590001 -0.0581 0.88800001
0.1388 -0.057999998 0.88700002
0.14049999 -0.0581 0.88800001
0.142 -0.0581 0.88800001
0.14390001 -0.058200002 0.88999999
0.1454 -0.058200002 0.88999999
0.1471 -0.0583 0.89099997
0.1487 -0.0583 0.89099997
0.15000001 -0.058200002 0.88999999
0.1513 -0.0581 0.88800001
0.15260001 -0.057999998 0.88700002
0.1538 -0.0579 0.88499999
0.15530001 -0.0579 0.88499999
0.1569 -0.0579 0.88499999
0.15989999 -0.0579 0.88499999
0.1618 -0.057999998 0.88700002
0.16339999 -0.057999998 0.88700002
0.1649 -0.057999998 0.88700002
0.1666 -0.0581 0.88800001
0.1684 -0.058200002 0.889
0.1707 -0.058400001 0.89300001
0.1728 -0.058600001 0.89600003
0.1751 -0.058899999 0.89999998
0.17730001 -0.059099998 0.903
0.1798 -0.0594 0.90799999
0.1822 -0.059700001 0.912
0.18440001 -0.059900001 0.91500002
0.186 -0.059900001 0.91500002
-0.41150001 -0.055799998 0.87699997
-0.4057 -0.055500001 0.87099999
-0.39820001 -0.055300001 0.86799997
-0.38080001 -0.055100001 0.866
-0.3802 -0.055300001 0.86799997
-0.37909999 -0.055300001 0.86900002
-0.36070001 -0.056200001 0.88300002
-0.35420001 -0.056200001 0.88200003
-0.33700001 -0.055799998 0.87699997
-0.33360001 -0.055799998 0.87599999
-0.3317 -0.0557 0.875
-0.32600001 -0.055500001 0.87199998
-0.32409999 -0.0557 0.875
-0.31990001 -0.056000002 0.88
-0.31639999 -0.056000002 0.87900001
-0.23720001 -0.056000002 0.87900001
-0.22939999 -0.056299999 0.884
-0.2279 -0.056299999 0.884
-0.22660001 -0.056400001 0.88499999
-0.22480001 -0.056299999 0.884
-0.2228 -0.056200001 0.88200003
-0.221 -0.0561 0.88099998
-0.2192 -0.056000002 0.88
-0.2174 -0.056000002 0.87900001
-0.2159 -0.056000002 0.87900001
-0.21439999 -0.056000002 0.87900001
-0.21250001 -0.056299999 0.884
-0.2097 -0.056400001 0.88499999
-0.2051 -0.056400001 0.88499999
-0.2033 -0.056299999 0.884
-0.2016 -0.056200001 0.88300002
-0.20029999 -0.056299999 0.884
-0.1987 -0.056299999 0.884
-0.1972 -0.056299999 0.884
-0.19 -0.056400001 0.88599998
-0.18359999 -0.056400001 0.88499999
-0.18189999 -0.056299999 0.884
-0.1804 -0.056299999 0.884
-0.1788 -0.056299999 0.884
-0.17749999 -0.056400001 0.88499999
-0.176 -0.056400001 0.88499999
-0.1744 -0.056400001 0.88499999
-0.17309999 -0.056400001 0.88599998
-0.1716 -0.056400001 0.88599998
-0.1698 -0.056400001 0.88499999
-0.1499 -0.0526 0.82599998
-0.1481 -0.052499998 0.824
-0.14650001 -0.0524 0.82300001
-0.1451 -0.0524 0.82300001
-0.1435 -0.052299999 0.82200003
-0.1417 -0.052200001 0.81999999
-0.14030001 -0.052200001 0.81999999
-0.1392 -0.052299999 0.82200003
-0.13779999 -0.052299999 0.82200003
-0.1362 -0.052299999 0.82099998
-0.1349 -0.052299999 0.82200003
-0.1338 -0.052499998 0.824
-0.13259999 -0.052499998 0.82499999
-0.1313 -0.0526 0.82599998
-0.12989999 -0.0526 0.82599998
-0.1284 -0.0526 0.82599998
-0.12729999 -0.052700002 0.82800001
-0.126 -0.0528 0.829
-0.1247 -0.052900001 0.82999998
-0.1233 -0.052900001 0.82999998
-0.1217 -0.0528 0.829
-0.1203 -0.0528 0.829
-0.119 -0.052900001 0.82999998
-0.1174 -0.0528 0.829
-0.1157 -0.052700002 0.82700002
-0.1143 -0.052700002 0.82700002
-0.1132 -0.052900001 0.82999998
-0.1121 -0.052999999 0.83200002
-0.1095 -0.053100001 0.83399999
-0.1081 -0.053199999 0.83499998
-0.099799998 -0.055799998 0.87599999
-0.098499998 -0.0559 0.87800002
-0.0973 -0.0561 0.88099998
-0.095899999 -0.056200001 0.88200003
-0.094899997 -0.056499999 0.88700002
-0.093500003 -0.056499999 0.88800001
-0.091899998 -0.056499999 0.88800001
-0.090599999 -0.056699999 0.88999999
-0.089000002 -0.056699999 0.88999999
-0.087399997 -0.056600001 0.889
-0.0858 -0.056499999 0.88800001
-0.084200002 -0.056499999 0.88800001
-0.082599998 -0.056499999 0.88700002
-0.081 -0.056400001 0.88599998
-0.079400003 -0.056400001 0.88599998
-0.077799998 -0.056400001 0.88499999
-0.076399997 -0.056499999 0.88700002
-0.075000003 -0.056499999 0.88800001
-0.073600002 -0.056699999 0.88999999
-0.072099999 -0.056699999 0.89099997
-0.070799999 -0.056899998 0.89300001
-0.069300003 -0.056899998 0.89399999
-0.067699999 -0.056899998 0.89399999
-0.066200003 -0.056899998 0.89399999
-0.064499997 -0.0568 0.89200002
-0.062899999 -0.056699999 0.89099997
-0.061299998 -0.056699999 0.89099997
-0.059700001 -0.056699999 0.88999999
-0.0581 -0.056499999 0.88800001
-0.056499999 -0.056499999 0.88800001
-0.054900002 -0.056400001 0.88599998
-0.053300001 -0.056400001 0.88499999
-0.0517 -0.056400001 0.88499999
-0.0502 -0.056400001 0.88499999
-0.048700001 -0.056400001 0.88599998
-0.047200002 -0.056400001 0.88599998
-0.045699999 -0.056499999 0.88700002
-0.044199999 -0.056499999 0.88800001
-0.042599998 -0.056499999 0.88700002
-0.041099999 -0.056499999 0.88700002
-0.0396 -0.056499999 0.88800001
-0.0381 -0.056699999 0.88999999
-0.036600001 -0.056699999 0.89099997
-0.035100002 -0.056699999 0.89099997
-0.032099999 -0.056899998 0.89300001
-0.028999999 -0.057 0.89499998
-0.0244 -0.057 0.89499998
-0.021299999 -0.057 0.89499998
-0.0197 -0.057 0.89499998
-0.018100001 -0.056899998 0.89300001
-0.0166 -0.056899998 0.89300001
-0.015 -0.056899998 0.89300001
-0.0135 -0.056899998 0.89300001
-0.0119 -0.056699999 0.89099997
-0.0104 -0.056699999 0.88999999
-0.0088 -0.056699999 0.88999999
-0.0073000002 -0.056600001 0.889
-0.0057000001 -0.056600001 0.889
-0.0041999999 -0.056600001 0.889
-0.0027000001 -0.056600001 0.889
-0.0011 -0.056699999 0.88999999
0.00039999999 -0.056699999 0.89099997
0.0020000001 -0.056699999 0.89099997
0.0035000001 -0.0568 0.89200002
0.0051000002 -0.056899998 0.89300001
0.0066 -0.056899998 0.89300001
0.0082 -0.056899998 0.89399999
0.0097000003 -0.056899998 0.89300001
0.0113 -0.056899998 0.89300001
0.0128 -0.056899998 0.89300001
0.0144 -0.056899998 0.89300001
0.015900001 -0.0568 0.89200002
0.0174 -0.056699999 0.89099997
0.018999999 -0.056699999 0.89099997
0.020500001 -0.056699999 0.89099997
0.022 -0.056699999 0.88999999
0.023600001 -0.056699999 0.88999999
0.0251 -0.056699999 0.89099997
0.0266 -0.056699999 0.88999999
0.028200001 -0.056699999 0.88999999
0.0297 -0.056699999 0.88999999
0.031300001 -0.056699999 0.88999999
0.0328 -0.056699999 0.88999999
0.034299999 -0.056499999 0.88800001
0.035799999 -0.056499999 0.88800001
0.0374 -0.056499999 0.88800001
0.038899999 -0.056600001 0.889
0.0405 -0.056699999 0.88999999
0.042100001 -0.056699999 0.88999999
0.0436 -0.056699999 0.88999999
0.045200001 -0.056699999 0.88999999
0.0482 -0.056699999 0.88999999
0.049800001 -0.056699999 0.88999999
0.0513 -0.056600001 0.889
0.052900001 -0.056699999 0.88999999
0.054499999 -0.056699999 0.89099997
0.0561 -0.056899998 0.89300001
0.057799999 -0.056899998 0.89399999
0.0592 -0.056899998 0.89300001
0.060800001 -0.056899998 0.89300001
0.0623 -0.056899998 0.89300001
0.063699998 -0.056699999 0.89099997
0.066799998 -0.056699999 0.88999999
0.068300001 -0.056699999 0.88999999
0.069899999 -0.056699999 0.89099997
0.071500003 -0.056699999 0.89099997
0.073100001 -0.0568 0.89200002
0.074699998 -0.056899998 0.89300001
0.076200001 -0.0568 0.89200002
0.077799998 -0.056899998 0.89300001
0.079400003 -0.056899998 0.89300001
0.080899999 -0.056899998 0.89300001
0.082500003 -0.056899998 0.89300001
0.084100001 -0.056899998 0.89399999
0.0858 -0.057100002 0.89600003
0.087700002 -0.0572 0.89899999
0.089500003 -0.057399999 0.90200001
0.091200002 -0.057500001 0.903
0.092799999 -0.057500001 0.903
0.094300002 -0.057500001 0.903
0.095799997 -0.057399999 0.90200001
0.097199999 -0.057399999 0.90100002
0.0986 -0.0572 0.89899999
0.0999 -0.057100002 0.89700001
0.1013 -0.057 0.89499998
0.1027 -0.056899998 0.89399999
0.1041 -0.056899998 0.89300001
0.1057 -0.056899998 0.89300001
0.1073 -0.056899998 0.89399999
0.1088 -0.056899998 0.89300001
0.1103 -0.056899998 0.89300001
0.1119 -0.056899998 0.89300001
0.1133 -0.0568 0.89200002
0.115 -0.056899998 0.89300001
0.1165 -0.056899998 0.89300001
0.1179 -0.0568 0.89200002
0.1195 -0.0568 0.89200002
0.1209 -0.056699999 0.89099997
0.1224 -0.056699999 0.89099997
0.1237 -0.056600001 0.889
0.1251 -0.056499999 0.88800001
0.1266 -0.056499999 0.88800001
0.12819999 -0.056499999 0.88800001
0.12970001 -0.056499999 0.88800001
0.1312 -0.056499999 0.88800001
0.1328 -0.056499999 0.88800001
0.13429999 -0.056499999 0.88800001
0.13590001 -0.056499999 0.88800001
0.1374 -0.056499999 0.88800001
0.1389 -0.056499999 0.88800001
0.14049999 -0.056499999 0.88800001
0.142 -0.056499999 0.88800001
0.14399999 -0.056699999 0.89099997
0.14560001 -0.056699999 0.89099997
0.1471 -0.056699999 0.89099997
0.1487 -0.056699999 0.89099997
0.1499 -0.056600001 0.889
0.15260001 -0.056499999 0.88700002
0.15530001 -0.056400001 0.88499999
0.1569 -0.056400001 0.88499999
0.15989999 -0.056400001 0.88499999
0.1617 -0.056400001 0.88599998
0.16320001 -0.056400001 0.88599998
0.16509999 -0.056499999 0.88800001
0.1666 -0.056499999 0.88800001
0.16859999 -0.056699999 0.88999999
0.1707 -0.056899998 0.89300001
0.1726 -0.057 0.89499998
0.1749 -0.0572 0.89899999
0.1769 -0.057399999 0.90100002
0.17919999 -0.057599999 0.90499997
0.18179999 -0.0579 0.91000003
0.1838 -0.0581 0.912
-0.39820001 -0.053800002 0.86799997
-0.39669999 -0.053800002 0.86799997
-0.38080001 -0.053599998 0.866
-0.3802 -0.053800002 0.86799997
-0.37909999 -0.053800002 0.86900002
-0.37799999 -0.0539 0.87
-0.377 -0.054000001 0.87099999
-0.33989999 -0.053599998 0.86500001
-0.33360001 -0.054299999 0.87599999
-0.32480001 -0.0546 0.88099998
-0.32170001 -0.0546 0.88099998
-0.3206 -0.0546 0.88200003
-0.31869999 -0.0546 0.88099998
-0.31639999 -0.054499999 0.87900001
-0.22939999 -0.0548 0.884
-0.2279 -0.0548 0.884
-0.2245 -0.054699998 0.88300002
-0.2228 -0.0546 0.88200003
-0.221 -0.0546 0.88099998
-0.2194 -0.0546 0.88099998
-0.2174 -0.054499999 0.87900001
-0.2164 -0.0546 0.88099998
-0.2149 -0.0546 0.88099998
-0.2128 -0.0548 0.88499999
-0.2102 -0.054900002 0.88700002
-0.2086 -0.054900002 0.88700002
-0.2069 -0.054900002 0.88599998
-0.2051 -0.0548 0.88499999
-0.2036 -0.0548 0.88499999
-0.2018 -0.0548 0.884
-0.20029999 -0.0548 0.884
-0.19850001 -0.054699998 0.88300002
-0.19679999 -0.0546 0.88200003
-0.18359999 -0.0548 0.88499999
-0.1821 -0.0548 0.88499999
-0.1804 -0.0548 0.884
-0.17900001 -0.0548 0.88499999
-0.17749999 -0.0548 0.88499999
-0.176 -0.0548 0.88499999
-0.1744 -0.0548 0.88499999
-0.17309999 -0.054900002 0.88599998
-0.1714 -0.0548 0.88499999
-0.1696 -0.0548 0.884
-0.1479 -0.050999999 0.82300001
-0.1463 -0.050900001 0.82200003
-0.14470001 -0.050900001 0.82099998
-0.14309999 -0.050799999 0.81999999
-0.1415 -0.050700001 0.81900001
-0.1401 -0.050700001 0.81900001
-0.1389 -0.050799999 0.81999999
-0.1375 -0.050799999 0.81999999
-0.13600001 -0.050799999 0.81999999
-0.1348 -0.050900001 0.82099998
-0.13349999 -0.050900001 0.82200003
-0.13240001 -0.050999999 0.824
-0.1313 -0.051199999 0.82599998
-0.12970001 -0.051100001 0.82499999
-0.1284 -0.051199999 0.82599998
-0.12720001 -0.051199999 0.82700002
-0.126 -0.051399998 0.829
-0.1247 -0.051399998 0.82999998
-0.1233 -0.051399998 0.82999998
-0.1217 -0.051399998 0.829
-0.1204 -0.051399998 0.82999998
-0.119 -0.051399998 0.82999998
-0.1174 -0.051399998 0.829
-0.1158 -0.0513 0.82800001
-0.1144 -0.0513 0.82800001
-0.1132 -0.051399998 0.82999998
-0.1121 -0.0515 0.83200002
-0.1106 -0.0515 0.83200002
-0.1093 -0.051600002 0.833
-0.1079 -0.051600002 0.833
-0.096500002 -0.052499998 0.847
-0.096600004 -0.053300001 0.861
-0.094899997 -0.053199999 0.85900003
-0.093699999 -0.053399999 0.86199999
-0.093199998 -0.054900002 0.88599998
-0.091700003 -0.054900002 0.88599998
-0.090400003 -0.055 0.88800001
-0.0889 -0.055100001 0.889
-0.087200001 -0.054900002 0.88700002
-0.085699998 -0.054900002 0.88700002
-0.084100001 -0.054900002 0.88700002
-0.082500003 -0.054900002 0.88599998
-0.081 -0.054900002 0.88599998
-0.079400003 -0.054900002 0.88599998
-0.077799998 -0.0548 0.88499999
-0.073600002 -0.055100001 0.88999999
-0.072099999 -0.055199999 0.89099997
-0.070799999 -0.055300001 0.89300001
-0.069399998 -0.055399999 0.89499998
-0.0678 -0.055399999 0.89499998
-0.066299997 -0.055399999 0.89499998
-0.064599998 -0.055300001 0.89300001
-0.062899999 -0.055199999 0.89099997
-0.061299998 -0.055199999 0.89099997
-0.059700001 -0.055100001 0.88999999
-0.0581 -0.055 0.88800001
-0.056499999 -0.055 0.88800001
-0.054900002 -0.054900002 0.88599998
-0.053300001 -0.054900002 0.88599998
-0.0517 -0.0548 0.88499999
-0.0502 -0.0548 0.88499999
-0.048799999 -0.054900002 0.88700002
-0.047200002 -0.054900002 0.88700002
-0.045699999 -0.055 0.88800001
-0.044199999 -0.055 0.88800001
-0.0427 -0.055 0.88800001
-0.041200001 -0.055100001 0.889
-0.039700001 -0.055100001 0.88999999
-0.0381 -0.055100001 0.88999999
-0.036600001 -0.055100001 0.88999999
-0.035100002 -0.055199999 0.89099997
-0.033500001 -0.055199999 0.89099997
-0.032000002 -0.055300001 0.89200002
-0.0305 -0.055300001 0.89200002
-0.028999999 -0.055300001 0.89300001
-0.025900001 -0.055300001 0.89300001
-0.0244 -0.055399999 0.89399999
-0.0229 -0.055500001 0.89600003
-0.021299999 -0.055500001 0.89600003
-0.0197 -0.055399999 0.89499998
-0.018200001 -0.055399999 0.89499998
-0.0166 -0.055399999 0.89499998
-0.0151 -0.055399999 0.89499998
-0.0135 -0.055399999 0.89399999
-0.012 -0.055300001 0.89300001
-0.0104 -0.055300001 0.89200002
-0.0088 -0.055199999 0.89099997
-0.0073000002 -0.055100001 0.88999999
-0.0057000001 -0.055100001 0.88999999
-0.0041999999 -0.055100001 0.88999999
-0.0027000001 -0.055100001 0.88999999
-0.0011 -0.055100001 0.88999999
0.00039999999 -0.055100001 0.88999999
0.0020000001 -0.055100001 0.88999999
0.0035000001 -0.055199999 0.89099997
0.0051000002 -0.055300001 0.89200002
0.0066 -0.055300001 0.89200002
0.0097000003 -0.055300001 0.89300001
0.0113 -0.055300001 0.89300001
0.0128 -0.055399999 0.89399999
0.0144 -0.055300001 0.89300001
0.015900001 -0.055300001 0.89300001
0.0175 -0.055300001 0.89300001
0.018999999 -0.055300001 0.89300001
0.020500001 -0.055300001 0.89200002
0.022 -0.055199999 0.89099997
0.023600001 -0.055199999 0.89099997
0.0251 -0.055199999 0.89099997
0.026699999 -0.055199999 0.89099997
0.028200001 -0.055199999 0.89099997
0.0297 -0.055100001 0.88999999
0.031300001 -0.055100001 0.88999999
0.034299999 -0.055100001 0.889
0.0359 -0.055100001 0.88999999
0.0374 -0.055100001 0.889
0.039000001 -0.055100001 0.88999999
0.0405 -0.055100001 0.88999999
0.042100001 -0.055100001 0.88999999
0.0436 -0.055100001 0.88999999
0.045200001 -0.055100001 0.88999999
0.046599999 -0.055100001 0.889
0.049699999 -0.055 0.88800001
0.051199999 -0.055 0.88800001
0.052900001 -0.055100001 0.88999999
0.054499999 -0.055199999 0.89099997
0.0561 -0.055300001 0.89300001
0.057799999 -0.055399999 0.89499998
0.0594 -0.055399999 0.89499998
0.060800001 -0.055300001 0.89300001
0.0623 -0.055300001 0.89200002
0.063699998 -0.055100001 0.88999999
0.066699997 -0.055100001 0.889
0.0682 -0.055100001 0.889
0.069799997 -0.055100001 0.88999999
0.071500003 -0.055199999 0.89099997
0.073100001 -0.055300001 0.89200002
0.074699998 -0.055300001 0.89300001
0.076200001 -0.055300001 0.89200002
0.077799998 -0.055300001 0.89300001
0.079400003 -0.055300001 0.89300001
0.080899999 -0.055300001 0.89300001
0.082500003 -0.055300001 0.89300001
0.084200002 -0.055399999 0.89499998
0.086000003 -0.055599999 0.898
0.087800004 -0.055799998 0.89999998
0.089500003 -0.0559 0.90200001
0.091200002 -0.0559 0.903
0.092799999 -0.0559 0.903
0.094300002 -0.0559 0.903
0.095799997 -0.0559 0.90200001
0.097199999 -0.055799998 0.90100002
0.098800004 -0.055799998 0.90100002
0.1 -0.055599999 0.898
0.1013 -0.055399999 0.89499998
0.1027 -0.055399999 0.89399999
0.1041 -0.055300001 0.89300001
0.1057 -0.055300001 0.89300001
0.1072 -0.055300001 0.89300001
0.1086 -0.055300001 0.89200002
0.1103 -0.055300001 0.89300001
0.1119 -0.055300001 0.89300001
0.1134 -0.055300001 0.89300001
0.1152 -0.055399999 0.89499998
0.1168 -0.055399999 0.89499998
0.1182 -0.055399999 0.89399999
0.1196 -0.055300001 0.89300001
0.121 -0.055300001 0.89200002
0.1224 -0.055199999 0.89099997
0.1238 -0.055100001 0.88999999
0.1251 -0.055 0.88800001
0.1266 -0.055 0.88800001
0.12819999 -0.055 0.88800001
0.12989999 -0.055100001 0.889
0.1312 -0.055 0.88800001
0.1328 -0.055 0.88800001
0.13429999 -0.055 0.88800001
0.13590001 -0.055 0.88800001
0.1376 -0.055100001 0.889
0.1391 -0.055100001 0.889
0.1406 -0.055100001 0.889
0.14229999 -0.055100001 0.88999999
0.1442 -0.055300001 0.89200002
0.1459 -0.055300001 0.89300001
0.14749999 -0.055300001 0.89300001
0.1488 -0.055300001 0.89200002
0.15000001 -0.055100001 0.88999999
0.1513 -0.055 0.88800001
0.154 -0.054900002 0.88599998
0.15530001 -0.0548 0.88499999
0.15979999 -0.0548 0.884
0.163 -0.0548 0.88499999
0.1649 -0.054900002 0.88700002
0.1666 -0.055 0.88800001
0.16859999 -0.055100001 0.88999999
0.1707 -0.055300001 0.89300001
0.1726 -0.055399999 0.89499998
0.17470001 -0.055599999 0.898
0.1767 -0.055799998 0.89999998
0.1786 -0.0559 0.90200001
0.1812 -0.056200001 0.90700001
-0.39629999 -0.052200001 0.86699998
-0.3847 -0.052299999 0.86799997
-0.38170001 -0.052299999 0.86799997
-0.38060001 -0.052299999 0.86900002
-0.37909999 -0.052299999 0.86900002
-0.37850001 -0.0524 0.87099999
-0.37779999 -0.0526 0.87300003
-0.36570001 -0.053199999 0.884
-0.3642 -0.053199999 0.884
-0.36230001 -0.053199999 0.88300002
-0.36109999 -0.053199999 0.884
-0.32480001 -0.052999999 0.88099998
-0.32170001 -0.052999999 0.88099998
-0.3206 -0.053100001 0.88200003
-0.31909999 -0.053100001 0.88200003
-0.31720001 -0.052999999 0.88099998
-0.31529999 -0.052999999 0.88
-0.31380001 -0.052999999 0.88
-0.2296 -0.053300001 0.88499999
-0.2279 -0.053199999 0.884
-0.2245 -0.053199999 0.88300002
-0.2228 -0.053100001 0.88200003
-0.2212 -0.053100001 0.88200003
-0.2194 -0.052999999 0.88099998
-0.2166 -0.053100001 0.88200003
-0.2154 -0.053199999 0.88300002
-0.2051 -0.053300001 0.88499999
-0.2036 -0.053300001 0.88499999
-0.2018 -0.053199999 0.884
-0.20029999 -0.053199999 0.884
-0.19850001 -0.053199999 0.88300002
-0.1952 -0.053100001 0.88200003
-0.19220001 -0.053100001 0.88200003
-0.1911 -0.053199999 0.884
-0.18960001 -0.053199999 0.884
-0.1882 -0.053300001 0.88499999
-0.1867 -0.053300001 0.88499999
-0.18520001 -0.053300001 0.88499999
-0.18359999 -0.053300001 0.88499999
-0.1821 -0.053300001 0.88499999
-0.1804 -0.053199999 0.884
-0.1788 -0.053199999 0.884
-0.1771 -0.053199999 0.88300002
-0.17560001 -0.053199999 0.88300002
-0.17399999 -0.053199999 0.88300002
-0.1725 -0.053199999 0.88300002
-0.1708 -0.053100001 0.88200003
-0.1691 -0.052999999 0.88099998
-0.1478 -0.0495 0.82200003
-0.1446 -0.049400002 0.81999999
-0.14300001 -0.0493 0.81900001
-0.1415 -0.0493 0.81900001
-0.14 -0.0493 0.81800002
-0.13850001 -0.0493 0.81800002
-0.1371 -0.0493 0.81800002
-0.1357 -0.0493 0.81800002
-0.1345 -0.0493 0.81900001
-0.13339999 -0.049400002 0.82099998
-0.1323 -0.049600001 0.82300001
-0.1311 -0.049699999 0.82499999
-0.12970001 -0.049699999 0.82499999
-0.1283 -0.049699999 0.82499999
-0.12729999 -0.049899999 0.82800001
-0.12620001 -0.050000001 0.82999998
-0.1233 -0.050000001 0.82999998
-0.1219 -0.050000001 0.82999998
-0.1206 -0.050000001 0.83099997
-0.1191 -0.050000001 0.83099997
-0.1176 -0.050000001 0.82999998
-0.116 -0.049899999 0.829
-0.1144 -0.049899999 0.82800001
-0.1132 -0.050000001 0.82999998
-0.1119 -0.050000001 0.83099997
-0.1106 -0.050099999 0.83200002
-0.1092 -0.050099999 0.83200002
-0.1079 -0.0502 0.833
-0.099200003 -0.0502 0.833
-0.096699998 -0.050299998 0.83600003
-0.095700003 -0.0506 0.83999997
-0.094400004 -0.050700001 0.84200001
-0.093000002 -0.050700001 0.84200001
-0.091600001 -0.050799999 0.84299999
-0.088200003 -0.050500002 0.838
-0.086499996 -0.050299998 0.83600003
-0.084899999 -0.0502 0.83399999
-0.083499998 -0.050299998 0.83499998
-0.085500002 -0.053300001 0.88499999
-0.083899997 -0.053300001 0.88499999
-0.082400002 -0.053300001 0.88499999
-0.081 -0.053300001 0.88599998
-0.079400003 -0.053300001 0.88599998
-0.078000002 -0.053399999 0.88700002
-0.076399997 -0.053399999 0.88700002
-0.075199999 -0.053599998 0.88999999
-0.072300002 -0.053800002 0.89300001
-0.070799999 -0.053800002 0.89399999
-0.069399998 -0.0539 0.89499998
-0.0678 -0.0539 0.89499998
-0.066200003 -0.053800002 0.89399999
-0.064499997 -0.0537 0.89200002
-0.062899999 -0.053599998 0.89099997
-0.061299998 -0.053599998 0.88999999
-0.059700001 -0.0535 0.889
-0.0581 -0.0535 0.889
-0.056499999 -0.0535 0.88800001
-0.054900002 -0.053399999 0.88700002
-0.053399999 -0.053399999 0.88700002
-0.051800001 -0.053399999 0.88700002
-0.0504 -0.0535 0.88800001
-0.048900001 -0.0535 0.889
-0.0473 -0.0535 0.88800001
-0.0458 -0.0535 0.889
-0.044300001 -0.053599998 0.88999999
-0.042800002 -0.053599998 0.88999999
-0.041200001 -0.053599998 0.88999999
-0.039700001 -0.053599998 0.89099997
-0.038199998 -0.053599998 0.89099997
-0.036600001 -0.053599998 0.89099997
-0.035100002 -0.053599998 0.89099997
-0.033500001 -0.053599998 0.88999999
-0.032000002 -0.053599998 0.89099997
-0.030400001 -0.053599998 0.88999999
-0.0274 -0.053599998 0.89099997
-0.025800001 -0.053599998 0.89099997
-0.0243 -0.053800002 0.89300001
-0.0228 -0.0539 0.89499998
-0.021299999 -0.0539 0.89499998
-0.0198 -0.054000001 0.89600003
-0.018200001 -0.0539 0.89499998
-0.0166 -0.0539 0.89499998
-0.0151 -0.0539 0.89499998
-0.0135 -0.0539 0.89499998
-0.012 -0.053800002 0.89399999
-0.0104 -0.053800002 0.89399999
-0.0088999998 -0.053800002 0.89300001
-0.0073000002 -0.0537 0.89200002
-0.0057999999 -0.0537 0.89200002
-0.0041999999 -0.0537 0.89200002
-0.0027000001 -0.053599998 0.89099997
-0.0011 -0.053599998 0.89099997
0.00039999999 -0.053599998 0.89099997
0.0020000001 -0.053599998 0.88999999
0.0035000001 -0.053599998 0.89099997
0.0082 -0.0537 0.89200002
0.0097000003 -0.053800002 0.89300001
0.0113 -0.053800002 0.89399999
0.0128 -0.0539 0.89499998
0.0144 -0.0539 0.89499998
0.015900001 -0.0539 0.89499998
0.0175 -0.054000001 0.89600003
0.018999999 -0.0539 0.89499998
0.0206 -0.0539 0.89499998
0.0221 -0.053800002 0.89300001
0.023600001 -0.053800002 0.89300001
0.0252 -0.0537 0.89200002
0.026699999 -0.053599998 0.89099997
0.028200001 -0.053599998 0.89099997
0.0298 -0.053599998 0.89099997
0.031300001 -0.053599998 0.88999999
0.0328 -0.053599998 0.88999999
0.034400001 -0.053599998 0.88999999
0.0359 -0.053599998 0.88999999
0.0374 -0.053599998 0.88999999
0.039000001 -0.053599998 0.88999999
0.040600002 -0.053599998 0.89099997
0.042100001 -0.053599998 0.89099997
0.043699998 -0.053599998 0.89099997
0.045200001 -0.053599998 0.89099997
0.046700001 -0.053599998 0.88999999
0.048099998 -0.0535 0.88800001
0.049699999 -0.0535 0.88800001
0.051199999 -0.0535 0.88800001
0.0528 -0.0535 0.889
0.054400001 -0.053599998 0.88999999
0.056000002 -0.053599998 0.88999999
0.059099998 -0.053599998 0.89099997
0.060699999 -0.053599998 0.89099997
0.062100001 -0.053599998 0.88999999
0.063500002 -0.0535 0.88800001
0.065099999 -0.0535 0.88800001
0.066600002 -0.0535 0.88800001
0.068099998 -0.0535 0.88800001
0.069799997 -0.0535 0.889
0.071500003 -0.053599998 0.89099997
0.073100001 -0.0537 0.89200002
0.074699998 -0.053800002 0.89300001
0.076300003 -0.053800002 0.89300001
0.0779 -0.053800002 0.89399999
0.079499997 -0.0539 0.89499998
0.081100002 -0.0539 0.89499998
0.082699999 -0.054000001 0.89600003
0.084299996 -0.054000001 0.89600003
0.086199999 -0.054200001 0.89999998
0.087899998 -0.054299999 0.90100002
0.089599997 -0.054400001 0.903
0.091200002 -0.054400001 0.903
0.092799999 -0.054400001 0.903
0.094400004 -0.054400001 0.90399998
0.095899999 -0.054400001 0.903
0.097400002 -0.054299999 0.90200001
0.098800004 -0.054299999 0.90100002
0.1003 -0.054200001 0.89999998
0.1014 -0.054000001 0.89600003
0.1028 -0.0539 0.89499998
0.1041 -0.053800002 0.89300001
0.1056 -0.0537 0.89200002
0.1071 -0.0537 0.89200002
0.1086 -0.0537 0.89200002
0.1102 -0.0537 0.89200002
0.1119 -0.053800002 0.89300001
0.1137 -0.0539 0.89499998
0.1153 -0.054000001 0.89600003
0.1168 -0.0539 0.89499998
0.1183 -0.0539 0.89499998
0.1199 -0.0539 0.89499998
0.1211 -0.053800002 0.89300001
0.1224 -0.053599998 0.89099997
0.1238 -0.053599998 0.88999999
0.1252 -0.0535 0.889
0.1266 -0.0535 0.88800001
0.1283 -0.0535 0.889
0.13 -0.053599998 0.88999999
0.1314 -0.0535 0.889
0.1329 -0.0535 0.889
0.13429999 -0.0535 0.88800001
0.13590001 -0.0535 0.88800001
0.1376 -0.0535 0.889
0.1389 -0.0535 0.88800001
0.14049999 -0.0535 0.88800001
0.14229999 -0.053599998 0.88999999
0.14399999 -0.053599998 0.89099997
0.1459 -0.053800002 0.89300001
0.14749999 -0.053800002 0.89300001
0.149 -0.053800002 0.89300001
0.15019999 -0.053599998 0.89099997
0.1516 -0.053599998 0.88999999
0.1531 -0.053599998 0.88999999
0.1557 -0.053399999 0.88700002
0.16509999 -0.0535 0.88800001
0.16680001 -0.0535 0.889
0.16869999 -0.053599998 0.89099997
0.1707 -0.053800002 0.89300001
0.1726 -0.0539 0.89499998
0.1742 -0.0539 0.89499998
0.1761 -0.054000001 0.89700001
0.1779 -0.054099999 0.898
0.1804 -0.054400001 0.903
0.1824 -0.054499999 0.90499997
0.18529999 -0.054400001 0.90399998
-0.38280001 -0.050700001 0.86699998
-0.38170001 -0.050799999 0.86799997
-0.38060001 -0.050799999 0.86900002
-0.37909999 -0.050799999 0.86900002
-0.37760001 -0.050799999 0.86900002
-0.37650001 -0.050900001 0.87
-0.36880001 -0.0517 0.884
-0.3669 -0.051600002 0.88300002
-0.36489999 -0.051600002 0.88200003
-0.36340001 -0.051600002 0.88200003
-0.3619 -0.051600002 0.88200003
-0.3599 -0.0515 0.88099998
-0.3355 -0.051100001 0.87300003
-0.33430001 -0.051100001 0.87400001
-0.32440001 -0.0517 0.884
-0.32249999 -0.051600002 0.88300002
-0.3206 -0.051600002 0.88200003
-0.31909999 -0.051600002 0.88200003
-0.31720001 -0.0515 0.88099998
-0.31560001 -0.0515 0.88099998
-0.3145 -0.051600002 0.88200003
-0.23119999 -0.051800001 0.88499999
-0.2296 -0.051800001 0.88499999
-0.2263 -0.0517 0.884
-0.22480001 -0.0517 0.884
-0.2228 -0.051600002 0.88200003
-0.2212 -0.051600002 0.88200003
-0.21969999 -0.051600002 0.88200003
-0.21789999 -0.0515 0.88099998
-0.2166 -0.051600002 0.88200003
-0.2156 -0.0517 0.884
-0.2051 -0.051800001 0.88499999
-0.2033 -0.0517 0.884
-0.2016 -0.051600002 0.88300002
-0.1998 -0.051600002 0.88200003
-0.1983 -0.051600002 0.88200003
-0.19679999 -0.051600002 0.88200003
-0.19499999 -0.0515 0.88099998
-0.192 -0.0515 0.88099998
-0.19069999 -0.051600002 0.88200003
-0.18960001 -0.0517 0.884
-0.1867 -0.051800001 0.88499999
-0.18520001 -0.051800001 0.88499999
-0.18359999 -0.051800001 0.88499999
-0.1821 -0.051800001 0.88499999
-0.1804 -0.0517 0.884
-0.1788 -0.0517 0.884
-0.1769 -0.051600002 0.88200003
-0.1754 -0.051600002 0.88200003
-0.1736 -0.0515 0.88099998
-0.1719 -0.0515 0.88
-0.17 -0.0513 0.87800002
-0.1681 -0.051199999 0.87599999
-0.14740001 -0.048 0.81999999
-0.146 -0.048 0.81999999
-0.1444 -0.047899999 0.81900001
-0.14300001 -0.047899999 0.81900001
-0.14139999 -0.047800001 0.81800002
-0.1398 -0.047800001 0.81699997
-0.13850001 -0.047800001 0.81800002
-0.1373 -0.047899999 0.81900001
-0.13590001 -0.047899999 0.81900001
-0.1346 -0.048 0.81999999
-0.13349999 -0.048099998 0.82200003
-0.13240001 -0.0482 0.824
-0.1313 -0.048300002 0.82599998
-0.12989999 -0.048300002 0.82599998
-0.12720001 -0.0484 0.82700002
-0.1233 -0.048500001 0.82999998
-0.1219 -0.048500001 0.82999998
-0.1206 -0.048599999 0.83099997
-0.1191 -0.048599999 0.83099997
-0.1176 -0.048500001 0.82999998
-0.116 -0.048500001 0.829
-0.1145 -0.048500001 0.829
-0.1132 -0.048500001 0.82999998
-0.1119 -0.048599999 0.83099997
-0.1106 -0.048700001 0.83200002
-0.1092 -0.048700001 0.83200002
-0.1064 -0.048700001 0.833
-0.1051 -0.048799999 0.83399999
-0.1037 -0.048799999 0.83399999
-0.1021 -0.048700001 0.833
-0.1005 -0.048700001 0.83200002
-0.099100001 -0.048700001 0.83200002
-0.0977 -0.048700001 0.83200002
-0.094899997 -0.048700001 0.833
-0.093400002 -0.048700001 0.833
-0.092 -0.048700001 0.833
-0.090599999 -0.048700001 0.833
-0.089100003 -0.048700001 0.833
-0.080799997 -0.048900001 0.83700001
-0.081699997 -0.0513 0.87699997
-0.080399998 -0.0515 0.88
-0.0792 -0.0517 0.884
-0.0779 -0.051800001 0.88599998
-0.076399997 -0.051899999 0.88700002
-0.075199999 -0.052000001 0.88999999
-0.073899999 -0.052200001 0.89300001
-0.072300002 -0.052200001 0.89300001
-0.070900001 -0.052299999 0.89499998
-0.069399998 -0.052299999 0.89499998
-0.0678 -0.052299999 0.89499998
-0.066299997 -0.052299999 0.89499998
-0.064599998 -0.052200001 0.89300001
-0.062899999 -0.052099999 0.89099997
-0.061299998 -0.052000001 0.88999999
-0.059700001 -0.052000001 0.88999999
-0.0581 -0.052000001 0.889
-0.056600001 -0.052000001 0.889
-0.055 -0.051899999 0.88800001
-0.053399999 -0.051899999 0.88800001
-0.051899999 -0.051899999 0.88800001
-0.0504 -0.052000001 0.889
-0.048900001 -0.052000001 0.88999999
-0.047400001 -0.052000001 0.88999999
-0.0458 -0.052000001 0.88999999
-0.044399999 -0.052099999 0.89099997
-0.042800002 -0.052099999 0.89099997
-0.041299999 -0.052099999 0.89099997
-0.039799999 -0.052200001 0.89200002
-0.038199998 -0.052200001 0.89200002
-0.036600001 -0.052099999 0.89099997
-0.035100002 -0.052099999 0.89099997
-0.033500001 -0.052000001 0.88999999
-0.032000002 -0.052000001 0.88999999
-0.030400001 -0.052000001 0.88999999
-0.0288 -0.052000001 0.889
-0.0273 -0.052000001 0.88999999
-0.025800001 -0.052000001 0.88999999
-0.0243 -0.052099999 0.89099997
-0.0228 -0.052200001 0.89300001
-0.021299999 -0.052299999 0.89399999
-0.0197 -0.052299999 0.89499998
-0.018200001 -0.052299999 0.89499998
-0.0166 -0.052299999 0.89399999
-0.0151 -0.052299999 0.89499998
-0.0135 -0.052299999 0.89499998
-0.012 -0.052299999 0.89399999
-0.0104 -0.052299999 0.89499998
-0.0088999998 -0.052299999 0.89399999
-0.0073000002 -0.052200001 0.89300001
-0.0057999999 -0.052200001 0.89300001
-0.0041999999 -0.052200001 0.89300001
-0.0027000001 -0.052099999 0.89099997
-0.0011 -0.052099999 0.89099997
0.00039999999 -0.052099999 0.89099997
0.0020000001 -0.052000001 0.88999999
0.0035000001 -0.052099999 0.89099997
0.0051000002 -0.052099999 0.89099997
0.0066 -0.052000001 0.88999999
0.0081000002 -0.052000001 0.88999999
0.0097000003 -0.052099999 0.89099997
0.0112 -0.052099999 0.89099997
0.0128 -0.052200001 0.89300001
0.0144 -0.052200001 0.89300001
0.015900001 -0.052299999 0.89499998
0.0175 -0.052299999 0.89499998
0.018999999 -0.052299999 0.89499998
0.0206 -0.052299999 0.89499998
0.0221 -0.052299999 0.89399999
0.023700001 -0.052299999 0.89399999
0.0252 -0.052200001 0.89300001
0.026699999 -0.052200001 0.89300001
0.0283 -0.052200001 0.89200002
0.0298 -0.052099999 0.89099997
0.031300001 -0.052099999 0.89099997
0.0328 -0.052000001 0.88999999
0.034400001 -0.052000001 0.88999999
0.0359 -0.052000001 0.88999999
0.0374 -0.052000001 0.88999999
0.039000001 -0.052099999 0.89099997
0.040600002 -0.052099999 0.89099997
0.042100001 -0.052099999 0.89099997
0.043699998 -0.052099999 0.89099997
0.045200001 -0.052099999 0.89099997
0.0482 -0.052000001 0.889
0.049699999 -0.052000001 0.889
0.0513 -0.052000001 0.889
0.052900001 -0.052000001 0.88999999
0.054400001 -0.052000001 0.88999999
0.056000002 -0.052000001 0.88999999
0.057500001 -0.052000001 0.88999999
0.059099998 -0.052099999 0.89099997
0.060600001 -0.052000001 0.88999999
0.062100001 -0.052000001 0.889
0.063500002 -0.051899999 0.88800001
0.065099999 -0.051899999 0.88800001
0.066600002 -0.051899999 0.88800001
0.068099998 -0.051899999 0.88800001
0.069799997 -0.052000001 0.88999999
0.071500003 -0.052200001 0.89200002
0.073200002 -0.052200001 0.89300001
0.074900001 -0.052299999 0.89499998
0.076399997 -0.052299999 0.89499998
0.078000002 -0.052299999 0.89499998
0.079599999 -0.0524 0.89600003
0.081200004 -0.0524 0.89600003
0.082699999 -0.0524 0.89600003
0.0845 -0.052499998 0.898
0.086199999 -0.0526 0.89999998
0.087899998 -0.052700002 0.90100002
0.089500003 -0.052700002 0.90200001
0.091200002 -0.0528 0.903
0.092799999 -0.0528 0.903
0.094300002 -0.0528 0.903
0.095899999 -0.0528 0.903
0.097400002 -0.052700002 0.90200001
0.098899998 -0.052700002 0.90200001
0.1004 -0.052700002 0.90100002
0.1016 -0.052499998 0.898
0.1028 -0.052299999 0.89499998
0.1041 -0.052200001 0.89300001
0.1056 -0.052200001 0.89200002
0.1071 -0.052200001 0.89200002
0.1088 -0.052200001 0.89300001
