# .PCD v0.7 - Point Cloud Data file format
VERSION 0.7
FIELDS x y z
SIZE 4 4 4
TYPE F F F
COUNT 1 1 1
WIDTH 1651
HEIGHT 1
VIEWPOINT 0 0 0 1 0 0 0
POINTS 1651
DATA ascii
-0.2256 0.0080000004 0.88099998
-0.2243 0.0080000004 0.88200003
-0.2228 0.0080000004 0.88200003
-0.2217 0.0081000002 0.884
-0.2202 0.0081000002 0.884
-0.21870001 0.0081000002 0.884
-0.2174 0.0081000002 0.88499999
-0.2156 0.0081000002 0.884
-0.21250001 0.0081000002 0.884
-0.2105 0.0080000004 0.88200003
-0.2088 0.0080000004 0.88099998
-0.20630001 0.0080000004 0.87699997
-0.2041 0.0080000004 0.87400001
-0.20209999 0.0078999996 0.87199998
-0.2008 0.0080000004 0.87300003
-0.1991 0.0078999996 0.87199998
-0.1978 0.0080000004 0.87300003
-0.1963 0.0080000004 0.87300003
-0.16949999 0.0074999998 0.824
-0.1679 0.0074999998 0.82300001
-0.1665 0.0074999998 0.82300001
-0.16509999 0.0074999998 0.82300001
-0.16339999 0.0074999998 0.82200003
-0.1618 0.0074999998 0.82099998
-0.1602 0.0074999998 0.81999999
-0.15880001 0.0074999998 0.81999999
-0.1574 0.0074999998 0.81999999
-0.1559 0.0074999998 0.81999999
-0.15449999 0.0074999998 0.81999999
-0.1531 0.0074999998 0.81999999
-0.15260001 0.0074999998 0.82499999
-0.1521 0.0076000001 0.82999998
-0.1508 0.0076000001 0.83099997
-0.1494 0.0076000001 0.83099997
-0.1478 0.0076000001 0.82999998
-0.1463 0.0076000001 0.82999998
-0.14470001 0.0076000001 0.829
-0.1433 0.0076000001 0.829
-0.1417 0.0074999998 0.82800001
-0.1402 0.0074999998 0.82800001
-0.139 0.0076000001 0.829
-0.13770001 0.0076000001 0.82999998
-0.1363 0.0076000001 0.82999998
-0.1348 0.0076000001 0.82999998
-0.13339999 0.0076000001 0.82999998
-0.1319 0.0076000001 0.82999998
-0.1305 0.0076000001 0.82999998
-0.12909999 0.0076000001 0.82999998
-0.1275 0.0076000001 0.829
-0.126 0.0076000001 0.829
-0.1247 0.0076000001 0.82999998
-0.1232 0.0076000001 0.829
-0.1217 0.0076000001 0.829
-0.1201 0.0074999998 0.82800001
-0.1184 0.0074999998 0.82599998
-0.117 0.0074999998 0.82599998
-0.1139 0.0074999998 0.824
-0.1114 0.0074999998 0.82700002
-0.1102 0.0076000001 0.829
-0.1092 0.0076000001 0.83200002
-0.1079 0.0076000001 0.833
-0.1064 0.0076000001 0.833
-0.1049 0.0076000001 0.83200002
-0.1033 0.0076000001 0.83099997
-0.1017 0.0076000001 0.82999998
-0.1002 0.0076000001 0.829
-0.095299996 0.0074999998 0.824
-0.093900003 0.0074999998 0.824
-0.092500001 0.0074999998 0.82499999
-0.0911 0.0074999998 0.82499999
-0.0898 0.0074999998 0.82599998
-0.088500001 0.0074999998 0.82700002
-0.087300003 0.0076000001 0.82999998
-0.085900001 0.0076000001 0.82999998
-0.084600002 0.0076000001 0.83099997
-0.0832 0.0076000001 0.83200002
-0.081900001 0.0076000001 0.833
-0.080399998 0.0076000001 0.833
-0.078900002 0.0076000001 0.83200002
-0.077399999 0.0076000001 0.83099997
-0.075999998 0.0076000001 0.83200002
-0.074600004 0.0076000001 0.83200002
-0.073100001 0.0076000001 0.83200002
-0.0515 0.0076000001 0.83200002
-0.050099999 0.0076000001 0.83200002
-0.048700001 0.0076000001 0.833
-0.047200002 0.0076000001 0.833
-0.045699999 0.0076000001 0.83200002
-0.044399999 0.0076000001 0.833
-0.0429 0.0076000001 0.83200002
-0.0414 0.0076000001 0.83200002
-0.035700001 0.0076000001 0.833
-0.034299999 0.0076000001 0.83399999
-0.032900002 0.0076000001 0.83499998
-0.031399999 0.0076000001 0.83499998
-0.030099999 0.0076000001 0.83700001
-0.0286 0.0076000001 0.83600003
-0.027100001 0.0076000001 0.83600003
-0.025699999 0.0076000001 0.83700001
-0.0243 0.0076000001 0.83700001
-0.0228 0.0076000001 0.83600003
-0.021299999 0.0076000001 0.83499998
-0.0199 0.0076000001 0.83499998
-0.0184 0.0076000001 0.83399999
-0.016899999 0.0076000001 0.83399999
-0.0155 0.0076000001 0.83399999
-0.0141 0.0076000001 0.83499998
-0.0027000001 0.0081000002 0.88999999
-0.0011 0.0081000002 0.89099997
0.00039999999 0.0081000002 0.89099997
0.0020000001 0.0081000002 0.89200002
0.0035000001 0.0081000002 0.89200002
0.0051000002 0.0081000002 0.89099997
0.0066 0.0081000002 0.89300001
0.0082 0.0082 0.89600003
0.0098000001 0.0082 0.89700001
0.0113 0.0082 0.898
0.0129 0.0082 0.89899999
0.0145 0.0082 0.89899999
0.016000001 0.0082 0.89999998
0.0176 0.0082 0.89999998
0.019099999 0.0082 0.898
0.0206 0.0082 0.89700001
0.0221 0.0082 0.89499998
0.023700001 0.0081000002 0.89399999
0.0252 0.0081000002 0.89300001
0.026699999 0.0081000002 0.89300001
0.0283 0.0081000002 0.89300001
0.0298 0.0081000002 0.89300001
0.031500001 0.0082 0.89499998
0.033 0.0082 0.89600003
0.034699999 0.0082 0.89899999
0.0363 0.0082 0.89999998
0.037999999 0.0082 0.903
0.0396 0.0082 0.90499997
0.052999999 0.0081000002 0.89200002
0.054400001 0.0081000002 0.88999999
0.0559 0.0081000002 0.889
0.057399999 0.0081000002 0.889
0.059 0.0081000002 0.88999999
0.060600001 0.0081000002 0.88999999
0.062100001 0.0081000002 0.88999999
0.063699998 0.0081000002 0.88999999
0.065200001 0.0081000002 0.88999999
0.066799998 0.0081000002 0.88999999
0.068300001 0.0081000002 0.88999999
0.069799997 0.0081000002 0.88999999
0.071400002 0.0081000002 0.88999999
0.073200002 0.0081000002 0.89300001
0.075099997 0.0082 0.898
0.076899998 0.0082 0.90100002
0.078599997 0.0082 0.90200001
0.080200002 0.0082 0.903
0.090999998 0.0082 0.90100002
0.092600003 0.0082 0.90100002
0.095399998 0.0082 0.898
0.096799999 0.0082 0.89700001
0.098300003 0.0082 0.89600003
0.099699996 0.0082 0.89499998
0.1013 0.0082 0.89499998
0.1027 0.0081000002 0.89399999
0.1042 0.0081000002 0.89399999
0.1057 0.0081000002 0.89300001
0.1072 0.0081000002 0.89300001
0.1088 0.0081000002 0.89300001
0.1101 0.0081000002 0.89099997
0.1116 0.0081000002 0.89099997
0.1132 0.0081000002 0.89099997
0.1147 0.0081000002 0.89099997
0.1162 0.0081000002 0.89099997
0.1178 0.0081000002 0.89099997
0.1193 0.0081000002 0.89099997
0.1207 0.0081000002 0.88999999
0.1223 0.0081000002 0.88999999
0.1238 0.0081000002 0.88999999
0.12540001 0.0081000002 0.88999999
0.12710001 0.0081000002 0.89099997
0.1301 0.0081000002 0.89099997
0.1318 0.0081000002 0.89200002
0.13349999 0.0081000002 0.89300001
0.13519999 0.0081000002 0.89399999
0.1371 0.0082 0.89600003
0.1389 0.0082 0.898
0.14049999 0.0082 0.898
0.1424 0.0082 0.89999998
0.14390001 0.0082 0.89999998
0.1455 0.0082 0.89999998
0.1469 0.0082 0.89899999
0.1524 0.0082 0.89499998
0.1538 0.0081000002 0.89399999
0.15549999 0.0082 0.89499998
0.1573 0.0082 0.89600003
0.15880001 0.0082 0.89600003
0.1602 0.0082 0.89499998
0.1617 0.0082 0.89499998
0.1631 0.0081000002 0.89399999
0.1645 0.0081000002 0.89300001
0.16599999 0.0081000002 0.89300001
0.1674 0.0081000002 0.89200002
0.1693 0.0081000002 0.89399999
0.1833 0.0081000002 0.89399999
0.185 0.0082 0.89499998
0.1876 0.0082 0.89999998
0.19 0.0082 0.90399998
0.1918 0.0082 0.90499997
-0.41319999 0.0093999999 0.87099999
-0.37689999 0.0096000005 0.88499999
-0.34760001 0.0094999997 0.87699997
-0.3461 0.0094999997 0.87699997
-0.34419999 0.0094999997 0.87599999
-0.34310001 0.0094999997 0.87699997
-0.34200001 0.0094999997 0.87800002
-0.34119999 0.0094999997 0.88
-0.34009999 0.0096000005 0.88099998
-0.33849999 0.0096000005 0.88099998
-0.33660001 0.0094999997 0.88
-0.33590001 0.0096000005 0.88200003
-0.33239999 0.0096000005 0.88499999
-0.33090001 0.0096000005 0.88499999
-0.32969999 0.0096000005 0.88599998
-0.32859999 0.0096000005 0.88700002
-0.32659999 0.0096000005 0.88599998
-0.3247 0.0096000005 0.88499999
-0.32249999 0.0096000005 0.88300002
-0.3206 0.0096000005 0.88200003
-0.31869999 0.0096000005 0.88099998
-0.31639999 0.0094999997 0.87900001
-0.30379999 0.0096000005 0.88200003
-0.30019999 0.0096000005 0.88499999
-0.2983 0.0096000005 0.884
-0.29710001 0.0096000005 0.88499999
-0.2956 0.0096000005 0.88499999
-0.28909999 0.0096000005 0.884
-0.28310001 0.0097000003 0.89899999
-0.28189999 0.0098000001 0.89999998
-0.28060001 0.0098000001 0.90100002
-0.27970001 0.0098000001 0.903
-0.2784 0.0098000001 0.90399998
-0.2728 0.0098000001 0.90100002
-0.26980001 0.0097000003 0.89600003
-0.2667 0.0097000003 0.89099997
-0.26460001 0.0096000005 0.889
-0.2624 0.0096000005 0.88700002
-0.26089999 0.0096000005 0.88700002
-0.25940001 0.0096000005 0.88700002
-0.2581 0.0096000005 0.88800001
-0.2563 0.0096000005 0.88700002
-0.255 0.0096000005 0.88800001
-0.25350001 0.0096000005 0.88800001
-0.252 0.0096000005 0.88800001
-0.25040001 0.0096000005 0.88800001
-0.24860001 0.0096000005 0.88700002
-0.2465 0.0096000005 0.88499999
-0.245 0.0096000005 0.88499999
-0.2419 0.0096000005 0.88499999
-0.2404 0.0096000005 0.88499999
-0.2386 0.0096000005 0.884
-0.237 0.0096000005 0.884
-0.23549999 0.0096000005 0.884
-0.2335 0.0096000005 0.88200003
-0.2317 0.0096000005 0.88099998
-0.2304 0.0096000005 0.88200003
-0.2289 0.0096000005 0.88200003
-0.22579999 0.0096000005 0.88200003
-0.2243 0.0096000005 0.88200003
-0.222 0.0096000005 0.88499999
-0.22040001 0.0096000005 0.88499999
-0.2189 0.0096000005 0.88499999
-0.2174 0.0096000005 0.88499999
-0.2156 0.0096000005 0.884
-0.2141 0.0096000005 0.884
-0.21250001 0.0096000005 0.884
-0.21080001 0.0096000005 0.88300002
-0.20900001 0.0096000005 0.88200003
-0.207 0.0094999997 0.88
-0.2052 0.0094999997 0.87900001
-0.20370001 0.0094999997 0.87900001
-0.20200001 0.0094999997 0.87800002
-0.20039999 0.0094999997 0.87800002
-0.1972 0.0094999997 0.87699997
-0.1714 0.0089999996 0.82599998
-0.1698 0.0088999998 0.82499999
-0.1679 0.0088999998 0.82300001
-0.1665 0.0088999998 0.82300001
-0.1649 0.0088999998 0.82200003
-0.16320001 0.0088999998 0.82099998
-0.1618 0.0088999998 0.82099998
-0.1604 0.0088999998 0.82099998
-0.15880001 0.0088999998 0.81999999
-0.1574 0.0088999998 0.81999999
-0.1559 0.0088999998 0.81999999
-0.1543 0.0088999998 0.81900001
-0.1531 0.0088999998 0.81999999
-0.15099999 0.0089999996 0.83200002
-0.1496 0.0089999996 0.83200002
-0.1479 0.0089999996 0.83099997
-0.14650001 0.0089999996 0.83099997
-0.14489999 0.0089999996 0.82999998
-0.1433 0.0089999996 0.829
-0.1417 0.0089999996 0.82800001
-0.14040001 0.0089999996 0.829
-0.139 0.0089999996 0.829
-0.13770001 0.0089999996 0.82999998
-0.1363 0.0089999996 0.82999998
-0.1348 0.0089999996 0.82999998
-0.13339999 0.0089999996 0.82999998
-0.1319 0.0089999996 0.82999998
-0.1305 0.0089999996 0.82999998
-0.12909999 0.0089999996 0.82999998
-0.1276 0.0089999996 0.82999998
-0.12620001 0.0089999996 0.82999998
-0.1249 0.0089999996 0.83099997
-0.1233 0.0089999996 0.82999998
-0.1217 0.0089999996 0.829
-0.1203 0.0089999996 0.829
-0.1186 0.0089999996 0.82700002
-0.117 0.0089999996 0.82599998
-0.1154 0.0088999998 0.82499999
-0.1126 0.0088999998 0.82499999
-0.1114 0.0089999996 0.82700002
-0.1102 0.0089999996 0.829
-0.1091 0.0089999996 0.83099997
-0.1077 0.0089999996 0.83200002
-0.1064 0.0089999996 0.833
-0.1047 0.0089999996 0.83099997
-0.1032 0.0089999996 0.82999998
-0.1016 0.0089999996 0.829
-0.0999 0.0089999996 0.82700002
-0.098399997 0.0089999996 0.82599998
-0.096799999 0.0088999998 0.82499999
-0.095299996 0.0088999998 0.824
-0.093999997 0.0088999998 0.82499999
-0.092500001 0.0088999998 0.82499999
-0.0911 0.0088999998 0.82499999
-0.0898 0.0089999996 0.82599998
-0.088500001 0.0089999996 0.82700002
-0.087200001 0.0089999996 0.829
-0.085900001 0.0089999996 0.82999998
-0.084600002 0.0089999996 0.83099997
-0.0832 0.0089999996 0.83200002
-0.081900001 0.0089999996 0.833
-0.080300003 0.0089999996 0.83200002
-0.0788 0.0089999996 0.83099997
-0.077399999 0.0089999996 0.83099997
-0.075999998 0.0089999996 0.83200002
-0.074500002 0.0089999996 0.83099997
-0.073100001 0.0089999996 0.83099997
-0.071400002 0.0089999996 0.829
-0.0515 0.0089999996 0.83200002
-0.050099999 0.0089999996 0.83200002
-0.048700001 0.0089999996 0.833
-0.047200002 0.0089999996 0.833
-0.0458 0.0089999996 0.833
-0.044399999 0.0089999996 0.833
-0.0429 0.0089999996 0.833
-0.0414 0.0089999996 0.83200002
-0.035700001 0.0089999996 0.833
-0.034299999 0.0089999996 0.83399999
-0.032900002 0.0091000004 0.83499998
-0.031399999 0.0091000004 0.83499998
-0.029999999 0.0091000004 0.83600003
-0.0286 0.0091000004 0.83600003
-0.027100001 0.0091000004 0.83600003
-0.025699999 0.0091000004 0.83600003
-0.0242 0.0091000004 0.83499998
-0.0228 0.0091000004 0.83600003
-0.021299999 0.0091000004 0.83600003
-0.0199 0.0091000004 0.83499998
-0.0184 0.0091000004 0.83499998
-0.017000001 0.0091000004 0.83499998
-0.0155 0.0089999996 0.83399999
-0.0141 0.0091000004 0.83499998
-0.0041999999 0.0097000003 0.89300001
-0.0027000001 0.0097000003 0.89099997
-0.0011 0.0097000003 0.89300001
0.00039999999 0.0097000003 0.89300001
0.0020000001 0.0097000003 0.89399999
0.0035000001 0.0097000003 0.89499998
0.0051000002 0.0097000003 0.89499998
0.0066 0.0097000003 0.89600003
0.0082 0.0097000003 0.898
0.0098000001 0.0097000003 0.89899999
0.0113 0.0097000003 0.898
0.0129 0.0097000003 0.898
0.0144 0.0097000003 0.898
0.016000001 0.0097000003 0.898
0.0176 0.0097000003 0.898
0.019099999 0.0097000003 0.89600003
0.0206 0.0097000003 0.89499998
0.0221 0.0097000003 0.89300001
0.023600001 0.0097000003 0.89200002
0.0252 0.0097000003 0.89200002
0.026699999 0.0097000003 0.89200002
0.0283 0.0097000003 0.89200002
0.0298 0.0097000003 0.89300001
0.031399999 0.0097000003 0.89399999
0.033 0.0097000003 0.89600003
0.034699999 0.0097000003 0.89899999
0.0363 0.0098000001 0.90100002
0.037999999 0.0098000001 0.903
0.039700001 0.0098000001 0.90600002
0.041299999 0.0098000001 0.90600002
0.048799999 0.0098000001 0.89999998
0.050099999 0.0097000003 0.89600003
0.0515 0.0097000003 0.89300001
0.052900001 0.0097000003 0.89099997
0.054400001 0.0096000005 0.889
0.055799998 0.0096000005 0.88800001
0.057399999 0.0096000005 0.889
0.059 0.0097000003 0.88999999
0.060699999 0.0097000003 0.89099997
0.062199999 0.0097000003 0.89099997
0.0638 0.0097000003 0.89200002
0.065300003 0.0097000003 0.89099997
0.0669 0.0097000003 0.89200002
0.068400003 0.0097000003 0.89099997
0.069799997 0.0097000003 0.88999999
0.071400002 0.0097000003 0.88999999
0.073100001 0.0097000003 0.89200002
0.075099997 0.0097000003 0.89700001
0.076899998 0.0098000001 0.90100002
0.078500003 0.0098000001 0.90100002
0.0801 0.0098000001 0.90100002
0.092500001 0.0098000001 0.89999998
0.093900003 0.0097000003 0.89899999
0.095399998 0.0097000003 0.898
0.096900001 0.0097000003 0.898
0.098499998 0.0097000003 0.898
0.1 0.0097000003 0.898
0.1016 0.0097000003 0.898
0.1032 0.0097000003 0.898
0.1047 0.0097000003 0.898
0.1061 0.0097000003 0.89700001
0.1076 0.0097000003 0.89600003
0.109 0.0097000003 0.89499998
0.1103 0.0097000003 0.89300001
0.1119 0.0097000003 0.89300001
0.1134 0.0097000003 0.89300001
0.1148 0.0097000003 0.89200002
0.1162 0.0097000003 0.89099997
0.1178 0.0097000003 0.89099997
0.1193 0.0097000003 0.89099997
0.1207 0.0097000003 0.88999999
0.1223 0.0097000003 0.88999999
0.1238 0.0097000003 0.88999999
0.12549999 0.0097000003 0.89099997
0.12710001 0.0097000003 0.89099997
0.1286 0.0097000003 0.89099997
0.1301 0.0097000003 0.89099997
0.1318 0.0097000003 0.89200002
0.13349999 0.0097000003 0.89300001
0.1354 0.0097000003 0.89499998
0.1374 0.0097000003 0.898
0.1393 0.0098000001 0.89999998
0.141 0.0098000001 0.90100002
0.1428 0.0098000001 0.903
0.1444 0.0098000001 0.903
0.146 0.0098000001 0.903
0.1472 0.0098000001 0.90100002
0.15109999 0.0097000003 0.89600003
0.1524 0.0097000003 0.89499998
0.1538 0.0097000003 0.89399999
0.15539999 0.0097000003 0.89399999
0.15710001 0.0097000003 0.89499998
0.1586 0.0097000003 0.89499998
0.16 0.0097000003 0.89399999
0.16159999 0.0097000003 0.89399999
0.1629 0.0097000003 0.89300001
0.1645 0.0097000003 0.89300001
0.16599999 0.0097000003 0.89300001
0.16779999 0.0097000003 0.89399999
0.1699 0.0097000003 0.89700001
0.17219999 0.0098000001 0.90100002
0.1742 0.0098000001 0.903
0.18520001 0.0097000003 0.89600003
0.1876 0.0098000001 0.89999998
0.19 0.0098000001 0.90399998
-0.41409999 0.011 0.87300003
-0.37689999 0.0111 0.88499999
-0.37540001 0.0111 0.88499999
-0.373 0.0111 0.88300002
-0.36520001 0.0111 0.87900001
-0.3637 0.0111 0.87900001
-0.36219999 0.0111 0.87900001
-0.35190001 0.0111 0.88
-0.34760001 0.011 0.87699997
-0.34459999 0.011 0.87699997
-0.34079999 0.0111 0.87900001
-0.3351 0.0111 0.88
-0.33360001 0.0111 0.884
-0.33199999 0.0111 0.884
-0.32969999 0.0111 0.88599998
-0.32820001 0.0111 0.88599998
-0.32699999 0.0112 0.88700002
-0.3247 0.0111 0.88499999
-0.32319999 0.0111 0.88499999
-0.3213 0.0111 0.884
-0.31979999 0.0111 0.884
-0.3179 0.0111 0.88300002
-0.29679999 0.0111 0.884
-0.2692 0.0112 0.89399999
-0.2667 0.0112 0.89099997
-0.2649 0.0112 0.88999999
-0.26269999 0.0112 0.88800001
-0.26120001 0.0112 0.88800001
-0.2597 0.0112 0.88800001
-0.2581 0.0112 0.88800001
-0.25659999 0.0112 0.88800001
-0.25529999 0.0112 0.889
-0.2538 0.0112 0.889
-0.25229999 0.0112 0.889
-0.25040001 0.0112 0.88800001
-0.2489 0.0112 0.88800001
-0.2465 0.0111 0.88499999
-0.245 0.0111 0.88499999
-0.24349999 0.0111 0.88499999
-0.2419 0.0111 0.88499999
-0.2401 0.0111 0.884
-0.2388 0.0111 0.88499999
-0.237 0.0111 0.884
-0.23549999 0.0111 0.884
-0.2335 0.0111 0.88200003
-0.23190001 0.0111 0.88200003
-0.2304 0.0111 0.88200003
-0.2271 0.0111 0.88099998
-0.2256 0.0111 0.88099998
-0.2243 0.0111 0.88200003
-0.2217 0.0111 0.884
-0.2202 0.0111 0.884
-0.21870001 0.0111 0.884
-0.21709999 0.0111 0.884
-0.2154 0.0111 0.88300002
-0.2138 0.0111 0.88300002
-0.2123 0.0111 0.88300002
-0.2105 0.0111 0.88200003
-0.2088 0.0111 0.88099998
-0.20720001 0.0111 0.88099998
-0.2052 0.0111 0.87900001
-0.20389999 0.0111 0.88
-0.2024 0.0111 0.88
-0.2007 0.0111 0.87900001
-0.1991 0.0111 0.87900001
-0.1974 0.011 0.87800002
-0.17120001 0.0104 0.82499999
-0.16949999 0.0104 0.824
-0.1679 0.0104 0.82300001
-0.1665 0.0104 0.82300001
-0.16509999 0.0104 0.82300001
-0.1636 0.0104 0.82300001
-0.162 0.0103 0.82200003
-0.16060001 0.0103 0.82200003
-0.15899999 0.0103 0.82099998
-0.1574 0.0103 0.81999999
-0.1559 0.0103 0.81999999
-0.15449999 0.0103 0.81999999
-0.1533 0.0103 0.82099998
-0.15260001 0.0104 0.82499999
-0.1496 0.0105 0.83200002
-0.1479 0.0105 0.83099997
-0.14650001 0.0105 0.83099997
-0.14489999 0.0104 0.82999998
-0.1433 0.0104 0.829
-0.1418 0.0104 0.829
-0.14040001 0.0104 0.829
-0.139 0.0104 0.829
-0.13770001 0.0104 0.82999998
-0.1364 0.0105 0.83099997
-0.13500001 0.0105 0.83099997
-0.13349999 0.0105 0.83099997
-0.1319 0.0104 0.82999998
-0.1305 0.0104 0.82999998
-0.12909999 0.0104 0.82999998
-0.1275 0.0104 0.829
-0.126 0.0104 0.829
-0.1247 0.0104 0.82999998
-0.1232 0.0104 0.829
-0.1217 0.0104 0.829
-0.1201 0.0104 0.82800001
-0.1184 0.0104 0.82599998
-0.117 0.0104 0.82599998
-0.1154 0.0104 0.82499999
-0.1139 0.0104 0.824
-0.1124 0.0104 0.824
-0.1111 0.0104 0.82499999
-0.1098 0.0104 0.82599998
-0.1085 0.0104 0.82700002
-0.1071 0.0104 0.82700002
-0.1059 0.0104 0.829
-0.1045 0.0104 0.829
-0.1029 0.0104 0.82800001
-0.1015 0.0104 0.82800001
-0.0999 0.0104 0.82700002
-0.098499998 0.0104 0.82700002
-0.097099997 0.0104 0.82700002
-0.0955 0.0104 0.82599998
-0.094099998 0.0104 0.82599998
-0.092699997 0.0104 0.82599998
-0.091200002 0.0104 0.82599998
-0.0898 0.0104 0.82599998
-0.088500001 0.0104 0.82700002
-0.087200001 0.0104 0.829
-0.085900001 0.0104 0.82999998
-0.084600002 0.0105 0.83099997
-0.0832 0.0105 0.83200002
-0.081799999 0.0105 0.83200002
-0.080300003 0.0105 0.83200002
-0.0788 0.0105 0.83099997
-0.077399999 0.0105 0.83099997
-0.075900003 0.0105 0.83099997
-0.074500002 0.0105 0.83099997
-0.073100001 0.0105 0.83099997
-0.071599998 0.0105 0.83099997
-0.052999999 0.0105 0.83200002
-0.051600002 0.0105 0.833
-0.050099999 0.0105 0.833
-0.048700001 0.0105 0.833
-0.0473 0.0105 0.83399999
-0.0458 0.0105 0.833
-0.044399999 0.0105 0.833
-0.0429 0.0105 0.833
-0.035700001 0.0105 0.833
-0.034299999 0.0105 0.83399999
-0.032900002 0.0105 0.83499998
-0.031399999 0.0105 0.83499998
-0.029999999 0.0105 0.83600003
-0.0286 0.0105 0.83600003
-0.027100001 0.0105 0.83499998
-0.025599999 0.0105 0.83499998
-0.0242 0.0105 0.83499998
-0.0228 0.0105 0.83499998
-0.021299999 0.0105 0.83499998
-0.0198 0.0105 0.83399999
-0.0184 0.0105 0.83399999
-0.016899999 0.0105 0.83399999
-0.0155 0.0105 0.83399999
-0.0141 0.0105 0.83499998
-0.0057999999 0.0112 0.89300001
-0.0041999999 0.0112 0.89300001
-0.0027000001 0.0112 0.89300001
-0.0011 0.0112 0.89300001
0.00039999999 0.0112 0.89399999
0.0020000001 0.0113 0.89499998
0.0035000001 0.0113 0.89600003
0.0051000002 0.0113 0.89600003
0.0066 0.0113 0.89600003
0.0082 0.0113 0.898
0.0098000001 0.0113 0.898
0.0113 0.0113 0.898
0.0129 0.0113 0.89600003
0.0144 0.0113 0.89499998
0.015900001 0.0113 0.89499998
0.0175 0.0113 0.89499998
0.018999999 0.0112 0.89300001
0.020500001 0.0112 0.89300001
0.022 0.0112 0.89099997
0.023600001 0.0112 0.89099997
0.0251 0.0112 0.89099997
0.026699999 0.0112 0.89099997
0.0283 0.0112 0.89200002
0.0298 0.0112 0.89300001
0.031399999 0.0112 0.89399999
0.033 0.0113 0.89600003
0.034699999 0.0113 0.89899999
0.0363 0.0113 0.90100002
0.037999999 0.0114 0.903
0.0396 0.0114 0.90499997
0.041200001 0.0114 0.90499997
0.042800002 0.0114 0.90600002
0.044399999 0.0114 0.90499997
0.0458 0.0114 0.903
0.0473 0.0113 0.90200001
0.048799999 0.0113 0.89999998
0.050099999 0.0113 0.89600003
0.0515 0.0112 0.89300001
0.052900001 0.0112 0.88999999
0.054400001 0.0112 0.889
0.055799998 0.0112 0.88800001
0.057399999 0.0112 0.88800001
0.059 0.0112 0.88999999
0.060699999 0.0112 0.89099997
0.0623 0.0112 0.89200002
0.063900001 0.0112 0.89300001
0.065399997 0.0112 0.89300001
0.067000002 0.0112 0.89300001
0.068499997 0.0112 0.89200002
0.069899999 0.0112 0.89099997
0.071400002 0.0112 0.88999999
0.073100001 0.0112 0.89200002
0.075000003 0.0113 0.89600003
0.076899998 0.0113 0.89999998
0.078400001 0.0113 0.89999998
0.079999998 0.0113 0.89999998
0.0814 0.0113 0.898
0.083099999 0.0113 0.89999998
0.084700003 0.0113 0.89999998
0.090899996 0.0113 0.89999998
0.092399999 0.0113 0.89899999
0.093699999 0.0113 0.89700001
0.095200002 0.0113 0.89600003
0.096699998 0.0113 0.89600003
0.098399997 0.0113 0.89700001
0.1 0.0113 0.898
0.1017 0.0113 0.89899999
0.1032 0.0113 0.898
0.1048 0.0113 0.89899999
0.1063 0.0113 0.898
0.1077 0.0113 0.89700001
0.109 0.0113 0.89499998
0.1104 0.0112 0.89399999
0.1119 0.0112 0.89300001
0.1134 0.0112 0.89300001
0.1148 0.0112 0.89200002
0.1164 0.0112 0.89200002
0.1178 0.0112 0.89099997
0.1193 0.0112 0.89099997
0.1209 0.0112 0.89099997
0.1224 0.0112 0.89099997
0.124 0.0112 0.89099997
0.12549999 0.0112 0.89099997
0.12720001 0.0112 0.89200002
0.12890001 0.0112 0.89300001
0.1304 0.0112 0.89300001
0.132 0.0112 0.89300001
0.1337 0.0112 0.89399999
0.1357 0.0113 0.89700001
0.13770001 0.0113 0.89999998
0.13940001 0.0113 0.90100002
0.1411 0.0113 0.90200001
0.1428 0.0114 0.903
0.1446 0.0114 0.90399998
0.146 0.0114 0.903
0.1472 0.0113 0.90100002
0.1498 0.0113 0.898
0.154 0.0113 0.89499998
0.1573 0.0113 0.89600003
0.1586 0.0113 0.89499998
0.16 0.0112 0.89399999
0.16159999 0.0112 0.89399999
0.1631 0.0112 0.89399999
0.1645 0.0112 0.89300001
0.1662 0.0112 0.89399999
0.168 0.0113 0.89499998
0.1701 0.0113 0.898
0.1724 0.0113 0.90200001
0.1743 0.0114 0.90399998
0.18520001 0.0113 0.89600003
0.1874 0.0113 0.89899999
0.18960001 0.0113 0.90200001
-0.4091 0.0125 0.87199998
-0.39739999 0.0125 0.87599999
-0.37540001 0.0127 0.88499999
-0.373 0.0126 0.88300002
-0.36520001 0.0126 0.87900001
-0.3637 0.0126 0.87900001
-0.36300001 0.0126 0.88099998
-0.35699999 0.0127 0.88499999
-0.35499999 0.0127 0.884
-0.35229999 0.0126 0.88099998
-0.34999999 0.0126 0.87900001
-0.34799999 0.0126 0.87800002
-0.34459999 0.0126 0.87699997
-0.34349999 0.0126 0.87800002
-0.33660001 0.0125 0.87599999
-0.33469999 0.0125 0.875
-0.33360001 0.0125 0.87599999
-0.3328 0.0126 0.87800002
-0.3321 0.0126 0.88
-0.3317 0.0126 0.88300002
-0.33050001 0.0127 0.884
-0.32969999 0.0127 0.88599998
-0.32890001 0.0127 0.88800001
-0.3274 0.0127 0.88800001
-0.32550001 0.0127 0.88700002
-0.32390001 0.0127 0.88700002
-0.32170001 0.0127 0.88499999
-0.32010001 0.0127 0.88499999
-0.3186 0.0127 0.88499999
-0.2649 0.0127 0.88999999
-0.26269999 0.0127 0.88800001
-0.2615 0.0127 0.889
-0.2597 0.0127 0.88800001
-0.25839999 0.0127 0.889
-0.2572 0.0127 0.88999999
-0.25560001 0.0127 0.88999999
-0.2538 0.0127 0.889
-0.25229999 0.0127 0.889
-0.25040001 0.0127 0.88800001
-0.2489 0.0127 0.88800001
-0.24680001 0.0127 0.88599998
-0.245 0.0127 0.88499999
-0.24349999 0.0127 0.88499999
-0.24160001 0.0127 0.884
-0.2401 0.0127 0.884
-0.2386 0.0127 0.884
-0.237 0.0127 0.884
-0.23549999 0.0127 0.884
-0.2335 0.0126 0.88200003
-0.23190001 0.0126 0.88200003
-0.2273 0.0126 0.88200003
-0.22579999 0.0126 0.88200003
-0.2243 0.0126 0.88200003
-0.223 0.0126 0.88300002
-0.2217 0.0127 0.884
-0.2202 0.0127 0.884
-0.21870001 0.0127 0.884
-0.21709999 0.0127 0.884
-0.2156 0.0127 0.884
-0.2141 0.0127 0.884
-0.21250001 0.0127 0.884
-0.2105 0.0126 0.88200003
-0.2088 0.0126 0.88099998
-0.207 0.0126 0.88
-0.2052 0.0126 0.87900001
-0.20389999 0.0126 0.88
-0.20110001 0.0126 0.88099998
-0.1998 0.0126 0.88200003
-0.1716 0.0118 0.82700002
-0.17020001 0.0118 0.82700002
-0.16850001 0.0118 0.82599998
-0.16689999 0.0118 0.82499999
-0.1653 0.0118 0.824
-0.1636 0.0118 0.82300001
-0.162 0.0118 0.82200003
-0.1604 0.0117 0.82099998
-0.15880001 0.0117 0.81999999
-0.1574 0.0117 0.81999999
-0.1559 0.0117 0.81999999
-0.15449999 0.0117 0.81999999
-0.1533 0.0117 0.82099998
-0.1524 0.0118 0.824
-0.1517 0.0118 0.82800001
-0.1508 0.0119 0.83099997
-0.1494 0.0119 0.83099997
-0.1479 0.0119 0.83099997
-0.1463 0.0119 0.82999998
-0.14489999 0.0119 0.82999998
-0.1433 0.0119 0.829
-0.1418 0.0119 0.829
-0.1402 0.0118 0.82800001
-0.139 0.0119 0.829
-0.13770001 0.0119 0.82999998
-0.1364 0.0119 0.83099997
-0.1348 0.0119 0.82999998
-0.13339999 0.0119 0.82999998
-0.1318 0.0119 0.829
-0.1303 0.0119 0.829
-0.12890001 0.0119 0.829
-0.12720001 0.0118 0.82700002
-0.1257 0.0118 0.82700002
-0.1246 0.0119 0.829
-0.1232 0.0119 0.829
-0.1217 0.0119 0.829
-0.1201 0.0118 0.82800001
-0.1186 0.0118 0.82700002
-0.1171 0.0118 0.82700002
-0.1156 0.0118 0.82599998
-0.114 0.0118 0.82499999
-0.1126 0.0118 0.82499999
-0.1111 0.0118 0.82499999
-0.1098 0.0118 0.82599998
-0.1084 0.0118 0.82599998
-0.107 0.0118 0.82599998
-0.1057 0.0118 0.82700002
-0.1042 0.0118 0.82700002
-0.1028 0.0118 0.82700002
-0.1014 0.0118 0.82700002
-0.0999 0.0118 0.82700002
-0.098499998 0.0118 0.82700002
-0.096900001 0.0118 0.82599998
-0.095600002 0.0118 0.82700002
-0.0942 0.0118 0.82700002
-0.092799999 0.0118 0.82700002
-0.091200002 0.0118 0.82599998
-0.089900002 0.0118 0.82700002
-0.088699996 0.0119 0.829
-0.087300003 0.0119 0.82999998
-0.086000003 0.0119 0.83099997
-0.084600002 0.0119 0.83099997
-0.0832 0.0119 0.83200002
-0.081799999 0.0119 0.83200002
-0.080300003 0.0119 0.83200002
-0.0788 0.0119 0.83099997
-0.077299997 0.0119 0.82999998
-0.075800002 0.0119 0.82999998
-0.0744 0.0119 0.82999998
-0.072999999 0.0119 0.82999998
-0.071500003 0.0119 0.82999998
-0.054499999 0.0119 0.833
-0.052999999 0.0119 0.833
-0.051600002 0.0119 0.833
-0.050099999 0.0119 0.833
-0.048700001 0.0119 0.833
-0.047200002 0.0119 0.833
-0.0458 0.0119 0.833
-0.044399999 0.0119 0.833
-0.0429 0.0119 0.833
-0.037099998 0.0119 0.83200002
-0.035700001 0.0119 0.833
-0.034299999 0.0119 0.83399999
-0.0328 0.0119 0.83399999
-0.031399999 0.0119 0.83499998
-0.029999999 0.012 0.83600003
-0.027100001 0.0119 0.83499998
-0.025599999 0.0119 0.83499998
-0.0242 0.0119 0.83499998
-0.0228 0.0119 0.83499998
-0.021299999 0.0119 0.83399999
-0.0198 0.0119 0.83399999
-0.0184 0.0119 0.833
-0.016899999 0.0119 0.83399999
-0.0155 0.0119 0.83399999
-0.0141 0.0119 0.83499998
-0.0126 0.0119 0.83499998
-0.0057999999 0.0128 0.89499998
-0.0041999999 0.0128 0.89300001
-0.0027000001 0.0128 0.89200002
-0.0011 0.0128 0.89300001
0.00039999999 0.0128 0.89300001
0.0020000001 0.0128 0.89499998
0.0035000001 0.0128 0.89600003
0.0051000002 0.0128 0.89600003
0.0066999998 0.0129 0.898
0.0082 0.0129 0.898
0.0098000001 0.0129 0.898
0.0113 0.0128 0.89700001
0.0128 0.0128 0.89499998
0.0144 0.0128 0.89499998
0.015900001 0.0128 0.89399999
0.0175 0.0128 0.89300001
0.018999999 0.0128 0.89200002
0.020500001 0.0128 0.89099997
0.022 0.0128 0.89099997
0.023600001 0.0128 0.89099997
0.0251 0.0128 0.89099997
0.026699999 0.0128 0.89200002
0.0283 0.0128 0.89300001
0.0298 0.0128 0.89300001
0.031500001 0.0128 0.89499998
0.033 0.0128 0.89600003
0.034699999 0.0129 0.898
0.036200002 0.0129 0.898
0.037900001 0.0129 0.90100002
0.0396 0.0129 0.903
0.041200001 0.0129 0.90399998
0.042800002 0.013 0.90499997
0.044399999 0.013 0.90499997
0.0458 0.0129 0.903
0.0473 0.0129 0.90100002
0.048700001 0.0129 0.89899999
0.050099999 0.0128 0.89499998
0.0515 0.0128 0.89300001
0.052900001 0.0128 0.89099997
0.054400001 0.0127 0.889
0.055799998 0.0127 0.88800001
0.057399999 0.0127 0.88800001
0.059 0.0127 0.88999999
0.060699999 0.0128 0.89099997
0.0623 0.0128 0.89200002
0.063900001 0.0128 0.89300001
0.065399997 0.0128 0.89300001
0.067000002 0.0128 0.89300001
0.068499997 0.0128 0.89300001
0.07 0.0128 0.89200002
0.071400002 0.0127 0.88999999
0.072999999 0.0128 0.89099997
0.0748 0.0128 0.89399999
0.076700002 0.0129 0.898
0.078299999 0.0129 0.89899999
0.079899997 0.0129 0.89899999
0.081299998 0.0128 0.89700001
0.082999997 0.0129 0.89899999
0.086199999 0.0129 0.89999998
0.087800004 0.0129 0.89999998
0.090899996 0.0129 0.89999998
0.092399999 0.0129 0.89899999
0.093699999 0.0128 0.89700001
0.095200002 0.0128 0.89600003
0.096699998 0.0128 0.89600003
0.098399997 0.0128 0.89700001
0.1001 0.0129 0.89899999
0.1018 0.0129 0.89999998
0.1034 0.0129 0.89999998
0.1049 0.0129 0.89999998
0.1064 0.0129 0.89899999
0.1078 0.0129 0.898
0.1091 0.0128 0.89600003
0.1106 0.0128 0.89499998
0.1119 0.0128 0.89300001
0.1134 0.0128 0.89300001
0.115 0.0128 0.89300001
0.1164 0.0128 0.89200002
0.1178 0.0128 0.89099997
0.1193 0.0128 0.89099997
0.121 0.0128 0.89200002
0.1227 0.0128 0.89300001
0.1259 0.0128 0.89399999
0.1276 0.0128 0.89499998
0.1292 0.0128 0.89499998
0.13070001 0.0128 0.89499998
0.1323 0.0128 0.89499998
0.134 0.0128 0.89600003
0.13600001 0.0129 0.89899999
0.13779999 0.0129 0.90100002
0.13959999 0.0129 0.90200001
0.14129999 0.0129 0.903
0.14300001 0.0129 0.90399998
0.1446 0.0129 0.90399998
0.146 0.0129 0.903
0.1472 0.0129 0.90100002
0.1486 0.0129 0.89999998
0.15000001 0.0129 0.89899999
0.1514 0.0129 0.898
0.1542 0.0128 0.89600003
0.15979999 0.0128 0.89300001
0.1629 0.0128 0.89300001
0.16429999 0.0128 0.89200002
0.16599999 0.0128 0.89300001
0.168 0.0128 0.89499998
0.1701 0.0129 0.898
0.17219999 0.0129 0.90100002
0.1743 0.0129 0.90399998
0.1841 0.0129 0.898
0.18520001 0.0128 0.89600003
0.1874 0.0129 0.89899999
0.18960001 0.0129 0.90200001
0.1912 0.0129 0.90200001
-0.36520001 0.0141 0.87900001
-0.36410001 0.0141 0.88
-0.35699999 0.0142 0.88499999
-0.35499999 0.0142 0.884
-0.3527 0.0142 0.88200003
-0.34959999 0.0141 0.87800002
-0.34729999 0.0141 0.87599999
-0.34419999 0.0141 0.87599999
-0.34119999 0.0141 0.87599999
-0.33970001 0.0141 0.87599999
-0.33399999 0.014 0.87300003
-0.33320001 0.014 0.875
-0.33129999 0.014 0.87400001
-0.33059999 0.0141 0.87599999
-0.33090001 0.0141 0.88099998
-0.33050001 0.0142 0.884
-0.3301 0.0142 0.88700002
-0.32890001 0.0142 0.88800001
-0.3274 0.0142 0.88800001
-0.3258 0.0142 0.88800001
-0.32429999 0.0142 0.88800001
-0.3224 0.0142 0.88700002
-0.32089999 0.0142 0.88700002
-0.3197 0.0142 0.88800001
-0.26269999 0.0142 0.88800001
-0.26120001 0.0142 0.88800001
-0.2597 0.0142 0.88800001
-0.25839999 0.0143 0.889
-0.25690001 0.0143 0.889
-0.25560001 0.0143 0.88999999
-0.25409999 0.0143 0.88999999
-0.2525 0.0143 0.88999999
-0.2507 0.0143 0.889
-0.2492 0.0143 0.889
-0.2474 0.0142 0.88800001
-0.24529999 0.0142 0.88599998
-0.24349999 0.0142 0.88499999
-0.24160001 0.0142 0.884
-0.2404 0.0142 0.88499999
-0.23909999 0.0142 0.88599998
-0.2376 0.0142 0.88599998
-0.2358 0.0142 0.88499999
-0.234 0.0142 0.884
-0.2325 0.0142 0.884
-0.23119999 0.0142 0.88499999
-0.2296 0.0142 0.88499999
-0.2279 0.0142 0.884
-0.2261 0.0142 0.88300002
-0.2245 0.0142 0.88300002
-0.223 0.0142 0.88300002
-0.2217 0.0142 0.884
-0.2202 0.0142 0.884
-0.21870001 0.0142 0.884
-0.21709999 0.0142 0.884
-0.2156 0.0142 0.884
-0.2138 0.0142 0.88300002
-0.2123 0.0142 0.88300002
-0.2105 0.0142 0.88200003
-0.2088 0.0141 0.88099998
-0.20720001 0.0141 0.88099998
-0.20550001 0.0141 0.88
-0.2042 0.0141 0.88099998
-0.20290001 0.0142 0.88200003
-0.2014 0.0142 0.88200003
-0.17749999 0.0133 0.82800001
-0.17299999 0.0133 0.82700002
-0.1716 0.0133 0.82700002
-0.17020001 0.0133 0.82700002
-0.16850001 0.0133 0.82599998
-0.1671 0.0133 0.82599998
-0.1653 0.0132 0.824
-0.1636 0.0132 0.82300001
-0.1622 0.0132 0.82300001
-0.1604 0.0132 0.82099998
-0.15880001 0.0132 0.81999999
-0.15719999 0.0131 0.81900001
-0.1557 0.0131 0.81900001
-0.1533 0.0132 0.82099998
-0.1524 0.0132 0.824
-0.1515 0.0133 0.82700002
-0.1506 0.0133 0.82999998
-0.14920001 0.0133 0.82999998
-0.1478 0.0133 0.82999998
-0.1462 0.0133 0.829
-0.14470001 0.0133 0.829
-0.1433 0.0133 0.829
-0.1417 0.0133 0.82800001
-0.1402 0.0133 0.82800001
-0.139 0.0133 0.829
-0.1375 0.0133 0.829
-0.1363 0.0133 0.82999998
-0.1347 0.0133 0.829
-0.1332 0.0133 0.829
-0.1318 0.0133 0.829
-0.1302 0.0133 0.82800001
-0.1286 0.0133 0.82700002
-0.12720001 0.0133 0.82700002
-0.1257 0.0133 0.82700002
-0.1246 0.0133 0.829
-0.1232 0.0133 0.829
-0.1217 0.0133 0.829
-0.1201 0.0133 0.82800001
-0.1187 0.0133 0.82800001
-0.1173 0.0133 0.82800001
-0.1157 0.0133 0.82700002
-0.1141 0.0133 0.82599998
-0.1126 0.0132 0.82499999
-0.1111 0.0132 0.82499999
-0.1098 0.0133 0.82599998
-0.1083 0.0132 0.82499999
-0.1067 0.0132 0.824
-0.1054 0.0132 0.82499999
-0.1041 0.0133 0.82599998
-0.1027 0.0133 0.82599998
-0.1012 0.0133 0.82599998
-0.099799998 0.0133 0.82599998
-0.098399997 0.0133 0.82599998
-0.097099997 0.0133 0.82700002
-0.095600002 0.0133 0.82700002
-0.0942 0.0133 0.82700002
-0.092799999 0.0133 0.82700002
-0.091300003 0.0133 0.82700002
-0.089900002 0.0133 0.82700002
-0.088699996 0.0133 0.829
-0.087300003 0.0133 0.82999998
-0.085900001 0.0133 0.82999998
-0.084600002 0.0133 0.83099997
-0.083099999 0.0133 0.83099997
-0.081699997 0.0133 0.83099997
-0.080300003 0.0133 0.83099997
-0.078699999 0.0133 0.82999998
-0.077200003 0.0133 0.829
-0.0757 0.0133 0.829
-0.074299999 0.0133 0.829
-0.072999999 0.0133 0.82999998
-0.071500003 0.0133 0.82999998
-0.070299998 0.0133 0.83200002
-0.061799999 0.0134 0.83399999
-0.056000002 0.0134 0.83399999
-0.054499999 0.0134 0.833
-0.052999999 0.0133 0.83200002
-0.0515 0.0133 0.83200002
-0.050099999 0.0133 0.83200002
-0.048700001 0.0134 0.833
-0.047200002 0.0134 0.833
-0.0429 0.0134 0.833
-0.041499998 0.0134 0.833
-0.0385 0.0133 0.83200002
-0.037099998 0.0134 0.833
-0.035700001 0.0134 0.833
-0.034200002 0.0134 0.833
-0.0328 0.0134 0.833
-0.031399999 0.0134 0.83399999
-0.029999999 0.0134 0.83399999
-0.0285 0.0134 0.83399999
-0.027000001 0.0134 0.833
-0.018300001 0.0133 0.83200002
-0.016899999 0.0134 0.833
-0.0155 0.0134 0.833
-0.0141 0.0134 0.83499998
-0.0126 0.0134 0.83499998
-0.0073000002 0.0143 0.89399999
-0.0057999999 0.0144 0.89600003
-0.0041999999 0.0144 0.89499998
-0.0027000001 0.0143 0.89300001
-0.0011 0.0143 0.89399999
0.00039999999 0.0144 0.89499998
0.0020000001 0.0144 0.89600003
0.0035000001 0.0144 0.898
0.0051000002 0.0144 0.89700001
0.0066999998 0.0144 0.898
0.0082 0.0144 0.898
0.0098000001 0.0144 0.898
0.0113 0.0144 0.89700001
0.0128 0.0144 0.89499998
0.0144 0.0143 0.89399999
0.015900001 0.0143 0.89399999
0.0175 0.0143 0.89300001
0.018999999 0.0143 0.89200002
0.020500001 0.0143 0.89099997
0.022 0.0143 0.89099997
0.023600001 0.0143 0.89099997
0.0251 0.0143 0.89099997
0.026699999 0.0143 0.89200002
0.0283 0.0143 0.89200002
0.0298 0.0143 0.89300001
0.031500001 0.0144 0.89499998
0.033 0.0144 0.89600003
0.034699999 0.0144 0.898
0.0363 0.0144 0.89899999
0.037900001 0.0145 0.90100002
0.0396 0.0145 0.903
0.041200001 0.0145 0.90399998
0.042800002 0.0145 0.90499997
0.044300001 0.0145 0.90399998
0.0458 0.0145 0.90200001
0.047200002 0.0144 0.89999998
0.048700001 0.0144 0.898
0.050000001 0.0143 0.89399999
0.051399998 0.0143 0.89099997
0.052900001 0.0143 0.88999999
0.054299999 0.0142 0.88800001
0.055799998 0.0142 0.88700002
0.057399999 0.0142 0.88800001
0.059 0.0143 0.889
0.060699999 0.0143 0.89099997
0.0623 0.0143 0.89200002
0.063900001 0.0143 0.89300001
0.065399997 0.0143 0.89300001
0.067100003 0.0143 0.89399999
0.068700001 0.0144 0.89499998
0.070200004 0.0143 0.89399999
0.071400002 0.0143 0.88999999
0.072899997 0.0143 0.88999999
0.074600004 0.0143 0.89099997
0.076399997 0.0143 0.89399999
0.078100003 0.0144 0.89600003
0.079599999 0.0144 0.89600003
0.081200004 0.0144 0.89600003
0.0845 0.0144 0.898
0.086099997 0.0144 0.89899999
0.089100003 0.0144 0.898
0.090700001 0.0144 0.898
0.092299998 0.0144 0.898
0.093599997 0.0144 0.89600003
0.095100001 0.0144 0.89499998
0.096699998 0.0144 0.89600003
0.098499998 0.0144 0.898
0.1003 0.0144 0.89999998
0.1019 0.0145 0.90100002
0.1034 0.0144 0.89999998
0.1049 0.0144 0.89999998
0.1065 0.0144 0.89999998
0.1079 0.0144 0.89899999
0.1107 0.0144 0.89600003
0.1121 0.0144 0.89499998
0.1137 0.0144 0.89499998
0.1152 0.0144 0.89499998
0.1166 0.0143 0.89399999
0.1182 0.0143 0.89399999
0.1197 0.0143 0.89399999
0.1214 0.0144 0.89499998
0.1231 0.0144 0.89600003
0.1247 0.0144 0.89600003
0.12639999 0.0144 0.89700001
0.1279 0.0144 0.89700001
0.1295 0.0144 0.89700001
0.13240001 0.0144 0.89600003
0.13410001 0.0144 0.89700001
0.13600001 0.0144 0.89899999
0.13770001 0.0144 0.89999998
0.13940001 0.0145 0.90100002
0.14129999 0.0145 0.903
0.14300001 0.0145 0.90399998
0.1446 0.0145 0.90399998
0.146 0.0145 0.903
0.1472 0.0145 0.90100002
0.1486 0.0144 0.89999998
0.15000001 0.0144 0.89899999
0.15109999 0.0144 0.89600003
0.1524 0.0144 0.89499998
0.154 0.0144 0.89499998
0.15539999 0.0143 0.89399999
0.15710001 0.0144 0.89499998
0.1585 0.0143 0.89399999
0.15979999 0.0143 0.89300001
0.16140001 0.0143 0.89300001
0.16410001 0.0143 0.89099997
0.16580001 0.0143 0.89200002
0.16779999 0.0143 0.89399999
0.1697 0.0144 0.89600003
0.17200001 0.0144 0.89999998
0.17399999 0.0145 0.90200001
0.18449999 0.0144 0.89999998
0.1858 0.0144 0.89899999
0.1876 0.0144 0.89999998
0.1894 0.0145 0.90100002
-0.3969 0.0156 0.875
-0.3858 0.0154 0.86699998
-0.3678 0.0156 0.87800002
-0.36629999 0.0156 0.87800002
-0.35699999 0.015699999 0.88499999
-0.35420001 0.015699999 0.88200003
-0.3515 0.0156 0.87900001
-0.3488 0.0156 0.87599999
-0.34729999 0.0156 0.87599999
-0.34419999 0.0156 0.87599999
-0.34040001 0.0155 0.87400001
-0.33849999 0.0155 0.87300003
-0.33469999 0.0155 0.87099999
-0.3328 0.0155 0.87
-0.33129999 0.0155 0.87
-0.3294 0.0154 0.86900002
-0.32789999 0.0154 0.86900002
-0.32749999 0.0155 0.87199998
-0.32859999 0.0156 0.87900001
-0.32929999 0.015699999 0.88499999
-0.32890001 0.015799999 0.88800001
-0.3274 0.015799999 0.88800001
-0.32620001 0.015799999 0.889
-0.32429999 0.015799999 0.88800001
-0.32280001 0.015799999 0.88800001
-0.32120001 0.015799999 0.88800001
-0.26300001 0.015799999 0.889
-0.2615 0.015799999 0.889
-0.2597 0.015799999 0.88800001
-0.2581 0.015799999 0.88800001
-0.25659999 0.015799999 0.88800001
-0.255 0.015799999 0.88800001
-0.2489 0.015799999 0.88800001
-0.2476 0.015799999 0.889
-0.24609999 0.015799999 0.889
-0.24429999 0.015799999 0.88800001
-0.2422 0.015799999 0.88599998
-0.24089999 0.015799999 0.88700002
-0.2397 0.015799999 0.88800001
-0.23810001 0.015799999 0.88800001
-0.23630001 0.015799999 0.88700002
-0.23450001 0.015799999 0.88599998
-0.23270001 0.015699999 0.88499999
-0.23119999 0.015699999 0.88499999
-0.2296 0.015699999 0.88499999
-0.2279 0.015699999 0.884
-0.2261 0.015699999 0.88300002
-0.2245 0.015699999 0.88300002
-0.223 0.015699999 0.88300002
-0.22149999 0.015699999 0.88300002
-0.2202 0.015699999 0.884
-0.21870001 0.015699999 0.884
-0.21709999 0.015699999 0.884
-0.2156 0.015699999 0.884
-0.2141 0.015699999 0.884
-0.2123 0.015699999 0.88300002
-0.2105 0.015699999 0.88200003
-0.20900001 0.015699999 0.88200003
-0.2075 0.015699999 0.88200003
-0.2057 0.015699999 0.88099998
-0.2044 0.015699999 0.88200003
-0.2031 0.015699999 0.88300002
-0.2016 0.015699999 0.88300002
-0.20029999 0.015699999 0.884
-0.17749999 0.0147 0.82800001
-0.1763 0.0147 0.829
-0.1749 0.0147 0.829
-0.1732 0.0147 0.82800001
-0.1718 0.0147 0.82800001
-0.17039999 0.0147 0.82800001
-0.16869999 0.0147 0.82700002
-0.1671 0.0147 0.82599998
-0.1655 0.0147 0.82499999
-0.1638 0.0146 0.824
-0.1622 0.0146 0.82300001
-0.16060001 0.0146 0.82200003
-0.15880001 0.0146 0.81999999
-0.15719999 0.0146 0.81900001
-0.1557 0.0146 0.81900001
-0.15449999 0.0146 0.81999999
-0.15350001 0.0146 0.82200003
-0.1522 0.0146 0.82300001
-0.1512 0.0147 0.82499999
-0.15009999 0.0147 0.82700002
-0.1488 0.0147 0.82800001
-0.1472 0.0147 0.82700002
-0.14579999 0.0147 0.82700002
-0.1444 0.0147 0.82700002
-0.1429 0.0147 0.82700002
-0.1415 0.0147 0.82700002
-0.1401 0.0147 0.82700002
-0.1388 0.0147 0.82800001
-0.1375 0.0147 0.829
-0.13609999 0.0147 0.829
-0.1347 0.0147 0.829
-0.1331 0.0147 0.82800001
-0.13150001 0.0147 0.82700002
-0.12989999 0.0147 0.82599998
-0.1283 0.0147 0.82499999
-0.1269 0.0147 0.82499999
-0.12530001 0.0146 0.824
-0.124 0.0147 0.82499999
-0.1227 0.0147 0.82599998
-0.1213 0.0147 0.82599998
-0.12 0.0147 0.82700002
-0.1186 0.0147 0.82700002
-0.1171 0.0147 0.82700002
-0.1156 0.0147 0.82599998
-0.114 0.0147 0.82499999
-0.1126 0.0147 0.82499999
-0.1111 0.0147 0.82499999
-0.1097 0.0147 0.82499999
-0.1083 0.0147 0.82499999
-0.1067 0.0146 0.824
-0.1055 0.0147 0.82599998
-0.1042 0.0147 0.82700002
-0.1028 0.0147 0.82700002
-0.1014 0.0147 0.82700002
-0.0999 0.0147 0.82700002
-0.098499998 0.0147 0.82700002
-0.097199999 0.0147 0.82800001
-0.095700003 0.0147 0.82800001
-0.094300002 0.0147 0.82800001
-0.093000002 0.0147 0.829
-0.091399997 0.0147 0.82800001
-0.090000004 0.0147 0.82800001
-0.088799998 0.0148 0.82999998
-0.087300003 0.0148 0.82999998
-0.086000003 0.0148 0.83099997
-0.084600002 0.0148 0.83099997
-0.083099999 0.0148 0.83099997
-0.081699997 0.0148 0.83099997
-0.080200002 0.0148 0.82999998
-0.078599997 0.0147 0.829
-0.077100001 0.0147 0.82800001
-0.0757 0.0147 0.82800001
-0.074100003 0.0147 0.82700002
-0.072999999 0.0148 0.82999998
-0.071400002 0.0147 0.829
-0.067400001 0.0148 0.83200002
-0.065899998 0.0148 0.83200002
-0.064599998 0.0148 0.833
-0.063100003 0.0148 0.833
-0.061799999 0.0148 0.83399999
-0.0603 0.0148 0.83399999
-0.058899999 0.0148 0.83399999
-0.057399999 0.0148 0.83399999
-0.056000002 0.0148 0.83399999
-0.054400001 0.0148 0.83200002
-0.052900001 0.0148 0.83099997
-0.051399998 0.0148 0.83099997
-0.050000001 0.0148 0.83099997
-0.048599999 0.0148 0.83200002
-0.047200002 0.0148 0.83200002
-0.044399999 0.0148 0.833
-0.0429 0.0148 0.833
-0.041499998 0.0148 0.833
-0.039999999 0.0148 0.833
-0.038600001 0.0148 0.833
-0.037099998 0.0148 0.833
-0.035700001 0.0148 0.833
-0.034200002 0.0148 0.833
-0.0328 0.0148 0.83399999
-0.031399999 0.0148 0.83399999
-0.029999999 0.0148 0.83399999
-0.0285 0.0148 0.833
-0.027000001 0.0148 0.833
-0.018300001 0.0148 0.83200002
-0.016899999 0.0148 0.833
-0.0155 0.0148 0.833
-0.0141 0.0148 0.83399999
-0.0126 0.0148 0.83399999
-0.0112 0.0149 0.83600003
-0.0073000002 0.015900001 0.89300001
-0.0057999999 0.015900001 0.89499998
-0.0041999999 0.015900001 0.89499998
-0.0027000001 0.015900001 0.89499998
-0.0011 0.015900001 0.89600003
0.00039999999 0.015900001 0.89600003
0.0020000001 0.016000001 0.898
0.0035000001 0.016000001 0.898
0.0051000002 0.016000001 0.898
0.0066999998 0.016000001 0.89899999
0.0082 0.016000001 0.898
0.0098000001 0.016000001 0.898
0.0113 0.015900001 0.89600003
0.0128 0.015900001 0.89499998
0.0144 0.015900001 0.89399999
0.015900001 0.015900001 0.89300001
0.0174 0.015900001 0.89200002
0.018999999 0.015799999 0.89099997
0.020500001 0.015799999 0.89099997
0.022 0.015799999 0.88999999
0.023600001 0.015799999 0.88999999
0.0251 0.015799999 0.89099997
0.026699999 0.015900001 0.89200002
0.0283 0.015900001 0.89300001
0.029899999 0.015900001 0.89399999
0.031500001 0.015900001 0.89600003
0.033100002 0.015900001 0.89700001
0.034699999 0.016000001 0.89899999
0.0363 0.016000001 0.89999998
0.037900001 0.016000001 0.90100002
0.039500002 0.016000001 0.90200001
0.041099999 0.016100001 0.903
0.0427 0.016100001 0.90399998
0.044300001 0.016100001 0.903
0.045699999 0.016000001 0.90100002
0.047200002 0.016000001 0.89999998
0.048700001 0.016000001 0.898
0.050099999 0.015900001 0.89499998
0.051399998 0.015900001 0.89200002
0.052900001 0.015799999 0.88999999
0.054400001 0.015799999 0.88999999
0.055799998 0.015799999 0.88800001
0.057399999 0.015799999 0.88800001
0.059 0.015799999 0.889
0.060699999 0.015799999 0.89099997
0.0623 0.015900001 0.89200002
0.063900001 0.015900001 0.89300001
0.065499999 0.015900001 0.89399999
0.067100003 0.015900001 0.89499998
0.068800002 0.015900001 0.89600003
0.070200004 0.015900001 0.89499998
0.071599998 0.015900001 0.89300001
0.072999999 0.015799999 0.89099997
0.074699998 0.015900001 0.89300001
0.076300003 0.015900001 0.89300001
0.0779 0.015900001 0.89399999
0.079400003 0.015900001 0.89399999
0.081100002 0.015900001 0.89499998
0.082699999 0.015900001 0.89600003
0.084399998 0.015900001 0.89700001
0.086000003 0.016000001 0.898
0.0876 0.016000001 0.898
0.089100003 0.016000001 0.898
0.090599999 0.015900001 0.89700001
0.092200004 0.015900001 0.89700001
0.093599997 0.015900001 0.89600003
0.095200002 0.015900001 0.89600003
0.096900001 0.016000001 0.898
0.098700002 0.016000001 0.89999998
0.1004 0.016000001 0.90100002
0.1019 0.016000001 0.90100002
0.1035 0.016000001 0.90100002
0.1049 0.016000001 0.89999998
0.1065 0.016000001 0.89999998
0.1078 0.016000001 0.898
0.1093 0.015900001 0.89700001
0.1107 0.015900001 0.89600003
0.1121 0.015900001 0.89499998
0.1137 0.015900001 0.89499998
0.1152 0.015900001 0.89499998
0.1168 0.015900001 0.89499998
0.1183 0.015900001 0.89499998
0.12 0.015900001 0.89600003
0.1218 0.016000001 0.898
0.1237 0.016000001 0.89999998
0.1252 0.016000001 0.89999998
0.1268 0.016000001 0.89999998
0.1283 0.016000001 0.89999998
0.12980001 0.016000001 0.89899999
0.1312 0.016000001 0.898
0.13259999 0.015900001 0.89700001
0.13410001 0.015900001 0.89700001
0.1358 0.016000001 0.898
0.13770001 0.016000001 0.89999998
0.13940001 0.016000001 0.90100002
0.141 0.016000001 0.90100002
0.1428 0.016100001 0.903
0.1444 0.016100001 0.903
0.146 0.016100001 0.903
0.1472 0.016000001 0.90100002
0.1486 0.016000001 0.89999998
0.1498 0.016000001 0.898
0.15109999 0.015900001 0.89600003
0.1524 0.015900001 0.89499998
0.1538 0.015900001 0.89399999
0.1552 0.015900001 0.89300001
0.1569 0.015900001 0.89399999
0.1583 0.015900001 0.89300001
0.15970001 0.015900001 0.89200002
0.1628 0.015900001 0.89200002
0.16779999 0.015900001 0.89399999
0.1697 0.015900001 0.89600003
0.1716 0.016000001 0.898
0.17380001 0.016000001 0.90100002
0.17569999 0.016100001 0.903
0.1849 0.016000001 0.90200001
0.1858 0.016000001 0.89899999
0.1876 0.016000001 0.89999998
0.1892 0.016000001 0.89999998
-0.39359999 0.017000001 0.87099999
-0.39160001 0.017000001 0.87
-0.36809999 0.017100001 0.875
-0.3515 0.017100001 0.87900001
-0.3488 0.017100001 0.87599999
-0.34689999 0.017100001 0.875
-0.34529999 0.017100001 0.875
-0.34 0.017000001 0.87300003
-0.3362 0.017000001 0.87099999
-0.3339 0.017000001 0.86900002
-0.33199999 0.016899999 0.86799997
-0.33050001 0.016899999 0.86799997
-0.3283 0.016899999 0.866
-0.32679999 0.016899999 0.866
-0.32530001 0.017000001 0.87
-0.32710001 0.017100001 0.87900001
-0.32780001 0.0173 0.88499999
-0.32699999 0.0173 0.88700002
-0.32429999 0.0173 0.88800001
-0.32280001 0.0173 0.88800001
-0.32159999 0.0173 0.889
-0.26269999 0.0173 0.88800001
-0.25940001 0.0173 0.88700002
-0.25600001 0.0173 0.88599998
-0.2446 0.0173 0.889
-0.2412 0.0173 0.88800001
-0.2394 0.0173 0.88700002
-0.2379 0.0173 0.88700002
-0.23630001 0.0173 0.88700002
-0.23450001 0.0173 0.88599998
-0.2325 0.017200001 0.884
-0.2309 0.017200001 0.884
-0.2291 0.017200001 0.88300002
-0.2273 0.017200001 0.88200003
-0.22579999 0.017200001 0.88200003
-0.2243 0.017200001 0.88200003
-0.2225 0.017200001 0.88099998
-0.2212 0.017200001 0.88200003
-0.2199 0.017200001 0.88300002
-0.21870001 0.017200001 0.884
-0.21709999 0.017200001 0.884
-0.2156 0.017200001 0.884
-0.2138 0.017200001 0.88300002
-0.21250001 0.017200001 0.884
-0.21080001 0.017200001 0.88300002
-0.20919999 0.017200001 0.88300002
-0.2075 0.017200001 0.88200003
-0.2059 0.017200001 0.88200003
-0.2049 0.017200001 0.884
-0.2033 0.017200001 0.884
-0.17730001 0.016100001 0.82700002
-0.1761 0.0162 0.82800001
-0.1749 0.0162 0.829
-0.1734 0.0162 0.829
-0.17200001 0.0162 0.829
-0.1706 0.0162 0.829
