# .PCD v0.7 - Point Cloud Data file format
VERSION 0.7
FIELDS x y z
SIZE 4 4 4
TYPE F F F
COUNT 1 1 1
WIDTH 1493
HEIGHT 1
VIEWPOINT 0 0 0 1 0 0 0
POINTS 1493
DATA ascii
-0.1727 -0.062399998 0.884
-0.1708 -0.0623 0.88200003
-0.1488 -0.058499999 0.82800001
-0.1469 -0.0583 0.82499999
-0.1451 -0.0581 0.82300001
-0.1433 -0.057999998 0.82099998
-0.1417 -0.0579 0.81999999
-0.14030001 -0.0579 0.81999999
-0.1392 -0.057999998 0.82200003
-0.1381 -0.058200002 0.824
-0.1367 -0.058200002 0.824
-0.1353 -0.058200002 0.824
-0.1338 -0.058200002 0.824
-0.13259999 -0.0583 0.82499999
-0.1311 -0.0583 0.82499999
-0.12989999 -0.0583 0.82599998
-0.1284 -0.0583 0.82599998
-0.1221 -0.0616 0.87300003
-0.1201 -0.0614 0.86900002
-0.1183 -0.0612 0.86699998
-0.1168 -0.0612 0.86699998
-0.1153 -0.0612 0.86699998
-0.1137 -0.061099999 0.866
-0.1122 -0.061099999 0.866
-0.1106 -0.061099999 0.866
-0.1094 -0.061299998 0.86799997
-0.108 -0.0614 0.86900002
-0.1069 -0.0616 0.87199998
-0.1059 -0.061900001 0.87599999
-0.1047 -0.062100001 0.87900001
-0.1034 -0.062199999 0.88099998
-0.102 -0.0623 0.88200003
-0.1006 -0.062399998 0.88300002
-0.099200003 -0.062399998 0.884
-0.0977 -0.0625 0.88499999
-0.096299998 -0.062600002 0.88599998
-0.094899997 -0.062600002 0.88700002
-0.0933 -0.062600002 0.88700002
-0.091899998 -0.062700003 0.88800001
-0.088799998 -0.062700003 0.88800001
-0.087300003 -0.062700003 0.88800001
-0.085900001 -0.062799998 0.889
-0.084299996 -0.062799998 0.889
-0.082699999 -0.062700003 0.88800001
-0.081100002 -0.062700003 0.88800001
-0.079599999 -0.062700003 0.88800001
-0.078100003 -0.062700003 0.88800001
-0.076399997 -0.062600002 0.88700002
-0.074900001 -0.062600002 0.88700002
-0.073399998 -0.062600002 0.88700002
-0.070299998 -0.062600002 0.88700002
-0.067199998 -0.062600002 0.88700002
-0.065700002 -0.062600002 0.88700002
-0.064199999 -0.062700003 0.88800001
-0.062799998 -0.062799998 0.88999999
-0.061299998 -0.062899999 0.89099997
-0.059799999 -0.062899999 0.89099997
-0.0583 -0.062899999 0.89099997
-0.056600001 -0.062799998 0.88999999
-0.055100001 -0.062799998 0.88999999
-0.0535 -0.062799998 0.889
-0.051800001 -0.062600002 0.88700002
-0.0502 -0.062600002 0.88599998
-0.048799999 -0.062600002 0.88700002
-0.047200002 -0.062600002 0.88700002
-0.045600001 -0.062600002 0.88599998
-0.044100001 -0.0625 0.88499999
-0.0425 -0.0625 0.88499999
-0.041000001 -0.0625 0.88499999
-0.039500002 -0.0625 0.88499999
-0.028999999 -0.063199997 0.89499998
-0.0274 -0.063100003 0.89300001
-0.025800001 -0.062899999 0.89099997
-0.0243 -0.062799998 0.88999999
-0.015 -0.062899999 0.89099997
-0.0135 -0.063000001 0.89200002
-0.0119 -0.062899999 0.89099997
-0.0104 -0.062899999 0.89099997
-0.0088 -0.062899999 0.89099997
-0.0073000002 -0.062899999 0.89099997
-0.0057000001 -0.062899999 0.89099997
-0.0041999999 -0.063000001 0.89200002
-0.0027000001 -0.063000001 0.89200002
-0.0011 -0.063100003 0.89300001
0.00039999999 -0.063000001 0.89200002
0.0020000001 -0.062899999 0.89099997
0.0066 -0.062799998 0.88999999
0.0081000002 -0.062799998 0.889
0.0097000003 -0.062799998 0.889
0.0112 -0.062799998 0.889
0.0128 -0.062799998 0.88999999
0.0143 -0.062799998 0.88999999
0.015900001 -0.062799998 0.88999999
0.0174 -0.062799998 0.88999999
0.0189 -0.062799998 0.88999999
0.020500001 -0.062799998 0.889
0.022 -0.062799998 0.889
0.023499999 -0.062700003 0.88800001
0.0251 -0.062799998 0.88999999
0.0266 -0.062799998 0.88999999
0.028200001 -0.062799998 0.88999999
0.0297 -0.062799998 0.88999999
0.031300001 -0.062899999 0.89099997
0.032900002 -0.063000001 0.89200002
0.034400001 -0.063000001 0.89200002
0.0359 -0.062899999 0.89099997
0.037500001 -0.062899999 0.89099997
0.039099999 -0.063000001 0.89200002
0.040600002 -0.063000001 0.89200002
0.042199999 -0.063000001 0.89200002
0.0438 -0.063100003 0.89300001
0.045400001 -0.063100003 0.89399999
0.046999998 -0.063199997 0.89499998
0.050000001 -0.063100003 0.89300001
0.0515 -0.063100003 0.89300001
0.053100001 -0.063100003 0.89300001
0.054499999 -0.062899999 0.89099997
0.056000002 -0.062799998 0.88999999
0.057399999 -0.062799998 0.889
0.071199998 -0.062700003 0.88800001
0.072800003 -0.062700003 0.88800001
0.074299999 -0.062700003 0.88800001
0.075800002 -0.062700003 0.88800001
0.077399999 -0.062700003 0.88800001
0.078900002 -0.062700003 0.88800001
0.080499999 -0.062799998 0.889
0.082099997 -0.062799998 0.889
0.083700001 -0.062799998 0.88999999
0.085299999 -0.062799998 0.88999999
0.086800002 -0.062799998 0.88999999
0.088399999 -0.062899999 0.89099997
0.090000004 -0.062899999 0.89099997
0.091499999 -0.062899999 0.89099997
0.093099996 -0.062899999 0.89099997
0.094499998 -0.062799998 0.88999999
0.096100003 -0.062799998 0.88999999
0.097599998 -0.062799998 0.88999999
0.099100001 -0.062799998 0.88999999
0.1008 -0.062899999 0.89099997
0.1023 -0.062899999 0.89099997
0.1041 -0.063100003 0.89300001
0.1059 -0.063199997 0.89499998
0.1075 -0.063199997 0.89499998
0.109 -0.063199997 0.89499998
0.1104 -0.063100003 0.89399999
0.1119 -0.063100003 0.89300001
0.1132 -0.062899999 0.89099997
0.1146 -0.062799998 0.88999999
0.1161 -0.062799998 0.88999999
0.1175 -0.062799998 0.889
0.1189 -0.062700003 0.88800001
0.1205 -0.062700003 0.88800001
0.122 -0.062700003 0.88800001
0.1237 -0.062799998 0.889
0.1252 -0.062799998 0.889
0.1268 -0.062799998 0.889
0.12819999 -0.062700003 0.88800001
0.12989999 -0.062799998 0.889
0.13150001 -0.062799998 0.88999999
0.1331 -0.062799998 0.88999999
0.1346 -0.062799998 0.88999999
0.1362 -0.062799998 0.88999999
0.13770001 -0.062799998 0.88999999
0.1393 -0.062799998 0.88999999
0.1406 -0.062799998 0.889
0.142 -0.062700003 0.88800001
0.1434 -0.062600002 0.88700002
0.1446 -0.0625 0.88499999
0.146 -0.062399998 0.884
0.1472 -0.0623 0.88200003
0.14839999 -0.062100001 0.88
0.1495 -0.061999999 0.87800002
0.1507 -0.061900001 0.87599999
0.1529 -0.062100001 0.88
0.15549999 -0.062600002 0.88599998
0.1574 -0.062700003 0.88800001
0.1593 -0.062799998 0.88999999
0.1608 -0.062799998 0.88999999
0.16240001 -0.062799998 0.88999999
0.1639 -0.062799998 0.88999999
0.1657 -0.062899999 0.89099997
0.1672 -0.062899999 0.89099997
0.16869999 -0.062899999 0.89099997
0.17030001 -0.062899999 0.89099997
0.17219999 -0.063100003 0.89300001
0.1742 -0.063199997 0.89499998
0.17569999 -0.063199997 0.89499998
0.1777 -0.063299999 0.89700001
0.17900001 -0.063299999 0.89600003
0.18179999 -0.063699998 0.90200001
-0.4034 -0.0594 0.86299998
-0.40149999 -0.0594 0.86199999
-0.39950001 -0.059300002 0.861
-0.3989 -0.0594 0.86299998
-0.38139999 -0.059500001 0.86400002
-0.3612 -0.0601 0.87300003
-0.35929999 -0.0601 0.87199998
-0.31819999 -0.060899999 0.884
-0.31670001 -0.060899999 0.884
-0.2299 -0.061000001 0.88599998
-0.2281 -0.061000001 0.88499999
-0.2263 -0.060899999 0.884
-0.2243 -0.060800001 0.88200003
-0.22220001 -0.060600001 0.88
-0.221 -0.060699999 0.88099998
-0.2192 -0.060600001 0.88
-0.2174 -0.0605 0.87900001
-0.2157 -0.0605 0.87800002
-0.21439999 -0.0605 0.87900001
-0.2133 -0.060699999 0.88099998
-0.21179999 -0.060699999 0.88099998
-0.2105 -0.060800001 0.88200003
-0.20919999 -0.060800001 0.88300002
-0.2079 -0.060899999 0.884
-0.2066 -0.061000001 0.88499999
-0.20559999 -0.061099999 0.88700002
-0.204 -0.061099999 0.88700002
-0.2027 -0.0612 0.88800001
-0.2014 -0.0612 0.889
-0.18359999 -0.061000001 0.88499999
-0.18189999 -0.060899999 0.884
-0.1804 -0.060899999 0.884
-0.1788 -0.060899999 0.884
-0.1758 -0.060899999 0.884
-0.1742 -0.060899999 0.884
-0.1727 -0.060899999 0.884
-0.1708 -0.060800001 0.88200003
-0.1683 -0.060400002 0.87699997
-0.1656 -0.059999999 0.87099999
-0.1488 -0.057 0.82800001
-0.1469 -0.0568 0.82499999
-0.14489999 -0.056600001 0.82200003
-0.1433 -0.056499999 0.82099998
-0.1417 -0.056499999 0.81999999
-0.1401 -0.056400001 0.81900001
-0.139 -0.056499999 0.82099998
-0.13779999 -0.056600001 0.82200003
-0.1364 -0.056600001 0.82200003
-0.13510001 -0.056699999 0.82300001
-0.1338 -0.0568 0.824
-0.13259999 -0.0568 0.82499999
-0.1313 -0.056899998 0.82599998
-0.12989999 -0.056899998 0.82599998
-0.1284 -0.056899998 0.82599998
-0.12720001 -0.057 0.82700002
-0.126 -0.057100002 0.829
-0.1197 -0.057500001 0.83499998
-0.1187 -0.057700001 0.838
-0.1177 -0.0579 0.84100002
-0.1166 -0.0581 0.84399998
-0.116 -0.058499999 0.85000002
-0.116 -0.059300002 0.861
-0.1146 -0.0594 0.86199999
-0.1101 -0.0594 0.86199999
-0.1065 -0.059900001 0.86900002
-0.1055 -0.0601 0.87300003
-0.1045 -0.060400002 0.87699997
-0.1032 -0.0605 0.87900001
-0.1019 -0.060699999 0.88099998
-0.1006 -0.060800001 0.88300002
-0.099200003 -0.060899999 0.884
-0.097599998 -0.060899999 0.884
-0.096199997 -0.061000001 0.88499999
-0.094899997 -0.061099999 0.88700002
-0.0933 -0.061099999 0.88700002
-0.088699996 -0.061099999 0.88700002
-0.087300003 -0.0612 0.88800001
-0.0858 -0.0612 0.88800001
-0.084200002 -0.0612 0.88800001
-0.082699999 -0.0612 0.88800001
-0.081100002 -0.0612 0.88800001
-0.079599999 -0.0612 0.88800001
-0.078100003 -0.0612 0.88800001
-0.076399997 -0.061099999 0.88700002
-0.074900001 -0.061099999 0.88700002
-0.073399998 -0.061099999 0.88700002
-0.0704 -0.0612 0.88800001
-0.068800002 -0.061099999 0.88700002
-0.067199998 -0.061099999 0.88700002
-0.065700002 -0.061099999 0.88700002
-0.062799998 -0.061299998 0.88999999
-0.061299998 -0.0614 0.89099997
-0.059700001 -0.061299998 0.88999999
-0.058200002 -0.061299998 0.88999999
-0.056600001 -0.061299998 0.88999999
-0.055100001 -0.061299998 0.88999999
-0.0535 -0.0612 0.889
-0.051800001 -0.061099999 0.88700002
-0.050299998 -0.061099999 0.88700002
-0.048799999 -0.0612 0.88800001
-0.0473 -0.0612 0.88800001
-0.045699999 -0.0612 0.88800001
-0.044199999 -0.061099999 0.88700002
-0.042599998 -0.061000001 0.88599998
-0.0306 -0.0616 0.89499998
-0.028999999 -0.0616 0.89499998
-0.0274 -0.061500002 0.89300001
-0.025800001 -0.0614 0.89099997
-0.0243 -0.061299998 0.88999999
-0.015 -0.061299998 0.88999999
-0.0135 -0.061299998 0.88999999
-0.0119 -0.061299998 0.88999999
-0.0104 -0.061299998 0.88999999
-0.0088 -0.061299998 0.88999999
-0.0073000002 -0.061299998 0.88999999
-0.0057000001 -0.061299998 0.88999999
-0.0041999999 -0.0614 0.89099997
-0.0027000001 -0.0614 0.89099997
-0.0011 -0.0614 0.89099997
0.00039999999 -0.0614 0.89099997
0.0020000001 -0.0614 0.89099997
0.0035000001 -0.061299998 0.88999999
0.0051000002 -0.0614 0.89099997
0.0066 -0.0614 0.89099997
0.0081000002 -0.061299998 0.88999999
0.0097000003 -0.0612 0.889
0.0112 -0.061299998 0.88999999
0.0128 -0.0614 0.89099997
0.0143 -0.0614 0.89099997
0.015900001 -0.0614 0.89099997
0.0174 -0.061299998 0.88999999
0.018999999 -0.0614 0.89099997
0.020500001 -0.061299998 0.88999999
0.022 -0.061299998 0.88999999
0.023499999 -0.061099999 0.88700002
0.0251 -0.0612 0.889
0.0266 -0.061299998 0.88999999
0.028200001 -0.061299998 0.88999999
0.0297 -0.061299998 0.88999999
0.031300001 -0.0614 0.89099997
0.032900002 -0.061500002 0.89300001
0.034499999 -0.061500002 0.89300001
0.035999998 -0.061500002 0.89300001
0.037599999 -0.061500002 0.89300001
0.039099999 -0.061500002 0.89300001
0.0407 -0.061500002 0.89300001
0.042199999 -0.061500002 0.89300001
0.0438 -0.061500002 0.89300001
0.045400001 -0.0616 0.89499998
0.046999998 -0.0616 0.89499998
0.048500001 -0.0616 0.89499998
0.050000001 -0.0616 0.89399999
0.0515 -0.061500002 0.89300001
0.052999999 -0.0614 0.89200002
0.054400001 -0.061299998 0.88999999
0.056000002 -0.061299998 0.88999999
0.057500001 -0.061299998 0.88999999
0.072800003 -0.0612 0.88800001
0.074299999 -0.0612 0.88800001
0.075800002 -0.0612 0.88800001
0.077399999 -0.0612 0.88800001
0.078900002 -0.0612 0.88800001
0.080499999 -0.0612 0.889
0.082199998 -0.061299998 0.88999999
0.083800003 -0.0614 0.89099997
0.085500002 -0.0614 0.89200002
0.086900003 -0.0614 0.89099997
0.088600002 -0.061500002 0.89300001
0.0902 -0.061500002 0.89300001
0.091700003 -0.061500002 0.89300001
0.093099996 -0.0614 0.89099997
0.094499998 -0.061299998 0.88999999
0.095799997 -0.0612 0.88800001
0.097499996 -0.0612 0.889
0.099100001 -0.061299998 0.88999999
0.1007 -0.061299998 0.88999999
0.1023 -0.0614 0.89099997
0.104 -0.0614 0.89200002
0.1058 -0.0616 0.89399999
0.1075 -0.0616 0.89499998
0.109 -0.0616 0.89499998
0.1104 -0.0616 0.89399999
0.1119 -0.061500002 0.89300001
0.1132 -0.0614 0.89099997
0.1147 -0.0614 0.89099997
0.1161 -0.061299998 0.88999999
0.1177 -0.061299998 0.88999999
0.1192 -0.061299998 0.88999999
0.1207 -0.061299998 0.88999999
0.1223 -0.061299998 0.88999999
0.1238 -0.061299998 0.88999999
0.12540001 -0.061299998 0.88999999
0.1268 -0.0612 0.889
0.12819999 -0.0612 0.88800001
0.12989999 -0.0612 0.889
0.13150001 -0.061299998 0.88999999
0.1331 -0.061299998 0.88999999
0.1346 -0.061299998 0.88999999
0.13600001 -0.0612 0.889
0.13770001 -0.061299998 0.88999999
0.1391 -0.0612 0.889
0.1406 -0.0612 0.889
0.142 -0.0612 0.88800001
0.1436 -0.0612 0.88800001
0.14489999 -0.061099999 0.88700002
0.1461 -0.061000001 0.88499999
0.14749999 -0.060899999 0.884
0.1489 -0.060800001 0.88300002
0.15019999 -0.060800001 0.88200003
0.15180001 -0.060800001 0.88200003
0.15350001 -0.060800001 0.88300002
0.15549999 -0.061000001 0.88599998
0.1574 -0.0612 0.88800001
0.15889999 -0.0612 0.88800001
0.1605 -0.0612 0.88800001
0.162 -0.0612 0.88800001
0.1637 -0.0612 0.889
0.1655 -0.061299998 0.88999999
0.1707 -0.061500002 0.89300001
0.1726 -0.0616 0.89499998
0.1745 -0.061799999 0.89700001
0.1761 -0.061799999 0.89700001
0.17829999 -0.061999999 0.89999998
0.18000001 -0.062100001 0.90100002
0.18279999 -0.0625 0.90700001
-0.40830001 -0.058200002 0.86699998
-0.40099999 -0.057799999 0.861
-0.39809999 -0.057599999 0.85799998
-0.3971 -0.057700001 0.85900003
-0.3951 -0.057599999 0.85799998
-0.38339999 -0.0581 0.86500001
-0.38139999 -0.057999998 0.86400002
-0.37990001 -0.057999998 0.86400002
-0.37689999 -0.057999998 0.86400002
-0.37540001 -0.057999998 0.86400002
-0.34720001 -0.058600001 0.87199998
-0.3439 -0.059 0.87900001
-0.31979999 -0.0594 0.884
-0.2332 -0.059599999 0.88700002
-0.2299 -0.059500001 0.88599998
-0.2263 -0.0594 0.884
-0.2243 -0.0592 0.88200003
-0.22220001 -0.059099998 0.88
-0.22050001 -0.059 0.87900001
-0.21870001 -0.059 0.87800002
-0.2167 -0.058800001 0.87599999
-0.21520001 -0.058800001 0.87599999
-0.2139 -0.058899999 0.87699997
-0.2129 -0.059 0.87900001
-0.21160001 -0.059099998 0.88
-0.20900001 -0.0592 0.88200003
-0.2079 -0.0594 0.884
-0.2066 -0.0594 0.88499999
-0.2051 -0.0594 0.88499999
-0.20379999 -0.059500001 0.88599998
-0.2027 -0.059599999 0.88800001
-0.20119999 -0.059599999 0.88800001
-0.18340001 -0.0594 0.884
-0.18189999 -0.0594 0.884
-0.1802 -0.059300002 0.88300002
-0.1786 -0.059300002 0.88300002
-0.1771 -0.059300002 0.88300002
-0.17560001 -0.059300002 0.88300002
-0.17399999 -0.059300002 0.88300002
-0.1723 -0.0592 0.88200003
-0.1706 -0.0592 0.88099998
-0.1681 -0.058800001 0.87599999
-0.1656 -0.058499999 0.87099999
-0.1505 -0.0557 0.829
-0.1487 -0.055500001 0.82700002
-0.14669999 -0.055300001 0.824
-0.14470001 -0.055100001 0.82099998
-0.14309999 -0.055100001 0.81999999
-0.1415 -0.055 0.81900001
-0.1401 -0.055 0.81900001
-0.1389 -0.055100001 0.81999999
-0.1376 -0.055100001 0.82099998
-0.1364 -0.055199999 0.82200003
-0.1349 -0.055199999 0.82200003
-0.1337 -0.055300001 0.82300001
-0.13240001 -0.055300001 0.824
-0.1311 -0.055399999 0.82499999
-0.12989999 -0.055500001 0.82599998
-0.1284 -0.055500001 0.82599998
-0.12729999 -0.055599999 0.82800001
-0.12620001 -0.0557 0.82999998
-0.1251 -0.0559 0.83200002
-0.1238 -0.0559 0.833
-0.1225 -0.056000002 0.83399999
-0.121 -0.056000002 0.83399999
-0.1171 -0.056200001 0.83700001
-0.1158 -0.056299999 0.838
-0.1147 -0.056499999 0.84100002
-0.1142 -0.056899998 0.84799999
-0.1134 -0.057300001 0.85299999
-0.1062 -0.057300001 0.85399997
-0.1054 -0.057700001 0.86000001
-0.1049 -0.0583 0.86799997
-0.104 -0.058600001 0.87300003
-0.1031 -0.059 0.87800002
-0.102 -0.0592 0.88200003
-0.1005 -0.0592 0.88200003
-0.099200003 -0.0594 0.884
-0.097599998 -0.0594 0.884
-0.096199997 -0.0594 0.88499999
-0.094899997 -0.059599999 0.88700002
-0.0933 -0.059599999 0.88700002
-0.091799997 -0.059599999 0.88700002
-0.090300001 -0.059599999 0.88700002
-0.088699996 -0.059599999 0.88700002
-0.087300003 -0.059599999 0.88800001
-0.0858 -0.059599999 0.88800001
-0.084200002 -0.059599999 0.88800001
-0.082699999 -0.059599999 0.88800001
-0.081100002 -0.059599999 0.88800001
-0.079599999 -0.059599999 0.88800001
-0.078100003 -0.059599999 0.88800001
-0.074900001 -0.059599999 0.88700002
-0.071800001 -0.059599999 0.88700002
-0.070299998 -0.059599999 0.88700002
-0.068800002 -0.059599999 0.88700002
-0.067199998 -0.059599999 0.88700002
-0.065700002 -0.059599999 0.88700002
-0.064199999 -0.059599999 0.88800001
-0.062700003 -0.059700001 0.889
-0.059700001 -0.059799999 0.88999999
-0.056600001 -0.059799999 0.88999999
-0.055100001 -0.059799999 0.88999999
-0.0535 -0.059700001 0.889
-0.051899999 -0.059599999 0.88800001
-0.050299998 -0.059599999 0.88700002
-0.048799999 -0.059599999 0.88800001
-0.0473 -0.059700001 0.889
-0.0458 -0.059700001 0.889
-0.044199999 -0.059599999 0.88800001
-0.042599998 -0.059599999 0.88700002
-0.032000002 -0.059799999 0.89099997
-0.0306 -0.0601 0.89499998
-0.029100001 -0.060199998 0.89600003
-0.0275 -0.0601 0.89499998
-0.025800001 -0.059799999 0.89099997
-0.022700001 -0.059799999 0.88999999
-0.0196 -0.059700001 0.889
-0.018100001 -0.059700001 0.889
-0.0165 -0.059599999 0.88800001
-0.015 -0.059700001 0.889
-0.0134 -0.059700001 0.889
-0.0119 -0.059599999 0.88800001
-0.0103 -0.059599999 0.88800001
-0.0088 -0.059700001 0.889
-0.0073000002 -0.059799999 0.88999999
-0.0057000001 -0.059799999 0.88999999
-0.0041999999 -0.059799999 0.88999999
-0.0027000001 -0.059799999 0.89099997
-0.0011 -0.059799999 0.89099997
0.00039999999 -0.059799999 0.89099997
0.0020000001 -0.059799999 0.89099997
0.0035000001 -0.059799999 0.88999999
0.0051000002 -0.059799999 0.88999999
0.0066 -0.059799999 0.88999999
0.0081000002 -0.059799999 0.88999999
0.0097000003 -0.059700001 0.889
0.0112 -0.059799999 0.88999999
0.0128 -0.059799999 0.89099997
0.0143 -0.059799999 0.89099997
0.0174 -0.059799999 0.89099997
0.018999999 -0.059799999 0.89099997
0.020500001 -0.059799999 0.89099997
0.022 -0.059799999 0.88999999
0.023499999 -0.059599999 0.88800001
0.0251 -0.059599999 0.88800001
0.0266 -0.059599999 0.88800001
0.028100001 -0.059599999 0.88800001
0.0297 -0.059799999 0.88999999
0.031300001 -0.059799999 0.88999999
0.032900002 -0.059900001 0.89200002
0.034499999 -0.059999999 0.89300001
0.035999998 -0.059999999 0.89300001
0.037599999 -0.059999999 0.89300001
0.039099999 -0.059999999 0.89300001
0.0407 -0.059999999 0.89300001
0.042199999 -0.059999999 0.89300001
0.0438 -0.059999999 0.89300001
0.045400001 -0.059999999 0.89399999
0.0469 -0.059999999 0.89399999
0.0484 -0.059999999 0.89300001
0.050000001 -0.059999999 0.89300001
0.0515 -0.059999999 0.89300001
0.052900001 -0.059799999 0.89099997
0.054499999 -0.059799999 0.89099997
0.056000002 -0.059799999 0.88999999
0.057500001 -0.059799999 0.88999999
0.058899999 -0.059599999 0.88800001
0.074299999 -0.059599999 0.88800001
0.075900003 -0.059700001 0.889
0.077399999 -0.059599999 0.88800001
0.079000004 -0.059700001 0.889
0.080499999 -0.059700001 0.889
0.082199998 -0.059799999 0.88999999
0.083800003 -0.059799999 0.89099997
0.0854 -0.059799999 0.89099997
0.086900003 -0.059799999 0.89099997
0.088600002 -0.059999999 0.89300001
0.090400003 -0.0601 0.89499998
0.091899998 -0.0601 0.89499998
0.094599999 -0.059799999 0.89099997
0.099100001 -0.059799999 0.88999999
0.1006 -0.059700001 0.889
0.1021 -0.059700001 0.889
0.1038 -0.059799999 0.88999999
0.1057 -0.059999999 0.89300001
0.1075 -0.0601 0.89499998
0.1089 -0.059999999 0.89399999
0.1103 -0.059999999 0.89300001
0.1119 -0.059999999 0.89300001
0.1134 -0.059999999 0.89300001
0.115 -0.059999999 0.89300001
0.1162 -0.059799999 0.89099997
0.1178 -0.059799999 0.89099997
0.1192 -0.059799999 0.88999999
0.1207 -0.059799999 0.88999999
0.1221 -0.059700001 0.889
0.1235 -0.059599999 0.88800001
0.1251 -0.059599999 0.88800001
0.1266 -0.059599999 0.88800001
0.12800001 -0.059599999 0.88700002
0.12970001 -0.059599999 0.88800001
0.1312 -0.059599999 0.88800001
0.1331 -0.059799999 0.88999999
0.1346 -0.059799999 0.88999999
0.1362 -0.059799999 0.88999999
0.13770001 -0.059799999 0.88999999
0.1393 -0.059799999 0.88999999
0.1408 -0.059799999 0.88999999
0.14229999 -0.059799999 0.88999999
0.14390001 -0.059799999 0.88999999
0.1451 -0.059599999 0.88800001
0.14659999 -0.059599999 0.88800001
0.148 -0.059599999 0.88700002
0.14920001 -0.0594 0.88499999
0.1507 -0.0594 0.88499999
0.1521 -0.0594 0.884
0.15360001 -0.0594 0.884
0.15530001 -0.0594 0.88499999
0.15710001 -0.059500001 0.88599998
0.15880001 -0.059599999 0.88700002
0.1605 -0.059599999 0.88800001
0.162 -0.059599999 0.88800001
0.1636 -0.059599999 0.88800001
0.17219999 -0.059999999 0.89300001
0.1744 -0.060199998 0.89600003
0.1761 -0.060199998 0.89700001
0.17839999 -0.0605 0.90100002
0.18099999 -0.060800001 0.90600002
0.18359999 -0.0612 0.91100001
-0.3829 -0.056499999 0.86400002
-0.38100001 -0.056499999 0.86299998
-0.37540001 -0.056499999 0.86400002
-0.3389 -0.057399999 0.87800002
-0.3193 -0.057999998 0.88700002
-0.2281 -0.0579 0.88499999
-0.2263 -0.057799999 0.884
-0.2243 -0.057700001 0.88200003
-0.2217 -0.057399999 0.87800002
-0.2202 -0.057399999 0.87800002
-0.21799999 -0.0572 0.875
-0.21619999 -0.0572 0.87400001
-0.2147 -0.0572 0.87400001
-0.21340001 -0.0572 0.875
-0.2124 -0.057399999 0.87699997
-0.2113 -0.057500001 0.87900001
-0.2098 -0.057500001 0.87900001
-0.2088 -0.057599999 0.88099998
-0.2075 -0.057700001 0.88200003
-0.20640001 -0.057799999 0.884
-0.2049 -0.057799999 0.884
-0.2036 -0.0579 0.88499999
-0.2025 -0.057999998 0.88700002
-0.20119999 -0.0581 0.88800001
-0.1996 -0.0581 0.88800001
-0.18340001 -0.057799999 0.884
-0.18189999 -0.057799999 0.884
-0.1804 -0.057799999 0.884
-0.1788 -0.057799999 0.884
-0.17730001 -0.057799999 0.884
-0.1758 -0.057799999 0.884
-0.1742 -0.057799999 0.884
-0.1725 -0.057799999 0.88300002
-0.1706 -0.057599999 0.88099998
-0.1681 -0.057300001 0.87599999
-0.1505 -0.054200001 0.829
-0.1485 -0.054000001 0.82599998
-0.14650001 -0.053800002 0.82300001
-0.1446 -0.053599998 0.81999999
-0.14300001 -0.053599998 0.81900001
-0.1415 -0.053599998 0.81900001
-0.1389 -0.053599998 0.81999999
-0.1376 -0.0537 0.82099998
-0.1364 -0.053800002 0.82200003
-0.13510001 -0.053800002 0.82300001
-0.1338 -0.0539 0.824
-0.13240001 -0.0539 0.824
-0.1311 -0.054000001 0.82499999
-0.12989999 -0.054000001 0.82599998
-0.1286 -0.054099999 0.82700002
-0.1275 -0.054200001 0.829
-0.12630001 -0.054400001 0.83099997
-0.1251 -0.054400001 0.83200002
-0.1239 -0.0546 0.83399999
-0.1226 -0.0546 0.83499998
-0.1212 -0.0546 0.83499998
-0.1197 -0.0546 0.83499998
-0.1183 -0.0546 0.83499998
-0.1167 -0.0546 0.83399999
-0.1152 -0.0546 0.83399999
-0.1137 -0.054499999 0.833
-0.1123 -0.0546 0.83399999
-0.1126 -0.055399999 0.847
-0.1043 -0.0557 0.85100001
-0.1026 -0.0572 0.87400001
-0.1016 -0.057500001 0.87900001
-0.1004 -0.057599999 0.88099998
-0.098999999 -0.057799999 0.88300002
-0.0977 -0.0579 0.88499999
-0.096299998 -0.057999998 0.88599998
-0.094999999 -0.0581 0.88800001
-0.093500003 -0.0581 0.88800001
-0.092 -0.058200002 0.889
-0.090499997 -0.058200002 0.889
-0.088799998 -0.0581 0.88800001
-0.087300003 -0.0581 0.88800001
-0.0858 -0.0581 0.88800001
-0.084200002 -0.0581 0.88800001
-0.082699999 -0.0581 0.88800001
-0.081100002 -0.0581 0.88800001
-0.079599999 -0.0581 0.88800001
-0.078100003 -0.0581 0.88800001
-0.076499999 -0.0581 0.88800001
-0.073399998 -0.057999998 0.88700002
-0.071900003 -0.0581 0.88800001
-0.0704 -0.0581 0.88800001
-0.068800002 -0.057999998 0.88700002
-0.067199998 -0.057999998 0.88700002
-0.065700002 -0.057999998 0.88700002
-0.064199999 -0.0581 0.88800001
-0.062700003 -0.0581 0.88800001
-0.0612 -0.058200002 0.889
-0.059700001 -0.058200002 0.889
-0.0581 -0.058200002 0.889
-0.056600001 -0.058200002 0.889
-0.055100001 -0.058200002 0.88999999
-0.0535 -0.058200002 0.889
-0.051800001 -0.057999998 0.88700002
-0.050299998 -0.057999998 0.88700002
-0.048799999 -0.0581 0.88800001
-0.0473 -0.058200002 0.889
-0.045699999 -0.0581 0.88800001
-0.044199999 -0.0581 0.88800001
-0.037900001 -0.0579 0.88499999
-0.0363 -0.057799999 0.884
-0.034899998 -0.0579 0.88499999
-0.033300001 -0.0579 0.88499999
-0.0319 -0.057999998 0.88700002
-0.030400001 -0.0581 0.88800001
-0.0288 -0.058200002 0.889
-0.0243 -0.058200002 0.88999999
-0.022700001 -0.058200002 0.88999999
-0.021199999 -0.058200002 0.88999999
-0.0196 -0.058200002 0.88999999
-0.018100001 -0.058200002 0.88999999
-0.0165 -0.058200002 0.88999999
-0.015 -0.058200002 0.88999999
-0.0135 -0.058200002 0.88999999
-0.0119 -0.058200002 0.889
-0.0104 -0.058200002 0.889
-0.0088 -0.058200002 0.88999999
-0.0073000002 -0.058200002 0.88999999
-0.0057000001 -0.058200002 0.88999999
-0.0041999999 -0.058200002 0.88999999
-0.0027000001 -0.0583 0.89099997
-0.0011 -0.0583 0.89099997
0.00039999999 -0.0583 0.89099997
0.0020000001 -0.0583 0.89099997
0.0035000001 -0.0583 0.89099997
0.0051000002 -0.0583 0.89099997
0.0066 -0.0583 0.89099997
0.0081000002 -0.058200002 0.88999999
0.0097000003 -0.058200002 0.88999999
0.0112 -0.058200002 0.88999999
0.0128 -0.0583 0.89099997
0.0143 -0.0583 0.89099997
0.015900001 -0.0583 0.89099997
0.0174 -0.0583 0.89099997
0.018999999 -0.0583 0.89099997
0.020500001 -0.0583 0.89099997
0.022 -0.058200002 0.88999999
0.023499999 -0.0581 0.88800001
0.0251 -0.0581 0.88800001
0.0266 -0.058200002 0.88999999
0.028200001 -0.058200002 0.88999999
0.0297 -0.058200002 0.88999999
0.031300001 -0.0583 0.89099997
0.032900002 -0.0583 0.89200002
0.034499999 -0.058400001 0.89300001
0.035999998 -0.058400001 0.89300001
0.037599999 -0.058400001 0.89300001
0.039099999 -0.058400001 0.89300001
0.0407 -0.058499999 0.89399999
0.042300001 -0.058499999 0.89499998
0.043900002 -0.058499999 0.89499998
0.045499999 -0.058600001 0.89600003
0.048500001 -0.058499999 0.89499998
0.050000001 -0.058499999 0.89399999
0.0515 -0.058400001 0.89300001
0.053100001 -0.058400001 0.89300001
0.054499999 -0.0583 0.89200002
0.056000002 -0.0583 0.89099997
0.057599999 -0.0583 0.89099997
0.059099998 -0.0583 0.89099997
0.074199997 -0.057999998 0.88700002
0.075800002 -0.0581 0.88800001
0.077299997 -0.057999998 0.88700002
0.078900002 -0.0581 0.88800001
0.080499999 -0.0581 0.88800001
0.082099997 -0.058200002 0.889
0.083800003 -0.0583 0.89099997
0.085500002 -0.0583 0.89200002
0.087099999 -0.058400001 0.89300001
0.0889 -0.058600001 0.89600003
0.090599999 -0.058699999 0.89700001
0.092200004 -0.058699999 0.89700001
0.093599997 -0.058600001 0.89600003
0.094899997 -0.058499999 0.89399999
0.0964 -0.058400001 0.89300001
0.097900003 -0.058400001 0.89300001
0.099299997 -0.0583 0.89099997
0.1007 -0.058200002 0.88999999
0.1021 -0.058200002 0.889
0.1038 -0.058200002 0.88999999
0.1054 -0.0583 0.89099997
0.1072 -0.058400001 0.89300001
0.1088 -0.058400001 0.89300001
0.1103 -0.058400001 0.89300001
0.1119 -0.058400001 0.89300001
0.1133 -0.0583 0.89200002
0.1147 -0.0583 0.89099997
0.1162 -0.0583 0.89099997
0.1178 -0.0583 0.89099997
0.1192 -0.058200002 0.88999999
0.1207 -0.058200002 0.88999999
0.1221 -0.058200002 0.889
0.1235 -0.0581 0.88800001
0.1251 -0.0581 0.88800001
0.1266 -0.0581 0.88800001
0.12819999 -0.0581 0.88800001
0.12989999 -0.058200002 0.889
0.13150001 -0.058200002 0.88999999
0.1331 -0.058200002 0.88999999
0.1346 -0.058200002 0.88999999
0.1362 -0.058200002 0.88999999
0.13770001 -0.058200002 0.88999999
0.1393 -0.058200002 0.88999999
0.1408 -0.058200002 0.88999999
0.14229999 -0.058200002 0.88999999
0.14390001 -0.058200002 0.88999999
0.1454 -0.058200002 0.88999999
0.147 -0.058200002 0.88999999
0.14820001 -0.0581 0.88800001
0.1497 -0.0581 0.88800001
0.15090001 -0.057999998 0.88599998
0.1524 -0.057999998 0.88599998
0.1538 -0.0579 0.88499999
0.15549999 -0.057999998 0.88599998
0.15719999 -0.057999998 0.88700002
0.15880001 -0.057999998 0.88700002
0.162 -0.0581 0.88800001
0.1637 -0.058200002 0.889
0.1726 -0.058499999 0.89499998
0.17470001 -0.058699999 0.898
0.1763 -0.058699999 0.898
0.1786 -0.059 0.90200001
0.1812 -0.059300002 0.90700001
0.18340001 -0.059500001 0.91000003
-0.37889999 -0.055100001 0.86500001
-0.37740001 -0.055100001 0.86500001
-0.37310001 -0.054900002 0.86199999
-0.32699999 -0.056499999 0.88700002
-0.32390001 -0.056499999 0.88700002
-0.32280001 -0.056499999 0.88800001
-0.3197 -0.056499999 0.88800001
-0.2299 -0.056400001 0.88599998
-0.2281 -0.056400001 0.88499999
-0.2263 -0.056299999 0.884
-0.2243 -0.056200001 0.88200003
-0.22220001 -0.056000002 0.88
-0.2202 -0.0559 0.87800002
-0.21799999 -0.0557 0.875
-0.2159 -0.055599999 0.87300003
-0.21439999 -0.055599999 0.87300003
-0.2132 -0.0557 0.87400001
-0.2124 -0.055799998 0.87699997
-0.2113 -0.056000002 0.87900001
-0.2098 -0.056000002 0.87900001
-0.2085 -0.056000002 0.88
-0.2075 -0.056200001 0.88200003
-0.2062 -0.056200001 0.88300002
-0.2049 -0.056299999 0.884
-0.2036 -0.056400001 0.88499999
-0.2023 -0.056400001 0.88599998
-0.20100001 -0.056499999 0.88700002
-0.19939999 -0.056499999 0.88700002
-0.18359999 -0.056400001 0.88499999
-0.18189999 -0.056299999 0.884
-0.1804 -0.056299999 0.884
-0.1788 -0.056299999 0.884
-0.17730001 -0.056299999 0.884
-0.1758 -0.056299999 0.884
-0.1742 -0.056299999 0.884
-0.1723 -0.056200001 0.88200003
-0.1706 -0.0561 0.88099998
-0.1683 -0.055799998 0.87699997
-0.15009999 -0.052700002 0.82700002
-0.14830001 -0.052499998 0.82499999
-0.1463 -0.052299999 0.82200003
-0.1446 -0.052200001 0.81999999
-0.14300001 -0.052200001 0.81900001
-0.1415 -0.052200001 0.81900001
-0.14030001 -0.052200001 0.81999999
-0.139 -0.052299999 0.82099998
-0.13779999 -0.052299999 0.82200003
-0.1365 -0.0524 0.82300001
-0.1353 -0.052499998 0.824
-0.134 -0.052499998 0.82499999
-0.13259999 -0.052499998 0.82499999
-0.1311 -0.052499998 0.82499999
-0.12989999 -0.0526 0.82599998
-0.1286 -0.052700002 0.82700002
-0.1276 -0.052900001 0.82999998
-0.12630001 -0.052900001 0.83099997
-0.1251 -0.052999999 0.83200002
-0.1239 -0.053100001 0.83399999
-0.1225 -0.053100001 0.83399999
-0.121 -0.053100001 0.83399999
-0.1196 -0.053100001 0.83399999
-0.118 -0.052999999 0.833
-0.1164 -0.052999999 0.83200002
-0.115 -0.052999999 0.83200002
-0.1135 -0.052999999 0.83200002
-0.1119 -0.052900001 0.83099997
-0.1105 -0.052900001 0.83099997
-0.1068 -0.0539 0.847
-0.1039 -0.054000001 0.84799999
-0.099399999 -0.055599999 0.87300003
-0.098200001 -0.0557 0.875
-0.097000003 -0.0559 0.87800002
-0.095600002 -0.056000002 0.87900001
-0.094700001 -0.056400001 0.88499999
-0.093199998 -0.056400001 0.88599998
-0.091799997 -0.056499999 0.88700002
-0.090300001 -0.056499999 0.88700002
-0.088699996 -0.056499999 0.88700002
-0.087200001 -0.056499999 0.88700002
-0.085699998 -0.056499999 0.88700002
-0.084100001 -0.056499999 0.88700002
-0.082599998 -0.056499999 0.88700002
-0.081 -0.056499999 0.88700002
-0.079499997 -0.056499999 0.88700002
-0.078100003 -0.056499999 0.88800001
-0.076499999 -0.056499999 0.88800001
-0.073399998 -0.056499999 0.88800001
-0.072099999 -0.056699999 0.88999999
-0.070500001 -0.056699999 0.88999999
-0.068899997 -0.056600001 0.889
-0.067299999 -0.056499999 0.88800001
-0.065800004 -0.056499999 0.88800001
-0.064199999 -0.056499999 0.88800001
-0.062700003 -0.056499999 0.88800001
-0.061099999 -0.056499999 0.88800001
-0.059700001 -0.056600001 0.889
-0.0581 -0.056499999 0.88800001
-0.056499999 -0.056499999 0.88800001
-0.055 -0.056600001 0.889
-0.053399999 -0.056499999 0.88800001
-0.051899999 -0.056499999 0.88800001
-0.050299998 -0.056499999 0.88700002
-0.048799999 -0.056499999 0.88800001
-0.0473 -0.056600001 0.889
-0.0458 -0.056699999 0.88999999
-0.044300001 -0.056600001 0.889
-0.0427 -0.056499999 0.88800001
-0.041099999 -0.056499999 0.88800001
-0.039500002 -0.056499999 0.88700002
-0.037999999 -0.056499999 0.88700002
-0.036499999 -0.056499999 0.88700002
-0.034899998 -0.056400001 0.88599998
-0.033399999 -0.056499999 0.88700002
-0.0319 -0.056499999 0.88700002
-0.0288 -0.056499999 0.88700002
-0.0242 -0.056499999 0.88800001
-0.022700001 -0.056600001 0.889
-0.0211 -0.056499999 0.88800001
-0.0196 -0.056699999 0.88999999
-0.018100001 -0.056699999 0.88999999
-0.0165 -0.056699999 0.88999999
-0.015 -0.056699999 0.89099997
-0.0135 -0.056699999 0.89099997
-0.0119 -0.056699999 0.89099997
-0.0104 -0.056699999 0.89099997
-0.0088 -0.056699999 0.89099997
-0.0073000002 -0.056699999 0.89099997
-0.0057000001 -0.056699999 0.89099997
-0.0041999999 -0.056699999 0.89099997
-0.0027000001 -0.056699999 0.89099997
-0.0011 -0.056699999 0.89099997
0.00039999999 -0.056699999 0.89099997
0.0020000001 -0.056699999 0.88999999
0.0035000001 -0.056699999 0.88999999
0.0051000002 -0.056699999 0.89099997
0.0066 -0.056699999 0.88999999
0.0081000002 -0.056699999 0.88999999
0.0097000003 -0.056699999 0.88999999
0.0112 -0.056699999 0.89099997
0.0128 -0.0568 0.89200002
0.0143 -0.056699999 0.89099997
0.015900001 -0.0568 0.89200002
0.0174 -0.056699999 0.89099997
0.018999999 -0.056899998 0.89300001
0.020500001 -0.056899998 0.89300001
0.022 -0.056699999 0.89099997
0.023600001 -0.056699999 0.88999999
0.0251 -0.056699999 0.88999999
0.026699999 -0.056699999 0.89099997
0.028200001 -0.056699999 0.89099997
0.0297 -0.056699999 0.88999999
0.031300001 -0.056699999 0.89099997
0.032900002 -0.0568 0.89200002
0.034499999 -0.056899998 0.89300001
0.035999998 -0.056899998 0.89300001
0.037599999 -0.056899998 0.89300001
0.039099999 -0.056899998 0.89300001
0.0407 -0.056899998 0.89300001
0.042199999 -0.056899998 0.89300001
0.0438 -0.056899998 0.89300001
0.045299999 -0.056899998 0.89300001
0.0469 -0.056899998 0.89300001
0.0484 -0.056899998 0.89300001
0.050000001 -0.056899998 0.89300001
0.0515 -0.056899998 0.89300001
0.053100001 -0.056899998 0.89300001
0.0546 -0.056899998 0.89300001
0.0561 -0.056899998 0.89300001
0.057700001 -0.056899998 0.89300001
0.059099998 -0.056699999 0.89099997
0.074199997 -0.056499999 0.88700002
0.075800002 -0.056499999 0.88700002
0.077299997 -0.056499999 0.88700002
0.0788 -0.056499999 0.88700002
0.080499999 -0.056499999 0.88800001
0.082099997 -0.056600001 0.889
0.083700001 -0.056699999 0.88999999
0.0854 -0.056699999 0.89099997
0.086900003 -0.056699999 0.89099997
0.088600002 -0.056899998 0.89300001
0.090300001 -0.056899998 0.89399999
0.091700003 -0.056899998 0.89300001
0.0933 -0.056899998 0.89300001
0.094800003 -0.056899998 0.89300001
0.0964 -0.056899998 0.89300001
0.097900003 -0.056899998 0.89300001
0.099299997 -0.056699999 0.89099997
0.1007 -0.056699999 0.88999999
0.1022 -0.056699999 0.88999999
0.1038 -0.056699999 0.88999999
0.1053 -0.056699999 0.88999999
0.1069 -0.056699999 0.88999999
0.1085 -0.056699999 0.89099997
0.1101 -0.056699999 0.89099997
0.1116 -0.056699999 0.89099997
0.1132 -0.056699999 0.89099997
0.1147 -0.056699999 0.89099997
0.1164 -0.0568 0.89200002
0.1178 -0.056699999 0.89099997
0.1195 -0.0568 0.89200002
0.1209 -0.056699999 0.89099997
0.1223 -0.056699999 0.88999999
0.1237 -0.056600001 0.889
0.1252 -0.056600001 0.889
0.1266 -0.056499999 0.88800001
0.1283 -0.056600001 0.889
0.12989999 -0.056600001 0.889
0.1314 -0.056600001 0.889
0.1331 -0.056699999 0.88999999
0.1346 -0.056699999 0.88999999
0.1362 -0.056699999 0.88999999
0.13770001 -0.056699999 0.88999999
0.1393 -0.056699999 0.88999999
0.1408 -0.056699999 0.88999999
0.14219999 -0.056600001 0.889
0.14390001 -0.056699999 0.88999999
0.1454 -0.056699999 0.88999999
0.147 -0.056699999 0.88999999
0.14820001 -0.056499999 0.88800001
0.1495 -0.056499999 0.88700002
0.15090001 -0.056400001 0.88599998
0.1524 -0.056400001 0.88599998
0.154 -0.056400001 0.88599998
0.15549999 -0.056400001 0.88599998
0.1605 -0.056499999 0.88800001
0.1637 -0.056600001 0.889
0.1655 -0.056699999 0.88999999
0.167 -0.056699999 0.88999999
0.16859999 -0.056699999 0.88999999
0.17030001 -0.056699999 0.89099997
0.1718 -0.056699999 0.89099997
0.1742 -0.057 0.89499998
0.17569999 -0.057 0.89499998
0.1781 -0.0572 0.89899999
0.1804 -0.057500001 0.903
0.1824 -0.057599999 0.90499997
-0.3946 -0.053300001 0.86000001
-0.3935 -0.053300001 0.861
-0.38190001 -0.053599998 0.86500001
-0.3804 -0.053599998 0.86500001
-0.3793 -0.053599998 0.866
-0.3759 -0.053599998 0.86500001
-0.37349999 -0.0535 0.86299998
-0.3389 -0.054400001 0.87800002
-0.32699999 -0.054900002 0.88700002
-0.32550001 -0.054900002 0.88700002
-0.32390001 -0.054900002 0.88700002
-0.32280001 -0.055 0.88800001
-0.32089999 -0.054900002 0.88700002
-0.2299 -0.054900002 0.88599998
-0.2281 -0.0548 0.88499999
-0.2243 -0.0546 0.88200003
-0.222 -0.054499999 0.87900001
-0.22 -0.054299999 0.87699997
-0.21799999 -0.054200001 0.875
-0.2159 -0.054099999 0.87300003
-0.21439999 -0.054099999 0.87300003
-0.2129 -0.054099999 0.87300003
-0.2121 -0.054299999 0.87599999
-0.2111 -0.054400001 0.87800002
-0.2088 -0.0546 0.88099998
-0.2075 -0.0546 0.88200003
-0.2062 -0.054699998 0.88300002
-0.2049 -0.0548 0.884
-0.2033 -0.0548 0.884
-0.20200001 -0.0548 0.88499999
-0.2007 -0.054900002 0.88599998
-0.1992 -0.054900002 0.88599998
-0.18359999 -0.0548 0.88499999
-0.1821 -0.0548 0.88499999
-0.1806 -0.0548 0.88499999
-0.17900001 -0.0548 0.88499999
-0.17730001 -0.0548 0.884
-0.1758 -0.0548 0.884
-0.17399999 -0.054699998 0.88300002
-0.1723 -0.0546 0.88200003
-0.1706 -0.0546 0.88099998
-0.1683 -0.054299999 0.87699997
-0.1478 -0.050900001 0.82200003
-0.146 -0.050799999 0.81999999
-0.1444 -0.050700001 0.81900001
-0.14300001 -0.050700001 0.81900001
-0.1417 -0.050799999 0.81999999
-0.14049999 -0.050900001 0.82099998
-0.13940001 -0.050999999 0.82300001
-0.138 -0.050999999 0.82300001
-0.1367 -0.050999999 0.824
-0.1354 -0.051100001 0.82499999
-0.13420001 -0.051199999 0.82599998
-0.1327 -0.051199999 0.82599998
-0.1313 -0.051199999 0.82599998
-0.13 -0.051199999 0.82700002
-0.1288 -0.0513 0.82800001
-0.1276 -0.051399998 0.82999998
-0.12630001 -0.0515 0.83099997
-0.1251 -0.0515 0.83200002
-0.1238 -0.051600002 0.833
-0.1225 -0.0517 0.83399999
-0.1209 -0.051600002 0.833
-0.1194 -0.051600002 0.833
-0.1178 -0.0515 0.83200002
-0.1164 -0.0515 0.83200002
-0.1148 -0.0515 0.83099997
-0.1134 -0.0515 0.83099997
-0.1119 -0.0515 0.83099997
-0.1093 -0.051600002 0.833
-0.1087 -0.052000001 0.83899999
-0.1019 -0.052200001 0.84299999
-0.097099997 -0.053599998 0.866
-0.0955 -0.053599998 0.86500001
-0.093999997 -0.053599998 0.86500001
-0.092600003 -0.053599998 0.866
-0.091700003 -0.054900002 0.88599998
-0.090300001 -0.054900002 0.88700002
-0.088799998 -0.055 0.88800001
-0.087200001 -0.054900002 0.88700002
-0.085699998 -0.054900002 0.88700002
-0.084100001 -0.054900002 0.88700002
-0.082500003 -0.054900002 0.88599998
-0.080899999 -0.0548 0.88499999
-0.079300001 -0.0548 0.88499999
-0.077799998 -0.0548 0.88499999
-0.071999997 -0.055100001 0.889
-0.070500001 -0.055100001 0.88999999
-0.068999998 -0.055100001 0.88999999
-0.067400001 -0.055100001 0.889
-0.065800004 -0.055100001 0.889
-0.064300001 -0.055100001 0.889
-0.062700003 -0.055100001 0.889
-0.061299998 -0.055100001 0.88999999
-0.059700001 -0.055100001 0.88999999
-0.058200002 -0.055100001 0.88999999
-0.056600001 -0.055100001 0.889
-0.055 -0.055100001 0.889
-0.0535 -0.055100001 0.889
-0.051899999 -0.055 0.88800001
-0.0504 -0.055 0.88800001
-0.048799999 -0.055 0.88800001
-0.047400001 -0.055100001 0.88999999
-0.0458 -0.055100001 0.88999999
-0.044300001 -0.055100001 0.88999999
-0.042800002 -0.055100001 0.88999999
-0.041200001 -0.055100001 0.889
-0.0396 -0.055 0.88800001
-0.037999999 -0.055 0.88800001
-0.036499999 -0.055 0.88800001
-0.035 -0.055 0.88800001
-0.033399999 -0.054900002 0.88700002
-0.0319 -0.054900002 0.88700002
-0.030300001 -0.054900002 0.88700002
-0.0272 -0.054900002 0.88700002
-0.025699999 -0.054900002 0.88700002
-0.0242 -0.055 0.88800001
-0.022700001 -0.055100001 0.889
-0.0211 -0.055100001 0.889
-0.0196 -0.055100001 0.88999999
-0.018100001 -0.055199999 0.89099997
-0.0166 -0.055199999 0.89099997
-0.015 -0.055300001 0.89200002
-0.0135 -0.055199999 0.89099997
-0.0119 -0.055300001 0.89200002
-0.0104 -0.055300001 0.89200002
-0.0088 -0.055300001 0.89200002
-0.0073000002 -0.055199999 0.89099997
-0.0057000001 -0.055199999 0.89099997
-0.0041999999 -0.055199999 0.89099997
-0.0027000001 -0.055199999 0.89099997
-0.0011 -0.055199999 0.89099997
0.00039999999 -0.055100001 0.88999999
0.0097000003 -0.055199999 0.89099997
0.0113 -0.055300001 0.89200002
0.0128 -0.055300001 0.89300001
0.0144 -0.055300001 0.89300001
0.015900001 -0.055300001 0.89300001
0.0175 -0.055300001 0.89300001
0.018999999 -0.055300001 0.89300001
0.020500001 -0.055300001 0.89300001
0.0221 -0.055300001 0.89300001
0.023600001 -0.055300001 0.89200002
0.0251 -0.055199999 0.89099997
0.026699999 -0.055300001 0.89300001
0.028200001 -0.055199999 0.89099997
0.0298 -0.055199999 0.89099997
0.031300001 -0.055199999 0.89099997
0.032900002 -0.055300001 0.89200002
0.034400001 -0.055300001 0.89200002
0.035999998 -0.055300001 0.89200002
0.037500001 -0.055300001 0.89200002
0.039099999 -0.055300001 0.89200002
0.040600002 -0.055300001 0.89200002
0.042199999 -0.055300001 0.89200002
0.043699998 -0.055199999 0.89099997
0.045200001 -0.055199999 0.89099997
0.046799999 -0.055199999 0.89099997
0.048300002 -0.055199999 0.89099997
0.049899999 -0.055300001 0.89200002
0.0515 -0.055300001 0.89300001
0.053100001 -0.055300001 0.89300001
0.054699998 -0.055399999 0.89399999
0.056299999 -0.055399999 0.89499998
0.057799999 -0.055399999 0.89499998
0.059300002 -0.055399999 0.89399999
0.060800001 -0.055300001 0.89300001
0.062100001 -0.055100001 0.88999999
0.075800002 -0.054900002 0.88700002
0.077299997 -0.054900002 0.88700002
0.078900002 -0.055 0.88800001
0.080499999 -0.055 0.88800001
0.082099997 -0.055100001 0.889
0.083700001 -0.055100001 0.88999999
0.085299999 -0.055100001 0.88999999
0.086800002 -0.055100001 0.88999999
0.088399999 -0.055199999 0.89099997
0.090000004 -0.055199999 0.89099997
0.091399997 -0.055100001 0.88999999
0.093099996 -0.055199999 0.89099997
0.094700001 -0.055300001 0.89200002
0.096500002 -0.055399999 0.89399999
0.098200001 -0.055399999 0.89499998
0.0995 -0.055300001 0.89300001
0.101 -0.055300001 0.89300001
0.1025 -0.055300001 0.89200002
0.1039 -0.055199999 0.89099997
0.1054 -0.055199999 0.89099997
0.107 -0.055199999 0.89099997
0.1085 -0.055199999 0.89099997
0.1101 -0.055199999 0.89099997
0.1116 -0.055199999 0.89099997
0.1132 -0.055199999 0.89099997
0.1147 -0.055199999 0.89099997
0.1164 -0.055300001 0.89200002
0.1179 -0.055300001 0.89200002
0.1196 -0.055300001 0.89300001
0.121 -0.055300001 0.89200002
0.1224 -0.055199999 0.89099997
0.1238 -0.055100001 0.88999999
0.1252 -0.055100001 0.889
0.1266 -0.055 0.88800001
0.12819999 -0.055 0.88800001
0.12989999 -0.055100001 0.889
0.13150001 -0.055100001 0.88999999
0.1331 -0.055100001 0.88999999
0.1346 -0.055100001 0.88999999
0.1362 -0.055100001 0.88999999
0.13789999 -0.055199999 0.89099997
0.13940001 -0.055199999 0.89099997
0.1408 -0.055100001 0.88999999
0.14219999 -0.055100001 0.889
0.14390001 -0.055100001 0.88999999
0.1454 -0.055100001 0.88999999
0.147 -0.055100001 0.88999999
0.14830001 -0.055100001 0.889
0.1497 -0.055 0.88800001
0.1513 -0.055 0.88800001
0.1559 -0.055 0.88800001
0.1576 -0.055100001 0.889
0.1591 -0.055100001 0.889
0.16069999 -0.055100001 0.889
0.16240001 -0.055100001 0.88999999
0.1639 -0.055100001 0.88999999
0.1657 -0.055199999 0.89099997
0.167 -0.055100001 0.88999999
0.16859999 -0.055100001 0.88999999
0.17030001 -0.055199999 0.89099997
0.1718 -0.055199999 0.89099997
0.17380001 -0.055300001 0.89300001
0.17569999 -0.055399999 0.89499998
0.17749999 -0.055500001 0.89600003
0.1798 -0.055799998 0.89999998
0.1816 -0.055799998 0.90100002
-0.38280001 -0.052200001 0.86699998
-0.38170001 -0.052299999 0.86799997
-0.3802 -0.052299999 0.86799997
-0.37779999 -0.052099999 0.866
-0.37630001 -0.052099999 0.866
-0.3739 -0.052000001 0.86400002
-0.3628 -0.0528 0.87699997
-0.36219999 -0.052900001 0.87900001
-0.3439 -0.052900001 0.87900001
-0.3263 -0.053300001 0.88499999
-0.3247 -0.053300001 0.88499999
-0.32359999 -0.053300001 0.88599998
-0.3224 -0.053399999 0.88700002
-0.32089999 -0.053399999 0.88700002
-0.3197 -0.0535 0.88800001
-0.2296 -0.053300001 0.88499999
-0.2279 -0.053199999 0.884
-0.2261 -0.053199999 0.88300002
-0.22400001 -0.052999999 0.88099998
-0.2217 -0.052900001 0.87800002
-0.21950001 -0.052700002 0.875
-0.2175 -0.0526 0.87300003
-0.2159 -0.0526 0.87300003
-0.21439999 -0.0526 0.87300003
-0.2129 -0.0526 0.87300003
-0.2113 -0.052900001 0.87900001
-0.20999999 -0.052999999 0.88
-0.2088 -0.052999999 0.88099998
-0.2075 -0.053100001 0.88200003
-0.2062 -0.053199999 0.88300002
-0.2049 -0.053199999 0.884
-0.2033 -0.053199999 0.884
-0.20200001 -0.053300001 0.88499999
-0.2007 -0.053300001 0.88599998
-0.199 -0.053300001 0.88499999
-0.1974 -0.053300001 0.88499999
-0.1957 -0.053199999 0.884
-0.1937 -0.053100001 0.88200003
-0.192 -0.052999999 0.88099998
-0.1885 -0.052900001 0.87900001
-0.18610001 -0.053100001 0.88200003
-0.185 -0.053199999 0.884
-0.18340001 -0.053199999 0.884
-0.1821 -0.053300001 0.88499999
-0.1806 -0.053300001 0.88499999
-0.17900001 -0.053300001 0.88499999
-0.17749999 -0.053300001 0.88499999
-0.176 -0.053300001 0.88499999
-0.1742 -0.053199999 0.884
-0.1725 -0.053199999 0.88300002
-0.1708 -0.053100001 0.88200003
-0.16850001 -0.052900001 0.87800002
-0.1494 -0.049600001 0.82300001
-0.1476 -0.049400002 0.82099998
-0.14579999 -0.0493 0.81900001
-0.1444 -0.0493 0.81900001
-0.14300001 -0.0493 0.81900001
-0.1417 -0.049400002 0.81999999
-0.1406 -0.0495 0.82200003
-0.13940001 -0.049600001 0.82300001
-0.138 -0.049600001 0.82300001
-0.1365 -0.049600001 0.82300001
-0.1353 -0.049600001 0.824
-0.134 -0.049699999 0.82499999
-0.13259999 -0.049699999 0.82499999
-0.1311 -0.049699999 0.82499999
-0.13 -0.049800001 0.82700002
-0.1288 -0.049899999 0.82800001
-0.1276 -0.050000001 0.82999998
-0.12630001 -0.050000001 0.83099997
-0.1249 -0.050000001 0.83099997
-0.1236 -0.050099999 0.83200002
-0.1222 -0.050099999 0.83200002
-0.1209 -0.0502 0.833
-0.1193 -0.050099999 0.83200002
-0.1177 -0.050000001 0.83099997
-0.1163 -0.050000001 0.83099997
-0.1147 -0.050000001 0.82999998
-0.1132 -0.050000001 0.82999998
-0.1118 -0.050000001 0.82999998
-0.1104 -0.050000001 0.82999998
-0.1091 -0.050000001 0.83099997
-0.1083 -0.050299998 0.83600003
-0.1034 -0.050799999 0.84399998
-0.1016 -0.0506 0.84100002
-0.096799999 -0.0504 0.83700001
-0.094599999 -0.050799999 0.84299999
-0.092799999 -0.0506 0.83999997
-0.090999998 -0.0504 0.83700001
-0.089299999 -0.050299998 0.83499998
-0.0854 -0.053199999 0.884
-0.083899997 -0.053300001 0.88499999
-0.082400002 -0.053300001 0.88499999
-0.080799997 -0.053199999 0.884
-0.0792 -0.053199999 0.884
-0.077699997 -0.053199999 0.884
-0.076300003 -0.053300001 0.88499999
-0.073399998 -0.0535 0.88800001
-0.072099999 -0.053599998 0.88999999
-0.070600003 -0.053599998 0.89099997
-0.068999998 -0.053599998 0.88999999
-0.067400001 -0.053599998 0.88999999
-0.065899998 -0.053599998 0.88999999
-0.064400002 -0.053599998 0.88999999
-0.062799998 -0.053599998 0.88999999
-0.061299998 -0.053599998 0.88999999
-0.059700001 -0.053599998 0.88999999
-0.058200002 -0.053599998 0.88999999
-0.056600001 -0.0535 0.889
-0.055 -0.0535 0.889
-0.053599998 -0.053599998 0.88999999
-0.052000001 -0.0535 0.889
-0.0504 -0.0535 0.889
-0.048900001 -0.053599998 0.88999999
-0.047400001 -0.053599998 0.89099997
-0.045899998 -0.053599998 0.89099997
-0.044399999 -0.053599998 0.89099997
-0.042800002 -0.053599998 0.88999999
-0.041200001 -0.053599998 0.88999999
-0.039700001 -0.053599998 0.88999999
-0.0381 -0.0535 0.889
-0.036600001 -0.0535 0.889
-0.035 -0.0535 0.88800001
-0.033399999 -0.0535 0.88800001
-0.0319 -0.053399999 0.88700002
-0.030300001 -0.053399999 0.88700002
-0.0287 -0.053300001 0.88599998
-0.0272 -0.053300001 0.88599998
-0.025699999 -0.053300001 0.88599998
-0.0242 -0.0535 0.88800001
-0.022700001 -0.053599998 0.88999999
-0.021199999 -0.053599998 0.88999999
-0.0196 -0.053599998 0.89099997
-0.018100001 -0.0537 0.89200002
-0.0166 -0.053800002 0.89300001
-0.0151 -0.053800002 0.89399999
-0.0135 -0.053800002 0.89300001
-0.012 -0.053800002 0.89300001
-0.0104 -0.053800002 0.89300001
-0.0088 -0.0537 0.89200002
-0.0073000002 -0.053599998 0.89099997
-0.0057000001 -0.053599998 0.89099997
-0.0041999999 -0.053599998 0.89099997
-0.0027000001 -0.053599998 0.89099997
-0.0011 -0.053599998 0.89099997
0.00039999999 -0.053599998 0.89099997
0.0081000002 -0.053599998 0.89099997
0.0097000003 -0.0537 0.89200002
0.0113 -0.053800002 0.89300001
0.0128 -0.053800002 0.89399999
