# .PCD v0.7 - Point Cloud Data file format
VERSION 0.7
FIELDS x y z
SIZE 4 4 4
TYPE F F F
COUNT 1 1 1
WIDTH 1694
HEIGHT 1
VIEWPOINT 0 0 0 1 0 0 0
POINTS 1694
DATA ascii
0.093000002 0.22 0.90499997
0.094400004 0.21969999 0.90399998
0.096000001 0.21969999 0.90399998
0.097599998 0.21969999 0.90399998
0.099100001 0.21969999 0.90399998
0.1008 0.22 0.90499997
0.1136 0.22050001 0.90700001
0.1166 0.2202 0.90600002
0.1181 0.22 0.90499997
0.1196 0.22 0.90499997
0.1212 0.22 0.90499997
0.1245 0.2202 0.90600002
0.13609999 0.2212 0.91000003
0.138 0.2217 0.912
0.13950001 0.2217 0.912
0.141 0.22139999 0.91100001
0.1424 0.2212 0.91000003
0.14399999 0.2212 0.91000003
0.1454 0.221 0.90899998
0.1469 0.221 0.90899998
0.1513 0.22050001 0.90700001
0.1529 0.22050001 0.90700001
0.15449999 0.22050001 0.90700001
0.1561 0.22050001 0.90700001
0.1576 0.22050001 0.90700001
0.1594 0.2207 0.90799999
0.1611 0.221 0.90899998
0.16320001 0.2217 0.912
0.1654 0.22239999 0.91500002
0.1673 0.2229 0.917
0.1693 0.2234 0.91900003
0.1709 0.2234 0.91900003
0.1753 0.2229 0.917
0.1769 0.2229 0.917
0.17820001 0.2227 0.91600001
0.18000001 0.2229 0.917
0.1816 0.2229 0.917
-0.4082 0.2186 0.89300001
-0.3811 0.2164 0.884
-0.37869999 0.2159 0.88200003
-0.36809999 0.21690001 0.88599998
-0.3662 0.2167 0.88499999
-0.3642 0.2164 0.884
-0.3619 0.2159 0.88200003
-0.35949999 0.2154 0.88
-0.35600001 0.2142 0.875
-0.34819999 0.21789999 0.88999999
-0.3466 0.21789999 0.88999999
-0.3459 0.2184 0.89200002
-0.34470001 0.2186 0.89300001
-0.33579999 0.21789999 0.88999999
-0.33239999 0.2176 0.889
-0.32929999 0.2176 0.889
-0.32780001 0.2176 0.889
-0.32659999 0.21789999 0.88999999
-0.32499999 0.21789999 0.88999999
-0.32390001 0.2181 0.89099997
-0.32269999 0.2184 0.89200002
-0.3215 0.2186 0.89300001
-0.31569999 0.2211 0.903
-0.3141 0.2211 0.903
-0.31259999 0.2211 0.903
-0.31130001 0.22130001 0.90399998
-0.30939999 0.2211 0.903
-0.30790001 0.2211 0.903
-0.30599999 0.2208 0.90200001
-0.30090001 0.22059999 0.90100002
-0.296 0.2216 0.90499997
-0.2938 0.2211 0.903
-0.2922 0.2211 0.903
-0.2464 0.21789999 0.88999999
-0.2457 0.2186 0.89300001
-0.2447 0.2191 0.89499998
-0.2436 0.21960001 0.89700001
-0.23899999 0.2211 0.903
-0.23639999 0.2216 0.90499997
-0.2343 0.2211 0.903
-0.2322 0.22059999 0.90100002
-0.2304 0.2203 0.89999998
-0.2286 0.2201 0.89899999
-0.227 0.2201 0.89899999
-0.22570001 0.2203 0.89999998
-0.2242 0.2203 0.89999998
-0.2226 0.2203 0.89999998
-0.2211 0.2203 0.89999998
-0.2193 0.2201 0.89899999
-0.2177 0.2201 0.89899999
-0.2159 0.2198 0.898
-0.21359999 0.2191 0.89499998
-0.21160001 0.2186 0.89300001
-0.2093 0.21789999 0.88999999
-0.2078 0.21789999 0.88999999
-0.20630001 0.21789999 0.88999999
-0.20469999 0.21789999 0.88999999
-0.2032 0.21789999 0.88999999
-0.2014 0.2176 0.889
-0.1999 0.2176 0.889
-0.1921 0.2194 0.89600003
-0.1912 0.2201 0.89899999
-0.1885 0.22059999 0.90100002
-0.18719999 0.2208 0.90200001
-0.18539999 0.22059999 0.90100002
-0.1838 0.22059999 0.90100002
-0.1821 0.2203 0.89999998
-0.18009999 0.2198 0.898
-0.1785 0.2198 0.898
-0.177 0.2198 0.898
-0.175 0.2194 0.89600003
-0.1714 0.2186 0.89300001
-0.1692 0.21789999 0.88999999
-0.1675 0.2176 0.889
-0.16580001 0.2174 0.88800001
-0.16419999 0.2174 0.88800001
-0.16329999 0.2181 0.89099997
-0.1626 0.2194 0.89600003
-0.16159999 0.2201 0.89899999
-0.1602 0.2203 0.89999998
-0.1505 0.2198 0.898
-0.149 0.2198 0.898
-0.14740001 0.2198 0.898
-0.146 0.2201 0.89899999
-0.1445 0.2201 0.89899999
-0.14309999 0.2203 0.89999998
-0.1415 0.2203 0.89999998
-0.14 0.2203 0.89999998
-0.1371 0.2208 0.90200001
-0.1357 0.2211 0.903
-0.13420001 0.2211 0.903
-0.13259999 0.2211 0.903
-0.131 0.2211 0.903
-0.1295 0.2211 0.903
-0.1278 0.2208 0.90200001
-0.1261 0.22059999 0.90100002
-0.1244 0.2203 0.89999998
-0.1228 0.2203 0.89999998
-0.1197 0.2203 0.89999998
-0.1181 0.2203 0.89999998
-0.1166 0.2203 0.89999998
-0.1136 0.22059999 0.90100002
-0.112 0.22059999 0.90100002
-0.1103 0.2203 0.89999998
-0.1088 0.2203 0.89999998
-0.107 0.2198 0.898
-0.1054 0.2198 0.898
-0.1037 0.21960001 0.89700001
-0.1023 0.2198 0.898
-0.1005 0.2194 0.89600003
-0.099100001 0.21960001 0.89700001
-0.0964 0.22059999 0.90100002
-0.090300001 0.2211 0.903
-0.088799998 0.2211 0.903
-0.087200001 0.2211 0.903
-0.085500002 0.2208 0.90200001
-0.082099997 0.2198 0.898
-0.078500003 0.2186 0.89300001
-0.072700001 0.2198 0.898
-0.0713 0.2203 0.89999998
-0.069799997 0.22059999 0.90100002
-0.068400003 0.2211 0.903
-0.0669 0.2211 0.903
-0.065200001 0.2208 0.90200001
-0.063699998 0.2208 0.90200001
-0.0605 0.2208 0.90200001
-0.059 0.2208 0.90200001
-0.057300001 0.22059999 0.90100002
-0.054499999 0.2216 0.90499997
-0.0513 0.2216 0.90499997
-0.049800001 0.2216 0.90499997
-0.0482 0.2218 0.90600002
-0.046700001 0.2218 0.90600002
-0.0451 0.2218 0.90600002
-0.0436 0.222 0.90700001
-0.042100001 0.22229999 0.90799999
-0.038899999 0.2225 0.90899998
-0.034200002 0.22229999 0.90799999
-0.030999999 0.2218 0.90600002
-0.0262 0.2216 0.90499997
-0.018300001 0.22059999 0.90100002
-0.0167 0.22059999 0.90100002
-0.0152 0.2211 0.903
-0.0137 0.2211 0.903
-0.0121 0.2216 0.90499997
-0.0074 0.2218 0.90600002
-0.0057999999 0.2218 0.90600002
-0.0043000001 0.2216 0.90499997
-0.0011 0.2211 0.903
0.00039999999 0.2211 0.903
0.0020000001 0.2211 0.903
0.0035999999 0.22130001 0.90399998
0.0098000001 0.2216 0.90499997
0.0114 0.2211 0.903
0.013 0.2211 0.903
0.0145 0.2211 0.903
0.016100001 0.2208 0.90200001
0.0176 0.2208 0.90200001
0.019200001 0.2208 0.90200001
0.0208 0.2208 0.90200001
0.022299999 0.2211 0.903
0.0239 0.2211 0.903
0.0272 0.222 0.90700001
0.0287 0.222 0.90700001
0.030300001 0.222 0.90700001
0.0319 0.2225 0.90899998
0.033500001 0.22229999 0.90799999
0.035100002 0.22229999 0.90799999
0.036600001 0.22229999 0.90799999
0.038199998 0.222 0.90700001
0.039700001 0.222 0.90700001
0.041299999 0.222 0.90700001
0.042800002 0.2218 0.90600002
0.044500001 0.222 0.90700001
0.046 0.222 0.90700001
0.047600001 0.222 0.90700001
0.049199998 0.22229999 0.90799999
0.050799999 0.22229999 0.90799999
0.0524 0.22229999 0.90799999
0.0539 0.22229999 0.90799999
0.055500001 0.22229999 0.90799999
0.057 0.222 0.90700001
0.058600001 0.222 0.90700001
0.061500002 0.2211 0.903
0.063000001 0.2208 0.90200001
0.064499997 0.2208 0.90200001
0.066200003 0.2211 0.903
0.0678 0.22130001 0.90399998
0.069399998 0.2216 0.90499997
0.071000002 0.2216 0.90499997
0.072700001 0.2218 0.90600002
0.074199997 0.2218 0.90600002
0.075800002 0.2218 0.90600002
0.077299997 0.2216 0.90499997
0.078900002 0.2216 0.90499997
0.080399998 0.2216 0.90499997
0.082000002 0.2216 0.90499997
0.0836 0.2216 0.90499997
0.085100003 0.2216 0.90499997
0.0867 0.2216 0.90499997
0.088299997 0.2216 0.90499997
0.091399997 0.2216 0.90499997
0.093000002 0.2216 0.90499997
0.094400004 0.22130001 0.90399998
0.096100003 0.2216 0.90499997
0.0977 0.2216 0.90499997
0.1106 0.22229999 0.90799999
0.1122 0.22229999 0.90799999
0.1136 0.222 0.90700001
0.1166 0.2218 0.90600002
0.1182 0.2218 0.90600002
0.1198 0.2218 0.90600002
0.123 0.222 0.90700001
0.1246 0.222 0.90700001
0.13590001 0.2225 0.90899998
0.13779999 0.223 0.91100001
0.13950001 0.2233 0.912
0.141 0.223 0.91100001
0.1424 0.2228 0.91000003
0.14399999 0.2228 0.91000003
0.1455 0.2228 0.91000003
0.1471 0.2228 0.91000003
0.1513 0.222 0.90700001
0.1529 0.222 0.90700001
0.1543 0.2218 0.90600002
0.1559 0.2218 0.90600002
0.1576 0.222 0.90700001
0.1592 0.222 0.90700001
0.161 0.22229999 0.90799999
0.1631 0.223 0.91100001
0.1652 0.2238 0.91399997
0.1671 0.2243 0.91600001
0.1689 0.2245 0.917
0.1753 0.2245 0.917
0.17820001 0.2243 0.91600001
0.1798 0.2243 0.91600001
-0.3716 0.21870001 0.88700002
-0.37009999 0.21870001 0.88700002
-0.36809999 0.2184 0.88599998
-0.3662 0.2182 0.88499999
-0.3642 0.21799999 0.884
-0.36269999 0.21799999 0.884
-0.3603 0.2175 0.88200003
-0.3576 0.2167 0.87900001
-0.34740001 0.2189 0.88800001
-0.34619999 0.2192 0.889
-0.34509999 0.2194 0.88999999
-0.33270001 0.2194 0.88999999
-0.3308 0.2192 0.889
-0.32929999 0.2192 0.889
-0.3274 0.2189 0.88800001
-0.3258 0.2189 0.88800001
-0.32429999 0.2189 0.88800001
-0.3231 0.2192 0.889
-0.32159999 0.2192 0.889
-0.3204 0.2194 0.88999999
-0.31850001 0.2192 0.889
-0.317 0.2192 0.889
-0.3161 0.21969999 0.89099997
-0.31529999 0.22239999 0.90200001
-0.31380001 0.22239999 0.90200001
-0.31259999 0.2226 0.903
-0.31099999 0.2226 0.903
-0.30939999 0.2226 0.903
-0.30790001 0.2226 0.903
-0.30559999 0.2221 0.90100002
-0.30410001 0.2221 0.90100002
-0.30250001 0.2221 0.90100002
-0.296 0.22310001 0.90499997
-0.2464 0.2194 0.88999999
-0.24590001 0.22040001 0.89399999
-0.2449 0.2209 0.89600003
-0.2436 0.2212 0.89700001
-0.2429 0.2219 0.89999998
-0.2369 0.2236 0.90700001
-0.2348 0.22310001 0.90499997
-0.23280001 0.2226 0.903
-0.2307 0.2221 0.90100002
-0.2291 0.2221 0.90100002
-0.2273 0.2219 0.89999998
-0.226 0.2221 0.90100002
-0.2242 0.2219 0.89999998
-0.2226 0.2219 0.89999998
-0.2211 0.2219 0.89999998
-0.219 0.22139999 0.898
-0.2175 0.22139999 0.898
-0.21520001 0.2207 0.89499998
-0.2132 0.2202 0.89300001
-0.21089999 0.2194 0.88999999
-0.2089 0.2189 0.88800001
-0.20730001 0.2189 0.88800001
-0.2058 0.2189 0.88800001
-0.2043 0.2189 0.88800001
-0.2027 0.2189 0.88800001
-0.20119999 0.2189 0.88800001
-0.1999 0.2192 0.889
-0.1981 0.2189 0.88800001
-0.19499999 0.2189 0.88800001
-0.19059999 0.2209 0.89600003
-0.1883 0.2219 0.89999998
-0.1867 0.2219 0.89999998
-0.18520001 0.2219 0.89999998
-0.18359999 0.2219 0.89999998
-0.1821 0.2219 0.89999998
-0.17990001 0.2212 0.89700001
-0.17820001 0.2209 0.89600003
-0.17659999 0.2209 0.89600003
-0.17470001 0.22040001 0.89399999
-0.171 0.21969999 0.89099997
-0.1692 0.2194 0.88999999
-0.1673 0.2189 0.88800001
-0.1656 0.21870001 0.88700002
-0.16410001 0.21870001 0.88700002
-0.1627 0.2189 0.88800001
-0.1617 0.21969999 0.89099997
-0.1611 0.2209 0.89600003
-0.15989999 0.22139999 0.898
-0.1583 0.22139999 0.898
-0.1564 0.2209 0.89600003
-0.15019999 0.2209 0.89600003
-0.149 0.22139999 0.898
-0.14740001 0.22139999 0.898
-0.146 0.2216 0.89899999
-0.1445 0.2216 0.89899999
-0.1429 0.2216 0.89899999
-0.1415 0.2219 0.89999998
-0.14 0.2219 0.89999998
-0.13850001 0.2221 0.90100002
-0.1371 0.22239999 0.90200001
-0.1357 0.2226 0.903
-0.13420001 0.2226 0.903
-0.1327 0.2229 0.90399998
-0.131 0.2226 0.903
-0.1295 0.2226 0.903
-0.1279 0.2226 0.903
-0.1244 0.2219 0.89999998
-0.1197 0.2219 0.89999998
-0.1149 0.2216 0.89899999
-0.1134 0.2219 0.89999998
-0.112 0.2221 0.90100002
-0.1088 0.2219 0.89999998
-0.1071 0.2216 0.89899999
-0.1054 0.22139999 0.898
-0.1038 0.22139999 0.898
-0.1023 0.22139999 0.898
-0.1006 0.2212 0.89700001
-0.099100001 0.2212 0.89700001
-0.096299998 0.2219 0.89999998
-0.091700003 0.2221 0.90100002
-0.088600002 0.2221 0.90100002
-0.087099999 0.22239999 0.90200001
-0.085500002 0.2221 0.90100002
-0.081900001 0.2209 0.89600003
-0.078500003 0.2202 0.89300001
-0.069799997 0.2219 0.89999998
-0.068400003 0.22239999 0.90200001
-0.066699997 0.2221 0.90100002
-0.065200001 0.2221 0.90100002
-0.063500002 0.2219 0.89999998
-0.061999999 0.2221 0.90100002
-0.0605 0.2221 0.90100002
-0.058899999 0.2221 0.90100002
-0.057399999 0.22239999 0.90200001
-0.056000002 0.2229 0.90399998
-0.054499999 0.22310001 0.90499997
-0.052900001 0.22310001 0.90499997
-0.0513 0.22310001 0.90499997
-0.049800001 0.22310001 0.90499997
-0.046599999 0.22310001 0.90499997
-0.0451 0.22310001 0.90499997
-0.043499999 0.22310001 0.90499997
-0.041999999 0.2234 0.90600002
-0.040399998 0.2236 0.90700001
-0.038899999 0.22390001 0.90799999
-0.037300002 0.22390001 0.90799999
-0.035799999 0.22390001 0.90799999
-0.032600001 0.2236 0.90700001
-0.030999999 0.2234 0.90600002
-0.0262 0.22310001 0.90499997
-0.021500001 0.22239999 0.90200001
-0.0199 0.2221 0.90100002
-0.018300001 0.22239999 0.90200001
-0.016799999 0.2226 0.903
-0.0152 0.2226 0.903
-0.0137 0.22310001 0.90499997
-0.0121 0.22310001 0.90499997
-0.0057999999 0.22310001 0.90499997
-0.0027000001 0.22310001 0.90499997
-0.0011 0.2229 0.90399998
0.0051000002 0.22310001 0.90499997
0.0066999998 0.22310001 0.90499997
0.0114 0.2229 0.90399998
0.016100001 0.22239999 0.90200001
0.0176 0.22239999 0.90200001
0.019200001 0.22239999 0.90200001
0.0208 0.22239999 0.90200001
0.022299999 0.2226 0.903
0.0239 0.2229 0.90399998
0.0255 0.22310001 0.90499997
0.0272 0.2236 0.90700001
0.0287 0.2236 0.90700001
0.030300001 0.2236 0.90700001
0.0319 0.22409999 0.90899998
0.033500001 0.22390001 0.90799999
0.035100002 0.22390001 0.90799999
0.038199998 0.2236 0.90700001
0.039700001 0.2236 0.90700001
0.0414 0.22390001 0.90799999
0.0429 0.2236 0.90700001
0.044500001 0.2236 0.90700001
0.046 0.2236 0.90700001
0.047600001 0.2236 0.90700001
0.049199998 0.2236 0.90700001
0.052299999 0.2236 0.90700001
0.0539 0.2236 0.90700001
0.059999999 0.22310001 0.90499997
0.061500002 0.2226 0.903
0.063000001 0.22239999 0.90200001
0.064499997 0.22239999 0.90200001
0.066200003 0.2226 0.903
0.0678 0.2229 0.90399998
0.069399998 0.22310001 0.90499997
0.070900001 0.2229 0.90399998
0.0726 0.22310001 0.90499997
0.074199997 0.2234 0.90600002
0.075800002 0.2234 0.90600002
0.077399999 0.2234 0.90600002
0.078900002 0.2234 0.90600002
0.080499999 0.2234 0.90600002
0.082199998 0.2236 0.90700001
0.0867 0.22310001 0.90499997
0.088299997 0.22310001 0.90499997
0.092900001 0.2229 0.90399998
0.094499998 0.22310001 0.90499997
0.096100003 0.22310001 0.90499997
0.097800002 0.2234 0.90600002
0.101 0.2236 0.90700001
0.1123 0.22409999 0.90899998
0.1137 0.22390001 0.90799999
0.1153 0.22390001 0.90799999
0.1168 0.2236 0.90700001
0.1183 0.2236 0.90700001
0.1199 0.2236 0.90700001
0.1215 0.2236 0.90700001
0.1232 0.22390001 0.90799999
0.13429999 0.22409999 0.90899998
0.13609999 0.2244 0.91000003
0.13779999 0.2246 0.91100001
0.13950001 0.22490001 0.912
0.1411 0.22490001 0.912
0.1425 0.2246 0.91100001
0.1441 0.2246 0.91100001
0.1455 0.2244 0.91000003
0.1471 0.2244 0.91000003
0.14839999 0.22390001 0.90799999
0.1498 0.2236 0.90700001
0.1513 0.2236 0.90700001
0.1529 0.2236 0.90700001
0.15449999 0.2236 0.90700001
0.1561 0.2236 0.90700001
0.1576 0.2236 0.90700001
0.1594 0.22390001 0.90799999
0.1613 0.2244 0.91000003
0.16339999 0.2251 0.91299999
0.1652 0.2253 0.91399997
0.16689999 0.2256 0.91500002
0.1705 0.2261 0.917
0.1751 0.22579999 0.91600001
0.1812 0.2256 0.91500002
-0.37009999 0.2202 0.88700002
-0.36570001 0.21950001 0.884
-0.3642 0.21950001 0.884
-0.36269999 0.21950001 0.884
-0.3603 0.219 0.88200003
-0.35839999 0.21870001 0.88099998
-0.3565 0.2185 0.88
-0.35080001 0.21870001 0.88099998
-0.34920001 0.21870001 0.88099998
-0.34740001 0.22050001 0.88800001
-0.34619999 0.2207 0.889
-0.3439 0.2212 0.89099997
-0.33579999 0.221 0.88999999
-0.33469999 0.2212 0.89099997
-0.33270001 0.221 0.88999999
-0.3308 0.2207 0.889
-0.32929999 0.2207 0.889
-0.3274 0.22050001 0.88800001
-0.32620001 0.2207 0.889
-0.32429999 0.22050001 0.88800001
-0.32280001 0.22050001 0.88800001
-0.32120001 0.22050001 0.88800001
-0.3197 0.22050001 0.88800001
-0.31369999 0.2217 0.89300001
-0.31130001 0.2244 0.90399998
-0.30939999 0.2242 0.903
-0.30599999 0.22400001 0.90200001
-0.30410001 0.2237 0.90100002
-0.30219999 0.2235 0.89999998
-0.29539999 0.2242 0.903
-0.2931 0.2237 0.90100002
-0.24609999 0.2207 0.889
-0.24590001 0.222 0.89399999
-0.2449 0.2225 0.89600003
-0.2439 0.223 0.898
-0.2429 0.2235 0.89999998
-0.23800001 0.2247 0.90499997
-0.2348 0.2247 0.90499997
-0.23280001 0.2242 0.903
-0.2309 0.22400001 0.90200001
-0.2291 0.2237 0.90100002
-0.22759999 0.2237 0.90100002
-0.226 0.2237 0.90100002
-0.2244 0.2237 0.90100002
-0.2229 0.2237 0.90100002
-0.22130001 0.2237 0.90100002
-0.2193 0.22319999 0.89899999
-0.2175 0.223 0.898
-0.21520001 0.22220001 0.89499998
-0.2132 0.2217 0.89300001
-0.21089999 0.221 0.88999999
-0.20909999 0.2207 0.889
-0.2076 0.2207 0.889
-0.206 0.2207 0.889
-0.2043 0.22050001 0.88800001
-0.2027 0.22050001 0.88800001
-0.20119999 0.22050001 0.88800001
-0.1996 0.22050001 0.88800001
-0.1981 0.22050001 0.88800001
-0.19660001 0.22050001 0.88800001
-0.19499999 0.22050001 0.88800001
-0.1939 0.221 0.88999999
-0.1904 0.22220001 0.89499998
-0.1894 0.223 0.898
-0.1883 0.2235 0.89999998
-0.1867 0.2235 0.89999998
-0.185 0.22319999 0.89899999
-0.18340001 0.22319999 0.89899999
-0.18170001 0.223 0.898
-0.1797 0.2225 0.89600003
-0.178 0.22220001 0.89499998
-0.1762 0.222 0.89399999
-0.1745 0.2217 0.89300001
-0.1725 0.2212 0.89099997
-0.1691 0.2207 0.889
-0.1673 0.22050001 0.88800001
-0.1656 0.2202 0.88700002
-0.16410001 0.2202 0.88700002
-0.16249999 0.2202 0.88700002
-0.16150001 0.221 0.88999999
-0.1602 0.2212 0.89099997
-0.15899999 0.2217 0.89300001
-0.1574 0.2217 0.89300001
-0.1504 0.2227 0.89700001
-0.149 0.223 0.898
-0.1476 0.22319999 0.89899999
-0.1462 0.2235 0.89999998
-0.1445 0.22319999 0.89899999
-0.1429 0.22319999 0.89899999
-0.1415 0.2235 0.89999998
-0.14 0.2235 0.89999998
-0.13850001 0.2237 0.90100002
-0.1373 0.2242 0.903
-0.1357 0.2242 0.903
-0.13420001 0.2242 0.903
-0.13259999 0.2242 0.903
-0.131 0.2242 0.903
-0.1292 0.2237 0.90100002
-0.1276 0.2237 0.90100002
-0.1259 0.2235 0.89999998
-0.1244 0.2235 0.89999998
-0.1197 0.2235 0.89999998
-0.1166 0.2235 0.89999998
-0.115 0.2235 0.89999998
-0.1136 0.2237 0.90100002
-0.1121 0.22400001 0.90200001
-0.1104 0.2237 0.90100002
-0.1089 0.2237 0.90100002
-0.1072 0.2235 0.89999998
-0.1055 0.22319999 0.89899999
-0.1038 0.223 0.898
-0.1023 0.223 0.898
-0.1005 0.2225 0.89600003
-0.098999999 0.2225 0.89600003
-0.097499996 0.2227 0.89700001
-0.096199997 0.22319999 0.89899999
-0.090099998 0.2237 0.90100002
-0.088600002 0.2237 0.90100002
-0.087099999 0.22400001 0.90200001
-0.085500002 0.2237 0.90100002
-0.083700001 0.22319999 0.89899999
-0.082000002 0.2227 0.89700001
-0.080300003 0.2225 0.89600003
-0.078699999 0.22220001 0.89499998
-0.069799997 0.2237 0.90100002
-0.068400003 0.22400001 0.90200001
-0.066699997 0.2237 0.90100002
-0.065200001 0.2237 0.90100002
-0.063500002 0.2235 0.89999998
-0.061999999 0.2235 0.89999998
-0.058899999 0.2237 0.90100002
-0.057399999 0.22400001 0.90200001
-0.056000002 0.2247 0.90499997
-0.052900001 0.2247 0.90499997
-0.0513 0.2247 0.90499997
-0.049800001 0.2247 0.90499997
-0.048099998 0.2242 0.903
-0.046500001 0.2242 0.903
-0.045000002 0.2242 0.903
-0.043400001 0.2244 0.90399998
-0.041900001 0.2247 0.90499997
-0.040399998 0.22490001 0.90600002
-0.038899999 0.2252 0.90700001
-0.037300002 0.2252 0.90700001
-0.035700001 0.2252 0.90700001
-0.0341 0.2252 0.90700001
-0.032499999 0.22490001 0.90600002
-0.0262 0.2242 0.903
-0.024599999 0.2237 0.90100002
-0.023 0.2237 0.90100002
-0.021400001 0.2235 0.89999998
-0.0199 0.2237 0.90100002
-0.018300001 0.2237 0.90100002
-0.016799999 0.2242 0.903
-0.0152 0.2244 0.90399998
-0.0137 0.2247 0.90499997
-0.0121 0.22490001 0.90600002
-0.0074 0.22490001 0.90600002
-0.0057999999 0.22490001 0.90600002
-0.0027000001 0.2247 0.90499997
-0.0011 0.2247 0.90499997
0.00039999999 0.2247 0.90499997
0.0020000001 0.2247 0.90499997
0.0051000002 0.2247 0.90499997
0.0066999998 0.2247 0.90499997
0.0114 0.2242 0.903
0.013 0.2242 0.903
0.0145 0.22400001 0.90200001
0.016000001 0.2237 0.90100002
0.0176 0.22400001 0.90200001
0.019200001 0.2242 0.903
0.0208 0.2242 0.903
0.022399999 0.2247 0.90499997
0.024 0.2247 0.90499997
0.025599999 0.2252 0.90700001
0.0272 0.2252 0.90700001
0.0287 0.2252 0.90700001
0.030300001 0.22490001 0.90600002
0.0319 0.2254 0.90799999
0.033399999 0.2252 0.90700001
0.036600001 0.2252 0.90700001
0.038199998 0.2252 0.90700001
0.039700001 0.2252 0.90700001
0.0414 0.2254 0.90799999
0.0429 0.2252 0.90700001
0.044500001 0.2252 0.90700001
0.046 0.2252 0.90700001
0.047499999 0.22490001 0.90600002
0.049199998 0.2252 0.90700001
0.0539 0.2252 0.90700001
0.055500001 0.2252 0.90700001
0.057 0.2252 0.90700001
0.058600001 0.2252 0.90700001
0.0601 0.22490001 0.90600002
0.063100003 0.2244 0.90399998
0.0647 0.2244 0.90399998
0.066200003 0.2244 0.90399998
0.067900002 0.2247 0.90499997
0.069399998 0.2247 0.90499997
0.071000002 0.2247 0.90499997
0.072700001 0.22490001 0.90600002
0.074199997 0.22490001 0.90600002
0.075900003 0.2252 0.90700001
0.077500001 0.2252 0.90700001
0.079000004 0.2252 0.90700001
0.080700003 0.2254 0.90799999
0.0823 0.2254 0.90799999
0.086800002 0.22490001 0.90600002
0.088399999 0.22490001 0.90600002
0.091399997 0.2247 0.90499997
0.093000002 0.2247 0.90499997
0.096100003 0.2247 0.90499997
0.1012 0.2254 0.90799999
0.1028 0.22570001 0.90899998
0.1045 0.22589999 0.91000003
0.1077 0.22589999 0.91000003
0.1091 0.22570001 0.90899998
0.1107 0.22570001 0.90899998
0.1122 0.2254 0.90799999
0.1152 0.2252 0.90700001
0.1168 0.2252 0.90700001
0.1183 0.2252 0.90700001
0.1199 0.2252 0.90700001
0.1216 0.2254 0.90799999
0.1232 0.2254 0.90799999
0.1266 0.22589999 0.91000003
0.12819999 0.22589999 0.91000003
0.13429999 0.22570001 0.90899998
0.13590001 0.22570001 0.90899998
0.1376 0.22589999 0.91000003
0.1392 0.22589999 0.91000003
0.1408 0.22589999 0.91000003
0.1425 0.2262 0.91100001
0.1441 0.2262 0.91100001
0.14569999 0.2262 0.91100001
0.1473 0.2262 0.91100001
0.1487 0.22589999 0.91000003
0.1499 0.2254 0.90799999
0.1531 0.2254 0.90799999
0.15449999 0.2252 0.90700001
0.1561 0.2252 0.90700001
0.1576 0.2252 0.90700001
0.1594 0.2254 0.90799999
0.1613 0.22589999 0.91000003
0.16320001 0.2264 0.912
0.1652 0.2269 0.91399997
0.16680001 0.2269 0.91399997
0.16850001 0.2272 0.91500002
0.17030001 0.2274 0.91600001
0.17820001 0.2274 0.91600001
-0.38260001 0.221 0.884
-0.36770001 0.22130001 0.88499999
-0.3662 0.22130001 0.88499999
-0.3642 0.221 0.884
-0.36230001 0.2208 0.88300002
-0.3603 0.22050001 0.88200003
-0.35879999 0.22050001 0.88200003
-0.35690001 0.2203 0.88099998
-0.3538 0.2203 0.88099998
-0.35229999 0.2203 0.88099998
-0.34959999 0.22050001 0.88200003
-0.34889999 0.221 0.884
-0.34740001 0.222 0.88800001
-0.3466 0.2225 0.88999999
-0.34509999 0.2225 0.88999999
-0.34349999 0.2225 0.88999999
-0.33309999 0.2228 0.89099997
-0.3312 0.2225 0.88999999
-0.32969999 0.2225 0.88999999
-0.3274 0.222 0.88800001
-0.32620001 0.22229999 0.889
-0.32429999 0.222 0.88800001
-0.32280001 0.222 0.88800001
-0.32120001 0.222 0.88800001
-0.3193 0.2218 0.88700002
-0.31549999 0.22130001 0.88499999
-0.31310001 0.22499999 0.89999998
-0.31189999 0.2253 0.90100002
-0.31099999 0.22579999 0.903
-0.30939999 0.22579999 0.903
-0.3075 0.2255 0.90200001
-0.30559999 0.2253 0.90100002
-0.3037 0.22499999 0.89999998
-0.2464 0.2225 0.88999999
-0.24590001 0.2235 0.89399999
-0.2449 0.22400001 0.89600003
-0.2439 0.2245 0.898
-0.2429 0.22499999 0.89999998
-0.2419 0.2255 0.90200001
-0.2333 0.2263 0.90499997
-0.2314 0.226 0.90399998
-0.2265 0.22579999 0.903
-0.22490001 0.22579999 0.903
-0.22310001 0.2255 0.90200001
-0.22130001 0.2253 0.90100002
-0.21950001 0.22499999 0.89999998
-0.21789999 0.22499999 0.89999998
-0.2157 0.2243 0.89700001
-0.2132 0.2233 0.89300001
-0.2111 0.2228 0.89099997
-0.2093 0.2225 0.88999999
-0.2078 0.2225 0.88999999
-0.206 0.22229999 0.889
-0.2043 0.222 0.88800001
-0.2027 0.222 0.88800001
-0.20119999 0.222 0.88800001
-0.1996 0.222 0.88800001
-0.1963 0.2218 0.88700002
-0.1948 0.2218 0.88700002
-0.1935 0.222 0.88800001
-0.18970001 0.223 0.89200002
-0.1886 0.2235 0.89399999
-0.1875 0.22400001 0.89600003
-0.1859 0.22400001 0.89600003
-0.1846 0.2243 0.89700001
-0.18279999 0.22400001 0.89600003
-0.1811 0.2238 0.89499998
-0.1795 0.2238 0.89499998
-0.1776 0.2233 0.89300001
-0.176 0.2233 0.89300001
-0.1743 0.223 0.89200002
-0.1725 0.2228 0.89099997
-0.1708 0.2225 0.88999999
-0.1692 0.2225 0.88999999
-0.1673 0.222 0.88800001
-0.16580001 0.222 0.88800001
-0.16410001 0.2218 0.88700002
-0.1627 0.222 0.88800001
-0.16140001 0.22229999 0.889
-0.15979999 0.22229999 0.889
-0.1514 0.2235 0.89399999
-0.15019999 0.22400001 0.89600003
-0.14910001 0.22480001 0.89899999
-0.1477 0.22499999 0.89999998
-0.1464 0.2253 0.90100002
-0.14480001 0.2253 0.90100002
-0.1432 0.2253 0.90100002
-0.1417 0.2253 0.90100002
-0.14030001 0.2255 0.90200001
-0.1389 0.22579999 0.903
-0.1373 0.22579999 0.903
-0.1357 0.22579999 0.903
-0.13420001 0.22579999 0.903
-0.13259999 0.22579999 0.903
-0.131 0.22579999 0.903
-0.1292 0.2253 0.90100002
-0.1276 0.2253 0.90100002
-0.1259 0.22499999 0.89999998
-0.1244 0.22499999 0.89999998
-0.1212 0.22499999 0.89999998
-0.1197 0.22499999 0.89999998
-0.1181 0.22499999 0.89999998
-0.1166 0.22499999 0.89999998
-0.115 0.22499999 0.89999998
-0.1136 0.2253 0.90100002
-0.1104 0.2253 0.90100002
-0.1089 0.2253 0.90100002
-0.1073 0.2253 0.90100002
-0.1058 0.2253 0.90100002
-0.1041 0.22499999 0.89999998
-0.1024 0.22480001 0.89899999
-0.1007 0.2245 0.898
-0.099100001 0.2243 0.89700001
-0.097499996 0.2243 0.89700001
-0.096199997 0.22480001 0.89899999
-0.094599999 0.22480001 0.89899999
-0.088600002 0.2253 0.90100002
-0.086999997 0.2253 0.90100002
-0.0854 0.22499999 0.89999998
-0.0836 0.2245 0.898
-0.082099997 0.2245 0.898
-0.080300003 0.22400001 0.89600003
-0.069799997 0.22499999 0.89999998
-0.068300001 0.2253 0.90100002
-0.066600002 0.22499999 0.89999998
-0.065099999 0.22499999 0.89999998
-0.063500002 0.22499999 0.89999998
-0.061900001 0.22480001 0.89899999
-0.060400002 0.22499999 0.89999998
-0.058899999 0.2253 0.90100002
-0.057399999 0.2255 0.90200001
-0.0559 0.22579999 0.903
-0.054400001 0.226 0.90399998
-0.0528 0.22579999 0.903
-0.051199999 0.22579999 0.903
-0.049699999 0.226 0.90399998
-0.048099998 0.22579999 0.903
-0.046399999 0.2253 0.90100002
-0.0449 0.2255 0.90200001
-0.041900001 0.226 0.90399998
-0.0403 0.226 0.90399998
-0.038800001 0.2263 0.90499997
-0.0372 0.2263 0.90499997
-0.035700001 0.2265 0.90600002
-0.0341 0.2265 0.90600002
-0.032499999 0.2265 0.90600002
-0.0309 0.2263 0.90499997
-0.027799999 0.2263 0.90499997
-0.0262 0.226 0.90399998
-0.024599999 0.2255 0.90200001
-0.023 0.2253 0.90100002
-0.021400001 0.2253 0.90100002
-0.0199 0.2253 0.90100002
-0.018300001 0.2253 0.90100002
-0.016799999 0.22579999 0.903
-0.0152 0.226 0.90399998
-0.0137 0.2263 0.90499997
-0.0106 0.22679999 0.90700001
-0.0074 0.22679999 0.90700001
-0.0059000002 0.22679999 0.90700001
-0.0027000001 0.22679999 0.90700001
0.0052 0.22679999 0.90700001
0.0082999999 0.2263 0.90499997
0.0098000001 0.2263 0.90499997
0.0145 0.2253 0.90100002
0.016100001 0.2255 0.90200001
0.0176 0.2255 0.90200001
0.019200001 0.22579999 0.903
0.0208 0.22579999 0.903
0.022399999 0.2263 0.90499997
0.024 0.2263 0.90499997
0.025599999 0.22679999 0.90700001
0.0272 0.227 0.90799999
0.0287 0.22679999 0.90700001
0.030300001 0.2265 0.90600002
0.0319 0.22679999 0.90700001
0.033399999 0.22679999 0.90700001
0.035 0.22679999 0.90700001
0.036600001 0.22679999 0.90700001
0.0381 0.2265 0.90600002
0.039700001 0.22679999 0.90700001
0.0414 0.227 0.90799999
0.0429 0.22679999 0.90700001
0.044500001 0.22679999 0.90700001
0.046 0.22679999 0.90700001
0.047499999 0.2265 0.90600002
0.049199998 0.22679999 0.90700001
0.052299999 0.2265 0.90600002
0.053800002 0.2265 0.90600002
0.055399999 0.2265 0.90600002
0.058600001 0.22679999 0.90700001
0.060199998 0.22679999 0.90700001
0.0616 0.2263 0.90499997
0.063199997 0.2263 0.90499997
0.0647 0.2263 0.90499997
0.066299997 0.2263 0.90499997
0.067900002 0.2263 0.90499997
0.069399998 0.2263 0.90499997
0.071000002 0.2263 0.90499997
0.072700001 0.2265 0.90600002
0.074299999 0.22679999 0.90700001
0.075900003 0.22679999 0.90700001
0.077500001 0.22679999 0.90700001
0.079099998 0.227 0.90799999
0.080700003 0.227 0.90799999
0.0823 0.227 0.90799999
0.083700001 0.22679999 0.90700001
0.085299999 0.22679999 0.90700001
0.086900003 0.22679999 0.90700001
0.088399999 0.2265 0.90600002
0.091399997 0.2263 0.90499997
0.093000002 0.2263 0.90499997
0.094499998 0.2263 0.90499997
0.096199997 0.2265 0.90600002
0.097900003 0.22679999 0.90700001
0.099600002 0.227 0.90799999
0.106 0.2273 0.90899998
0.1076 0.2273 0.90899998
0.109 0.227 0.90799999
0.1106 0.227 0.90799999
0.1122 0.227 0.90799999
0.1137 0.227 0.90799999
0.1153 0.227 0.90799999
0.1168 0.22679999 0.90700001
0.1183 0.22679999 0.90700001
0.1199 0.22679999 0.90700001
0.1215 0.22679999 0.90700001
0.1302 0.22830001 0.91299999
0.13160001 0.228 0.912
0.13590001 0.2273 0.90899998
0.1375 0.2273 0.90899998
0.1392 0.22750001 0.91000003
0.141 0.2278 0.91100001
0.1427 0.228 0.912
0.1443 0.228 0.912
0.1459 0.228 0.912
0.1487 0.22750001 0.91000003
0.15009999 0.2273 0.90899998
0.1531 0.227 0.90799999
0.15449999 0.22679999 0.90700001
0.1561 0.22679999 0.90700001
0.1576 0.22679999 0.90700001
0.1594 0.227 0.90799999
0.1613 0.22750001 0.91000003
0.16320001 0.228 0.912
0.16500001 0.22830001 0.91299999
0.16680001 0.22849999 0.91399997
0.1737 0.22930001 0.917
0.1798 0.229 0.91600001
-0.41589999 0.22480001 0.89300001
-0.3876 0.221 0.87800002
-0.38609999 0.221 0.87800002
-0.38389999 0.22149999 0.88
-0.38240001 0.22149999 0.88
-0.3813 0.2218 0.88099998
-0.37979999 0.2218 0.88099998
-0.37819999 0.2218 0.88099998
-0.37130001 0.22409999 0.88999999
-0.36849999 0.2233 0.88700002
-0.36700001 0.2233 0.88700002
-0.36500001 0.223 0.88599998
-0.36309999 0.2228 0.88499999
-0.36109999 0.2225 0.884
-0.35960001 0.2225 0.884
-0.35769999 0.22229999 0.88300002
-0.35080001 0.2228 0.88499999
-0.3497 0.223 0.88599998
-0.34889999 0.2236 0.88800001
-0.34819999 0.22409999 0.88999999
-0.347 0.2243 0.89099997
-0.34549999 0.2243 0.89099997
-0.3439 0.2243 0.89099997
-0.33579999 0.22409999 0.88999999
-0.33500001 0.2246 0.89200002
-0.3335 0.2246 0.89200002
-0.33160001 0.2243 0.89099997
-0.33000001 0.2243 0.89099997
-0.3281 0.22409999 0.88999999
-0.32659999 0.22409999 0.88999999
-0.32499999 0.22409999 0.88999999
-0.3231 0.2238 0.889
-0.32120001 0.2236 0.88800001
-0.3193 0.2233 0.88700002
-0.31220001 0.22480001 0.89300001
-0.31240001 0.2261 0.898
-0.31189999 0.22679999 0.90100002
-0.31029999 0.22679999 0.90100002
-0.30880001 0.22679999 0.90100002
-0.30720001 0.22679999 0.90100002
-0.30559999 0.22679999 0.90100002
-0.3037 0.22660001 0.89999998
-0.29809999 0.22579999 0.89700001
-0.2466 0.2243 0.89099997
-0.2462 0.2253 0.89499998
-0.2449 0.2256 0.89600003
-0.2436 0.22579999 0.89700001
-0.24259999 0.2263 0.89899999
-0.23999999 0.22679999 0.90100002
-0.2374 0.2273 0.903
-0.23119999 0.2273 0.903
-0.2278 0.2271 0.90200001
-0.2262 0.2271 0.90200001
-0.2244 0.22679999 0.90100002
-0.2229 0.22679999 0.90100002
-0.2211 0.22660001 0.89999998
-0.219 0.2261 0.898
-0.2175 0.2261 0.898
-0.2154 0.2256 0.89600003
-0.2132 0.22480001 0.89300001
-0.2111 0.2243 0.89099997
-0.2093 0.22409999 0.88999999
-0.208 0.2243 0.89099997
-0.20630001 0.22409999 0.88999999
-0.2045 0.2238 0.889
-0.2027 0.2236 0.88800001
-0.20119999 0.2236 0.88800001
-0.1996 0.2236 0.88800001
-0.1979 0.2233 0.88700002
-0.1948 0.2233 0.88700002
-0.1895 0.2243 0.89099997
-0.1884 0.22480001 0.89300001
-0.1873 0.2253 0.89499998
-0.1859 0.2256 0.89600003
-0.18440001 0.2256 0.89600003
-0.18279999 0.2256 0.89600003
-0.1811 0.2253 0.89499998
-0.1795 0.2253 0.89499998
-0.1778 0.2251 0.89399999
-0.176 0.22480001 0.89300001
-0.1743 0.2246 0.89200002
-0.1725 0.2243 0.89099997
-0.1692 0.22409999 0.88999999
-0.16769999 0.22409999 0.88999999
-0.16599999 0.2238 0.889
-0.1644 0.2238 0.889
-0.1631 0.22409999 0.88999999
-0.1617 0.2243 0.89099997
-0.16 0.22409999 0.88999999
-0.15880001 0.2246 0.89200002
-0.154 0.2243 0.89099997
-0.1524 0.2243 0.89099997
-0.1514 0.2251 0.89399999
-0.1505 0.2261 0.898
-0.14929999 0.22660001 0.89999998
-0.1479 0.22679999 0.90100002
-0.1464 0.22679999 0.90100002
-0.145 0.2271 0.90200001
-0.1435 0.2273 0.903
-0.1418 0.2271 0.90200001
-0.14040001 0.2273 0.903
-0.1389 0.2273 0.903
-0.1373 0.2273 0.903
-0.1357 0.2273 0.903
-0.13420001 0.2273 0.903
-0.13240001 0.2271 0.90200001
-0.13070001 0.22679999 0.90100002
-0.1292 0.22679999 0.90100002
-0.1275 0.22660001 0.89999998
-0.1259 0.22660001 0.89999998
-0.1244 0.22660001 0.89999998
-0.1228 0.22660001 0.89999998
-0.1212 0.22660001 0.89999998
-0.1197 0.22660001 0.89999998
-0.1181 0.22660001 0.89999998
-0.1166 0.22660001 0.89999998
-0.115 0.22660001 0.89999998
-0.1104 0.22679999 0.90100002
-0.1089 0.22679999 0.90100002
-0.1073 0.22679999 0.90100002
-0.1058 0.22679999 0.90100002
-0.1041 0.22660001 0.89999998
-0.1024 0.2263 0.89899999
-0.1006 0.22579999 0.89700001
-0.098800004 0.2253 0.89499998
-0.0973 0.2253 0.89499998
-0.089900002 0.2263 0.89899999
-0.088399999 0.2263 0.89899999
-0.086800002 0.2263 0.89899999
-0.085199997 0.2261 0.898
-0.083400004 0.2256 0.89600003
-0.082000002 0.22579999 0.89700001
-0.080499999 0.2261 0.898
-0.078900002 0.2261 0.898
-0.075800002 0.2261 0.898
-0.0744 0.2263 0.89899999
-0.072899997 0.22660001 0.89999998
-0.0713 0.22660001 0.89999998
-0.069799997 0.22660001 0.89999998
-0.0682 0.22660001 0.89999998
-0.066600002 0.22660001 0.89999998
-0.065099999 0.22660001 0.89999998
-0.0634 0.2263 0.89899999
-0.061999999 0.22660001 0.89999998
-0.060400002 0.22660001 0.89999998
-0.058899999 0.22679999 0.90100002
-0.057399999 0.2271 0.90200001
-0.0559 0.2273 0.903
-0.054299999 0.2273 0.903
-0.052700002 0.2271 0.90200001
-0.051199999 0.2273 0.903
-0.049699999 0.22759999 0.90399998
-0.046399999 0.22679999 0.90100002
-0.0449 0.22679999 0.90100002
-0.043299999 0.22679999 0.90100002
-0.0418 0.2273 0.903
-0.040199999 0.2271 0.90200001
-0.038699999 0.2273 0.903
-0.037099998 0.2273 0.903
-0.035599999 0.2278 0.90499997
-0.0341 0.2278 0.90499997
-0.032499999 0.2278 0.90499997
-0.0309 0.2278 0.90499997
-0.0294 0.2278 0.90499997
-0.027799999 0.2278 0.90499997
-0.0262 0.2278 0.90499997
-0.024599999 0.2273 0.903
-0.023 0.2273 0.903
-0.021500001 0.2271 0.90200001
-0.0199 0.2271 0.90200001
-0.018300001 0.2273 0.903
-0.016799999 0.2273 0.903
-0.0152 0.22759999 0.90399998
-0.0137 0.2278 0.90499997
-0.0121 0.22830001 0.90700001
-0.0106 0.22830001 0.90700001
-0.0089999996 0.22830001 0.90700001
-0.0074 0.22830001 0.90700001
-0.0059000002 0.22830001 0.90700001
-0.0027000001 0.22830001 0.90700001
-0.0011 0.2281 0.90600002
0.0035999999 0.22830001 0.90700001
0.0066999998 0.2281 0.90600002
0.0082999999 0.2281 0.90600002
0.0098000001 0.2278 0.90499997
0.0114 0.22759999 0.90399998
0.013 0.2273 0.903
0.0145 0.22679999 0.90100002
0.016100001 0.2271 0.90200001
0.0176 0.2273 0.903
0.019200001 0.2273 0.903
0.0208 0.2273 0.903
0.022399999 0.2278 0.90499997
0.024 0.22830001 0.90700001
0.025599999 0.22830001 0.90700001
0.0272 0.22830001 0.90700001
0.0287 0.2281 0.90600002
0.030200001 0.2278 0.90499997
0.031800002 0.2281 0.90600002
0.033399999 0.2281 0.90600002
0.035 0.22830001 0.90700001
0.036600001 0.22830001 0.90700001
0.038199998 0.22830001 0.90700001
0.039700001 0.22830001 0.90700001
0.0414 0.2286 0.90799999
0.0429 0.22830001 0.90700001
0.044500001 0.22830001 0.90700001
0.046 0.2281 0.90600002
0.047499999 0.2281 0.90600002
0.0491 0.2281 0.90600002
0.052099999 0.2273 0.903
0.0537 0.22759999 0.90399998
0.055300001 0.22759999 0.90399998
0.056899998 0.2278 0.90499997
0.058600001 0.22830001 0.90700001
0.060199998 0.2286 0.90799999
0.061700001 0.22830001 0.90700001
0.063299999 0.22830001 0.90700001
0.064900003 0.22830001 0.90700001
0.066399999 0.2281 0.90600002
0.068000004 0.22830001 0.90700001
0.069499999 0.2281 0.90600002
0.071000002 0.2278 0.90499997
0.072700001 0.22830001 0.90700001
0.074299999 0.22830001 0.90700001
0.075900003 0.22830001 0.90700001
0.077500001 0.2286 0.90799999
0.079099998 0.2286 0.90799999
0.080799997 0.2288 0.90899998
0.0823 0.2286 0.90799999
0.083800003 0.2286 0.90799999
0.0854 0.2286 0.90799999
0.086900003 0.22830001 0.90700001
0.0898 0.2278 0.90499997
0.091399997 0.2278 0.90499997
0.093000002 0.2278 0.90499997
0.094499998 0.2278 0.90499997
0.096100003 0.2278 0.90499997
0.099600002 0.2286 0.90799999
0.1012 0.2286 0.90799999
0.1027 0.2286 0.90799999
0.106 0.2288 0.90899998
0.1076 0.2288 0.90899998
0.109 0.2286 0.90799999
0.1107 0.2288 0.90899998
0.1122 0.2286 0.90799999
0.1137 0.2286 0.90799999
0.1153 0.2286 0.90799999
0.1169 0.2286 0.90799999
0.1183 0.22830001 0.90700001
0.1199 0.22830001 0.90700001
0.1215 0.22830001 0.90700001
0.1232 0.2286 0.90799999
0.1248 0.2286 0.90799999
0.12819999 0.2291 0.91000003
0.1346 0.22930001 0.91100001
0.13940001 0.22930001 0.91100001
0.1411 0.2296 0.912
0.1427 0.2296 0.912
0.1443 0.2296 0.912
0.15009999 0.2288 0.90899998
0.1515 0.2286 0.90799999
0.1547 0.2286 0.90799999
0.15620001 0.2286 0.90799999
0.1578 0.2286 0.90799999
0.1594 0.2286 0.90799999
0.1613 0.2291 0.91000003
0.16320001 0.2296 0.912
0.16500001 0.2298 0.91299999
0.16680001 0.23010001 0.91399997
0.1684 0.23010001 0.91399997
-0.4145 0.2256 0.88999999
-0.38389999 0.22310001 0.88
-0.38240001 0.22310001 0.88
-0.38170001 0.2236 0.88200003
-0.3689 0.2251 0.88800001
-0.36739999 0.2251 0.88800001
-0.36539999 0.22480001 0.88700002
-0.36309999 0.2243 0.88499999
-0.36199999 0.2246 0.88599998
-0.36039999 0.2246 0.88599998
-0.35159999 0.22480001 0.88700002
-0.3459 0.2261 0.89200002
-0.34240001 0.22589999 0.89099997
-0.3405 0.2256 0.88999999
-0.33469999 0.22589999 0.89099997
-0.33309999 0.22589999 0.89099997
-0.3312 0.2256 0.88999999
-0.32969999 0.2256 0.88999999
-0.3281 0.2256 0.88999999
-0.32690001 0.22589999 0.89099997
-0.32499999 0.2256 0.88999999
-0.3231 0.2253 0.889
-0.32120001 0.2251 0.88800001
-0.3193 0.22480001 0.88700002
-0.31400001 0.2243 0.88499999
-0.31220001 0.2264 0.89300001
-0.3127 0.2279 0.89899999
-0.31189999 0.22840001 0.90100002
-0.3107 0.2286 0.90200001
-0.30880001 0.22840001 0.90100002
-0.3075 0.2286 0.90200001
-0.30559999 0.22840001 0.90100002
-0.3037 0.2281 0.89999998
-0.29929999 0.2271 0.89600003
-0.2965 0.2274 0.89700001
-0.29190001 0.2286 0.90200001
-0.2476 0.2253 0.889
-0.2475 0.22660001 0.89399999
-0.2462 0.2269 0.89499998
-0.2449 0.2271 0.89600003
-0.2439 0.22759999 0.898
-0.2429 0.2281 0.89999998
-0.24160001 0.22840001 0.90100002
-0.23999999 0.22840001 0.90100002
-0.2385 0.22840001 0.90100002
-0.2369 0.22840001 0.90100002
-0.2244 0.22840001 0.90100002
-0.2226 0.2281 0.89999998
-0.219 0.22759999 0.898
-0.2177 0.2279 0.89899999
-0.2159 0.22759999 0.898
-0.21359999 0.2269 0.89499998
-0.21160001 0.2264 0.89300001
-0.2096 0.22589999 0.89099997
-0.208 0.22589999 0.89099997
-0.20630001 0.2256 0.88999999
-0.2045 0.2253 0.889
-0.2027 0.2251 0.88800001
-0.19939999 0.22480001 0.88700002
-0.1979 0.22480001 0.88700002
-0.19329999 0.22480001 0.88700002
-0.1895 0.22589999 0.89099997
-0.1884 0.2264 0.89300001
-0.1873 0.2269 0.89499998
-0.18610001 0.2274 0.89700001
-0.1848 0.22759999 0.898
-0.1832 0.22759999 0.898
-0.18170001 0.22759999 0.898
-0.1797 0.2271 0.89600003
-0.17820001 0.2271 0.89600003
-0.17640001 0.2269 0.89499998
-0.17479999 0.2269 0.89499998
-0.17290001 0.2264 0.89300001
-0.1696 0.2261 0.89200002
-0.1679 0.22589999 0.89099997
-0.1663 0.22589999 0.89099997
-0.1646 0.2256 0.88999999
-0.1631 0.2256 0.88999999
-0.16150001 0.2256 0.88999999
-0.1542 0.2261 0.89200002
-0.15189999 0.2274 0.89700001
-0.1507 0.2279 0.89899999
-0.1495 0.22840001 0.90100002
-0.14669999 0.2289 0.903
-0.1418 0.2286 0.90200001
-0.14030001 0.2286 0.90200001
-0.13850001 0.22840001 0.90100002
-0.1371 0.2286 0.90200001
-0.1354 0.22840001 0.90100002
-0.1339 0.22840001 0.90100002
-0.1323 0.22840001 0.90100002
-0.13060001 0.2281 0.89999998
-0.12899999 0.2281 0.89999998
-0.1275 0.2281 0.89999998
-0.1259 0.2281 0.89999998
-0.1244 0.2281 0.89999998
-0.1227 0.2279 0.89899999
-0.1211 0.2279 0.89899999
-0.1195 0.2279 0.89899999
-0.1181 0.2281 0.89999998
-0.1166 0.2281 0.89999998
-0.115 0.2281 0.89999998
-0.1091 0.2289 0.903
-0.1074 0.2286 0.90200001
-0.1058 0.22840001 0.90100002
-0.1041 0.2281 0.89999998
-0.1023 0.22759999 0.898
-0.1005 0.2271 0.89600003
-0.098800004 0.2269 0.89499998
-0.0973 0.2269 0.89499998
-0.095799997 0.2271 0.89600003
-0.094300002 0.2271 0.89600003
-0.092799999 0.2274 0.89700001
-0.091399997 0.22759999 0.898
-0.089900002 0.2279 0.89899999
-0.088399999 0.2279 0.89899999
-0.086800002 0.2279 0.89899999
-0.085199997 0.22759999 0.898
-0.0836 0.22759999 0.898
-0.082099997 0.22759999 0.898
-0.080499999 0.22759999 0.898
-0.079000004 0.2279 0.89899999
-0.077600002 0.2281 0.89999998
-0.075999998 0.2281 0.89999998
-0.0744 0.2281 0.89999998
-0.072899997 0.2281 0.89999998
-0.0713 0.2281 0.89999998
-0.069799997 0.2281 0.89999998
-0.0682 0.2281 0.89999998
-0.066600002 0.2281 0.89999998
-0.065099999 0.2281 0.89999998
-0.063600004 0.22840001 0.90100002
-0.062100001 0.2286 0.90200001
-0.060600001 0.2289 0.903
-0.059 0.2289 0.903
-0.057500001 0.2291 0.90399998
-0.056000002 0.22939999 0.90499997
-0.054400001 0.2291 0.90399998
-0.0528 0.2291 0.90399998
-0.0513 0.2291 0.90399998
-0.049699999 0.2291 0.90399998
-0.048099998 0.2289 0.903
-0.0449 0.22840001 0.90100002
-0.043299999 0.2286 0.90200001
-0.0418 0.2289 0.903
-0.040199999 0.2286 0.90200001
-0.038600001 0.2286 0.90200001
-0.037099998 0.2289 0.903
-0.035599999 0.2291 0.90399998
-0.034000002 0.2291 0.90399998
-0.032400001 0.2289 0.903
-0.0309 0.2289 0.903
-0.029300001 0.2291 0.90399998
-0.0262 0.22939999 0.90499997
-0.024599999 0.2289 0.903
-0.023 0.2289 0.903
-0.021500001 0.2289 0.903
-0.0199 0.2289 0.903
-0.018300001 0.2289 0.903
-0.016799999 0.2289 0.903
-0.0152 0.2291 0.90399998
-0.0137 0.22939999 0.90499997
-0.0121 0.2299 0.90700001
-0.0106 0.2299 0.90700001
-0.0089999996 0.2299 0.90700001
-0.0074 0.2299 0.90700001
-0.0059000002 0.2299 0.90700001
-0.0043000001 0.2299 0.90700001
-0.0027000001 0.2299 0.90700001
0.00039999999 0.22939999 0.90499997
0.0035999999 0.22939999 0.90499997
0.0051000002 0.22939999 0.90499997
0.0082999999 0.22939999 0.90499997
0.0098000001 0.2291 0.90399998
0.0114 0.2289 0.903
0.0129 0.2286 0.90200001
0.0145 0.22840001 0.90100002
0.016100001 0.2286 0.90200001
0.019200001 0.2291 0.90399998
0.022399999 0.2297 0.90600002
0.024 0.2299 0.90700001
0.025599999 0.23019999 0.90799999
0.0272 0.2299 0.90700001
0.0287 0.2297 0.90600002
0.030200001 0.22939999 0.90499997
0.031800002 0.2297 0.90600002
0.033399999 0.2297 0.90600002
0.035 0.2297 0.90600002
0.036600001 0.2297 0.90600002
0.038199998 0.2299 0.90700001
0.039700001 0.2299 0.90700001
0.041299999 0.2299 0.90700001
0.0429 0.2299 0.90700001
0.044399999 0.2297 0.90600002
0.045899998 0.22939999 0.90499997
0.047499999 0.22939999 0.90499997
0.048900001 0.2289 0.903
0.050500002 0.2289 0.903
0.052000001 0.2286 0.90200001
0.055300001 0.2291 0.90399998
0.056899998 0.22939999 0.90499997
0.058600001 0.2299 0.90700001
0.060199998 0.23019999 0.90799999
0.061799999 0.23019999 0.90799999
0.0634 0.23019999 0.90799999
0.064999998 0.23019999 0.90799999
0.066500001 0.23019999 0.90799999
0.068099998 0.23019999 0.90799999
0.071199998 0.2299 0.90700001
0.072700001 0.2299 0.90700001
0.074299999 0.2299 0.90700001
0.075999998 0.23019999 0.90799999
0.077500001 0.23019999 0.90799999
0.079099998 0.23019999 0.90799999
0.080700003 0.23019999 0.90799999
0.0823 0.23019999 0.90799999
0.083800003 0.23019999 0.90799999
0.0854 0.23019999 0.90799999
0.0898 0.22939999 0.90499997
0.091399997 0.22939999 0.90499997
0.094499998 0.22939999 0.90499997
0.096000001 0.2291 0.90399998
0.0977 0.22939999 0.90499997
0.101 0.2299 0.90700001
0.1026 0.2299 0.90700001
0.1042 0.2299 0.90700001
0.1059 0.23019999 0.90799999
0.1074 0.23019999 0.90799999
0.109 0.23019999 0.90799999
0.1106 0.23019999 0.90799999
0.1122 0.23019999 0.90799999
0.1137 0.23019999 0.90799999
0.1153 0.23019999 0.90799999
0.1168 0.2299 0.90700001
0.1183 0.2299 0.90700001
0.1199 0.2299 0.90700001
0.1213 0.2297 0.90600002
0.123 0.2299 0.90700001
0.1248 0.23019999 0.90799999
0.1265 0.2304 0.90899998
0.13339999 0.2314 0.91299999
0.1376 0.2307 0.91000003
0.13940001 0.2309 0.91100001
0.1408 0.2307 0.91000003
0.1425 0.2309 0.91100001
0.1441 0.2309 0.91100001
0.14569999 0.2309 0.91100001
0.1531 0.23019999 0.90799999
0.1547 0.23019999 0.90799999
0.15620001 0.23019999 0.90799999
0.1578 0.23019999 0.90799999
0.1596 0.2304 0.90899998
0.1613 0.2307 0.91000003
0.1631 0.2309 0.91100001
0.1648 0.23119999 0.912
0.1664 0.23119999 0.912
0.1682 0.2314 0.91299999
0.1697 0.2314 0.91299999
0.1761 0.2314 0.91299999
-0.38170001 0.2233 0.875
-0.36939999 0.2269 0.889
-0.3678 0.2269 0.889
-0.36390001 0.2264 0.88700002
-0.3628 0.22660001 0.88800001
-0.35170001 0.2274 0.89099997
-0.3439 0.2274 0.89099997
-0.34240001 0.2274 0.89099997
-0.34009999 0.2269 0.889
-0.3335 0.22660001 0.88800001
-0.33199999 0.22660001 0.88800001
-0.3308 0.2269 0.889
-0.32969999 0.2271 0.88999999
-0.3281 0.2271 0.88999999
-0.32659999 0.2271 0.88999999
-0.32499999 0.2271 0.88999999
-0.32280001 0.22660001 0.88800001
-0.32120001 0.22660001 0.88800001
-0.3193 0.2264 0.88700002
-0.31740001 0.2261 0.88599998
-0.31220001 0.2279 0.89300001
-0.31169999 0.2287 0.89600003
-0.31119999 0.22939999 0.89899999
-0.31 0.2297 0.89999998
-0.30840001 0.2297 0.89999998
-0.30689999 0.2297 0.89999998
-0.30239999 0.2287 0.89600003
-0.3008 0.2287 0.89600003
-0.29890001 0.22840001 0.89499998
-0.29370001 0.22920001 0.898
-0.29280001 0.2297 0.89999998
-0.24690001 0.2277 0.89200002
-0.2457 0.2279 0.89300001
-0.2447 0.22840001 0.89499998
-0.2439 0.22920001 0.898
-0.2429 0.2297 0.89999998
-0.24160001 0.2299 0.90100002
-0.23999999 0.2299 0.90100002
-0.2351 0.2297 0.89999998
-0.2304 0.2297 0.89999998
-0.2244 0.2299 0.90100002
-0.2229 0.2299 0.90100002
-0.2211 0.2297 0.89999998
-0.219 0.22920001 0.898
-0.2159 0.22920001 0.898
-0.2139 0.2287 0.89600003
-0.21160001 0.2279 0.89300001
-0.2098 0.2277 0.89200002
-0.20829999 0.2277 0.89200002
-0.20649999 0.2274 0.89099997
-0.20469999 0.2271 0.88999999
-0.20299999 0.2269 0.889
-0.2014 0.2269 0.889
-0.1996 0.22660001 0.88800001
-0.1979 0.2264 0.88700002
-0.19329999 0.2264 0.88700002
-0.1895 0.2274 0.89099997
-0.1884 0.2279 0.89300001
-0.1873 0.22840001 0.89499998
-0.1859 0.2287 0.89600003
-0.1848 0.22920001 0.898
-0.1832 0.22920001 0.898
-0.18170001 0.22920001 0.898
-0.18009999 0.22920001 0.898
-0.1785 0.22920001 0.898
-0.177 0.22920001 0.898
-0.1754 0.22920001 0.898
-0.17389999 0.22920001 0.898
-0.1719 0.2287 0.89600003
-0.17020001 0.22840001 0.89499998
-0.16859999 0.22840001 0.89499998
-0.16670001 0.2279 0.89300001
-0.1648 0.2274 0.89099997
-0.16329999 0.2274 0.89099997
-0.1617 0.2274 0.89099997
-0.15279999 0.2279 0.89300001
-0.1516 0.22840001 0.89499998
-0.1505 0.22920001 0.898
-0.14910001 0.22939999 0.89899999
-0.1477 0.2297 0.89999998
-0.14480001 0.2299 0.90100002
-0.1432 0.2299 0.90100002
-0.14 0.2297 0.89999998
-0.13680001 0.2297 0.89999998
-0.1353 0.2297 0.89999998
-0.1337 0.2297 0.89999998
-0.1322 0.2297 0.89999998
-0.13060001 0.2297 0.89999998
-0.12899999 0.2297 0.89999998
-0.1275 0.2297 0.89999998
-0.1259 0.2297 0.89999998
-0.1244 0.2297 0.89999998
-0.1228 0.2297 0.89999998
-0.1212 0.2297 0.89999998
-0.1197 0.2297 0.89999998
-0.1181 0.2297 0.89999998
-0.1167 0.2299 0.90100002
-0.1151 0.2299 0.90100002
-0.1137 0.23019999 0.90200001
-0.1122 0.2305 0.903
-0.1108 0.2307 0.90399998
-0.1091 0.2305 0.903
-0.1059 0.23019999 0.90200001
-0.1042 0.2299 0.90100002
-0.1007 0.22920001 0.898
-0.099100001 0.2289 0.89700001
-0.096100003 0.22920001 0.898
-0.094499998 0.22920001 0.898
-0.092900001 0.22920001 0.898
-0.091499999 0.22939999 0.89899999
-0.089900002 0.22939999 0.89899999
-0.088399999 0.22939999 0.89899999
-0.086800002 0.22939999 0.89899999
-0.085199997 0.22920001 0.898
-0.0836 0.22920001 0.898
-0.082099997 0.22939999 0.89899999
-0.080700003 0.2297 0.89999998
-0.079099998 0.2297 0.89999998
-0.077600002 0.2297 0.89999998
-0.075999998 0.2297 0.89999998
-0.074500002 0.2299 0.90100002
-0.072999999 0.2299 0.90100002
-0.0713 0.2297 0.89999998
-0.069799997 0.2297 0.89999998
-0.068300001 0.2299 0.90100002
-0.066699997 0.2299 0.90100002
-0.065200001 0.23019999 0.90200001
-0.063699998 0.23019999 0.90200001
-0.062199999 0.2305 0.903
-0.060699999 0.23100001 0.90499997
-0.0592 0.23100001 0.90499997
-0.057599999 0.23100001 0.90499997
-0.056000002 0.23100001 0.90499997
-0.054499999 0.23100001 0.90499997
-0.0528 0.2307 0.90399998
-0.0513 0.2307 0.90399998
-0.049699999 0.2307 0.90399998
-0.046500001 0.23019999 0.90200001
-0.045000002 0.2305 0.903
-0.043400001 0.2305 0.903
-0.041900001 0.2307 0.90399998
-0.0403 0.2305 0.903
-0.038699999 0.2305 0.903
-0.037099998 0.2305 0.903
-0.035599999 0.2307 0.90399998
-0.034000002 0.2305 0.903
-0.032400001 0.2305 0.903
-0.0309 0.2305 0.903
-0.029300001 0.2305 0.903
-0.0262 0.23100001 0.90499997
-0.024599999 0.2305 0.903
-0.0231 0.2307 0.90399998
-0.021500001 0.2307 0.90399998
-0.0199 0.2305 0.903
-0.018300001 0.2305 0.903
-0.016799999 0.2305 0.903
-0.0152 0.2307 0.90399998
-0.0121 0.2315 0.90700001
-0.0106 0.2315 0.90700001
