# .PCD v0.7 - Point Cloud Data file format
VERSION 0.7
FIELDS x y z
SIZE 4 4 4
TYPE F F F
COUNT 1 1 1
WIDTH 1525
HEIGHT 1
VIEWPOINT 0 0 0 1 0 0 0
POINTS 1525
DATA ascii
-0.33129999 -0.064999998 0.87800002
-0.31459999 -0.064999998 0.87800002
-0.31200001 -0.064800002 0.875
-0.30939999 -0.064599998 0.87199998
-0.1727 -0.064900003 0.87599999
-0.17129999 -0.064999998 0.87699997
-0.40720001 -0.063000001 0.87099999
-0.3761 -0.0634 0.87599999
-0.31490001 -0.063600004 0.87900001
-0.3127 -0.0634 0.87699997
-0.3105 -0.063299999 0.875
-0.17299999 -0.063500002 0.87800002
-0.40810001 -0.0616 0.87300003
-0.37740001 -0.062100001 0.87900001
-0.37540001 -0.061999999 0.87800002
-0.17910001 -0.061999999 0.87800002
-0.4104 -0.0605 0.87800002
-0.40799999 -0.0603 0.87599999
-0.40509999 -0.0601 0.87300003
-0.40169999 -0.059900001 0.86900002
-0.40689999 -0.058899999 0.87699997
-0.40220001 -0.058400001 0.87
-0.38299999 -0.059 0.87800002
-0.38150001 -0.059 0.87800002
-0.38 -0.059 0.87800002
-0.37850001 -0.059 0.87800002
-0.35910001 -0.0583 0.86799997
-0.35800001 -0.0583 0.86900002
-0.38350001 -0.057500001 0.87900001
-0.38150001 -0.057399999 0.87800002
-0.38 -0.057399999 0.87800002
-0.34540001 -0.057500001 0.87900001
-0.087899998 -0.057500001 0.87900001
-0.086400002 -0.057500001 0.87900001
-0.39629999 -0.055199999 0.86699998
-0.38350001 -0.056000002 0.87900001
-0.38150001 -0.0559 0.87800002
-0.087899998 -0.056000002 0.87900001
-0.086400002 -0.056000002 0.87900001
-0.39820001 -0.053800002 0.86799997
-0.39629999 -0.0537 0.86699998
-0.38960001 -0.054499999 0.87900001
-0.3865 -0.054499999 0.87900001
-0.38499999 -0.054499999 0.87900001
-0.38299999 -0.054400001 0.87800002
-0.38069999 -0.054299999 0.87599999
-0.37909999 -0.054299999 0.87599999
-0.36149999 -0.0539 0.87
-0.2367 -0.054299999 0.87699997
-0.23540001 -0.054400001 0.87800002
-0.089500003 -0.054499999 0.87900001
-0.087899998 -0.054499999 0.87900001
-0.086400002 -0.054499999 0.87900001
-0.39919999 -0.0524 0.87
-0.39719999 -0.052299999 0.86900002
-0.38800001 -0.052900001 0.87900001
-0.3865 -0.052900001 0.87900001
-0.38499999 -0.052900001 0.87900001
-0.38350001 -0.052900001 0.87900001
-0.38069999 -0.052700002 0.87599999
-0.36269999 -0.0526 0.87300003
-0.36039999 -0.0524 0.87099999
-0.35929999 -0.052499998 0.87199998
-0.35730001 -0.0524 0.87099999
-0.35620001 -0.052499998 0.87199998
-0.222 -0.052900001 0.87900001
-0.3863 -0.051199999 0.875
-0.38479999 -0.051199999 0.875
-0.38319999 -0.051199999 0.875
-0.3813 -0.051100001 0.87400001
-0.3793 -0.051100001 0.87300003
-0.37779999 -0.051100001 0.87300003
-0.36660001 -0.051199999 0.875
-0.3642 -0.051100001 0.87300003
-0.3619 -0.050900001 0.87099999
-0.36000001 -0.050900001 0.87
-0.35890001 -0.050900001 0.87099999
-0.35780001 -0.050999999 0.87199998
-0.3567 -0.051100001 0.87300003
-0.35510001 -0.051100001 0.87300003
-0.38499999 -0.0495 0.87199998
-0.38260001 -0.049400002 0.87
-0.3811 -0.049400002 0.87
-0.37909999 -0.0493 0.86900002
-0.37720001 -0.0493 0.86799997
-0.3635 -0.049699999 0.875
-0.3612 -0.0495 0.87300003
-0.35969999 -0.0495 0.87300003
-0.35859999 -0.049600001 0.87400001
-0.35749999 -0.049699999 0.875
-0.35600001 -0.049699999 0.875
-0.35440001 -0.049699999 0.875
-0.36629999 -0.048300002 0.87800002
-0.3644 -0.0482 0.87699997
-0.3624 -0.0482 0.87599999
-0.36050001 -0.048099998 0.875
-0.3594 -0.0482 0.87599999
-0.35870001 -0.048300002 0.87800002
-0.3576 -0.0484 0.87900001
-0.36669999 -0.046799999 0.87900001
-0.3633 -0.046799999 0.87800002
-0.36019999 -0.046799999 0.87800002
-0.3576 -0.046799999 0.87900001
-0.3378 -0.046799999 0.87900001
-0.33629999 -0.046799999 0.87900001
-0.37180001 -0.044599999 0.866
-0.3378 -0.045299999 0.87900001
-0.32100001 -0.045299999 0.87900001
-0.31909999 -0.045299999 0.87800002
-0.31799999 -0.045299999 0.87900001
-0.2789 -0.045200001 0.87599999
-0.41049999 -0.0436 0.875
-0.40759999 -0.043400001 0.87199998
-0.4052 -0.043299999 0.87
-0.4041 -0.043400001 0.87099999
-0.34540001 -0.0438 0.87900001
-0.34200001 -0.043699998 0.87800002
-0.33849999 -0.043699998 0.87699997
-0.33700001 -0.043699998 0.87699997
-0.32069999 -0.043699998 0.87800002
-0.31909999 -0.043699998 0.87800002
-0.31799999 -0.0438 0.87900001
-0.41249999 -0.042100001 0.87599999
-0.41049999 -0.042100001 0.875
-0.40759999 -0.041900001 0.87199998
-0.40470001 -0.0418 0.86900002
-0.4032 -0.0418 0.86900002
-0.3793 -0.0416 0.866
-0.345 -0.042199999 0.87800002
-0.33809999 -0.042100001 0.87599999
-0.33660001 -0.042100001 0.87599999
-0.32640001 -0.042199999 0.87699997
-0.32030001 -0.042199999 0.87699997
-0.2339 -0.042199999 0.87800002
-0.23270001 -0.042300001 0.87900001
-0.41100001 -0.040600002 0.87599999
-0.4086 -0.0405 0.87400001
-0.4066 -0.0405 0.87300003
-0.40650001 -0.040600002 0.87599999
-0.3829 -0.039999999 0.86400002
-0.38190001 -0.040100001 0.86500001
-0.38080001 -0.040100001 0.866
-0.345 -0.0407 0.87800002
-0.3427 -0.040600002 0.87599999
-0.3416 -0.040600002 0.87699997
-0.34 -0.040600002 0.87699997
-0.33739999 -0.0407 0.87800002
-0.2339 -0.0407 0.87800002
-0.23270001 -0.0407 0.87900001
-0.2113 -0.0407 0.87900001
-0.20649999 -0.0407 0.87800002
-0.2052 -0.0407 0.87900001
-0.38339999 -0.038600001 0.86500001
-0.38229999 -0.038600001 0.866
-0.38080001 -0.038600001 0.866
-0.36219999 -0.0392 0.87900001
-0.3545 -0.0392 0.87900001
-0.34459999 -0.039099999 0.87699997
-0.3427 -0.039099999 0.87599999
-0.34079999 -0.039000001 0.875
-0.33930001 -0.039000001 0.875
-0.3378 -0.039000001 0.875
-0.3362 -0.039000001 0.875
-0.3351 -0.039099999 0.87599999
-0.237 -0.0392 0.87800002
-0.2174 -0.0392 0.87900001
-0.2159 -0.0392 0.87900001
-0.21259999 -0.0392 0.87800002
-0.2111 -0.0392 0.87800002
-0.20909999 -0.039099999 0.87599999
-0.40689999 -0.037599999 0.87699997
-0.40450001 -0.037500001 0.875
-0.3793 -0.037099998 0.866
-0.37779999 -0.037099998 0.866
-0.3515 -0.037700001 0.87900001
-0.3461 -0.037599999 0.87699997
-0.34380001 -0.037500001 0.875
-0.34150001 -0.0374 0.87300003
-0.3396 -0.0374 0.87199998
-0.33849999 -0.0374 0.87300003
-0.33660001 -0.0374 0.87199998
-0.3355 -0.0374 0.87300003
-0.33469999 -0.037700001 0.87900001
-0.237 -0.037700001 0.87800002
-0.22939999 -0.037700001 0.87800002
-0.2281 -0.037700001 0.87900001
-0.2159 -0.037700001 0.87900001
-0.21259999 -0.037700001 0.87800002
-0.2113 -0.037700001 0.87900001
-0.2068 -0.037700001 0.87900001
-0.3987 -0.035799999 0.86900002
-0.39579999 -0.035599999 0.866
-0.37439999 -0.035599999 0.86500001
-0.34110001 -0.0359 0.87199998
-0.33849999 -0.0359 0.87300003
-0.33660001 -0.0359 0.87199998
-0.3355 -0.0359 0.87300003
-0.3355 -0.0361 0.87699997
-0.23720001 -0.036200002 0.87900001
-0.23010001 -0.035999998 0.875
-0.2278 -0.0361 0.87800002
-0.22660001 -0.036200002 0.87900001
-0.22499999 -0.036200002 0.87900001
-0.2189 -0.036200002 0.87900001
-0.2174 -0.036200002 0.87900001
-0.2159 -0.036200002 0.87900001
-0.2141 -0.0361 0.87800002
-0.2096 -0.0361 0.87800002
-0.20829999 -0.036200002 0.87900001
-0.40939999 -0.034600001 0.87900001
-0.4016 -0.034400001 0.87199998
-0.3987 -0.034299999 0.86900002
-0.39629999 -0.034200002 0.86699998
-0.38589999 -0.0341 0.86400002
-0.38440001 -0.0341 0.86400002
-0.36199999 -0.034499999 0.875
-0.36050001 -0.034499999 0.875
-0.35859999 -0.034400001 0.87400001
-0.34450001 -0.034400001 0.87300003
-0.34189999 -0.034299999 0.87
-0.3373 -0.034299999 0.87
-0.3351 -0.034400001 0.87199998
-0.2271 -0.034499999 0.875
-0.22579999 -0.034499999 0.87599999
-0.22499999 -0.034600001 0.87900001
-0.2235 -0.034600001 0.87900001
-0.222 -0.034600001 0.87900001
-0.22050001 -0.034600001 0.87900001
-0.2189 -0.034600001 0.87900001
-0.2174 -0.034600001 0.87900001
-0.21439999 -0.034600001 0.87900001
-0.2129 -0.034600001 0.87900001
-0.3759 -0.032600001 0.86500001
-0.37349999 -0.032499999 0.86299998
-0.3608 -0.032900002 0.87199998
-0.35929999 -0.032900002 0.87199998
-0.35820001 -0.032900002 0.87300003
-0.3362 -0.033 0.875
-0.2271 -0.033 0.875
-0.22579999 -0.033 0.87599999
-0.22499999 -0.033100002 0.87900001
-0.222 -0.033100002 0.87900001
-0.22050001 -0.033100002 0.87900001
-0.2189 -0.033100002 0.87900001
-0.2174 -0.033100002 0.87900001
-0.2159 -0.033100002 0.87900001
-0.38730001 -0.031199999 0.86699998
-0.35929999 -0.031300001 0.87199998
-0.35780001 -0.031300001 0.87199998
-0.3389 -0.031399999 0.87400001
-0.2271 -0.031500001 0.875
-0.2263 -0.031599998 0.87800002
-0.22499999 -0.031599998 0.87900001
-0.40490001 -0.029999999 0.87599999
-0.40200001 -0.029899999 0.87300003
-0.3996 -0.0298 0.87099999
-0.36250001 -0.0297 0.86900002
-0.36149999 -0.0298 0.87
-0.35929999 -0.0298 0.87199998
-0.2278 -0.029999999 0.87800002
-0.22660001 -0.030099999 0.87900001
-0.40790001 -0.0286 0.87900001
-0.39570001 -0.028200001 0.86900002
-0.36840001 -0.028100001 0.86500001
-0.36660001 -0.028200001 0.86799997
-0.3651 -0.028200001 0.86799997
-0.36039999 -0.0283 0.87099999
-0.22939999 -0.0285 0.87800002
-0.2281 -0.0286 0.87900001
-0.4005 -0.026799999 0.87300003
-0.39860001 -0.026799999 0.87199998
-0.3608 -0.026799999 0.87199998
-0.25979999 -0.027000001 0.87800002
-0.2339 -0.027000001 0.87800002
-0.23190001 -0.026900001 0.87599999
-0.23109999 -0.027000001 0.87900001
-0.40540001 -0.0254 0.87699997
-0.3628 -0.0251 0.866
-0.36210001 -0.0252 0.86799997
-0.361 -0.0252 0.86900002
-0.257 -0.0255 0.87900001
-0.2342 -0.0255 0.87900001
-0.222 -0.0255 0.87900001
-0.22050001 -0.0255 0.87900001
-0.3628 -0.023600001 0.866
-0.36250001 -0.023700001 0.86900002
-0.36149999 -0.023700001 0.87
-0.35890001 -0.023800001 0.87099999
-0.29820001 -0.024 0.87900001
-0.2342 -0.024 0.87900001
-0.23270001 -0.024 0.87900001
-0.4048 -0.022500001 0.87900001
-0.38980001 -0.022399999 0.87599999
-0.36669999 -0.022500001 0.87900001
-0.36480001 -0.022399999 0.87800002
-0.3624 -0.022399999 0.87599999
-0.35969999 -0.022299999 0.87300003
-0.34419999 -0.022299999 0.87199998
-0.34459999 -0.022399999 0.87699997
-0.2357 -0.022500001 0.87900001
-0.23370001 -0.022399999 0.87699997
-0.2324 -0.022399999 0.87800002
-0.3646 -0.0208 0.87400001
-0.3612 -0.0208 0.87300003
-0.34459999 -0.0209 0.87699997
-0.2357 -0.0209 0.87900001
-0.2339 -0.0209 0.87800002
-0.23270001 -0.0209 0.87900001
-0.36269999 -0.019300001 0.87300003
-0.3612 -0.019300001 0.87300003
-0.35969999 -0.019300001 0.87300003
-0.3461 -0.019400001 0.87699997
-0.345 -0.019400001 0.87800002
-0.3439 -0.019400001 0.87900001
-0.34040001 -0.019400001 0.87800002
-0.2342 -0.019400001 0.87900001
-0.36399999 -0.0178 0.87599999
-0.34959999 -0.017899999 0.87800002
-0.34689999 -0.017899999 0.87900001
-0.3439 -0.017899999 0.87900001
-0.34079999 -0.017899999 0.87900001
-0.23270001 -0.017899999 0.87900001
-0.23109999 -0.017899999 0.87900001
-0.3594 -0.0163 0.87599999
-0.3439 -0.0164 0.87900001
-0.3617 -0.0148 0.87800002
-0.35980001 -0.0148 0.87699997
-0.3378 -0.0133 0.87900001
-0.30849999 -0.0087000001 0.87800002
-0.0757 -0.0087000001 0.87900001
-0.074199997 -0.0087000001 0.87900001
-0.38299999 -0.0071999999 0.87800002
-0.37549999 -0.0071999999 0.87099999
-0.36520001 -0.0071999999 0.87900001
-0.074500002 -0.0071 0.86500001
-0.0713 -0.0071 0.86199999
-0.0691 -0.0070000002 0.85299999
-0.37630001 -0.0057000001 0.87300003
-0.36610001 -0.0057000001 0.87400001
-0.3655 -0.0057000001 0.87599999
-0.078699999 -0.0055 0.84500003
-0.077100001 -0.0055 0.84399998
-0.072700001 -0.0055 0.84399998
-0.07 -0.0055 0.84600002
-0.067000002 -0.0055 0.84500003
-0.065499999 -0.0055 0.84500003
-0.0836 -0.0040000002 0.83600003
-0.082500003 -0.0040000002 0.83899999
-0.081100002 -0.0040000002 0.83999997
-0.079899997 -0.0040000002 0.84200001
-0.078500003 -0.0040000002 0.84299999
-0.076899998 -0.0040000002 0.84200001
-0.075300001 -0.0040000002 0.83999997
-0.073700003 -0.0040000002 0.838
-0.072099999 -0.0040000002 0.83700001
-0.070699997 -0.0040000002 0.83700001
-0.069399998 -0.0040000002 0.83899999
-0.067900002 -0.0040000002 0.838
-0.066399999 -0.0040000002 0.838
-0.064999998 -0.0040000002 0.83899999
-0.063699998 -0.0040000002 0.83999997
-0.062199999 -0.0040000002 0.83999997
-0.060699999 -0.0040000002 0.83999997
-0.085000001 -0.0024999999 0.83499998
-0.083899997 -0.0024999999 0.83899999
-0.082699999 -0.0024999999 0.84100002
-0.0814 -0.0024999999 0.84299999
-0.079999998 -0.0024999999 0.84399998
-0.078400001 -0.0024999999 0.84200001
-0.0766 -0.0024999999 0.838
-0.071699999 -0.0024999999 0.83200002
-0.070299998 -0.0024999999 0.83200002
-0.068800002 -0.0024999999 0.83200002
-0.067400001 -0.0024999999 0.83200002
-0.066100001 -0.0024999999 0.83399999
-0.0647 -0.0024999999 0.83499998
-0.0634 -0.0024999999 0.83700001
-0.061999999 -0.0024999999 0.838
-0.060600001 -0.0024999999 0.838
-0.059300002 -0.0024999999 0.83999997
-0.088399999 -0.001 0.81300002
-0.087499999 -0.0011 0.81800002
-0.087099999 -0.0011 0.82800001
-0.086199999 -0.0011 0.833
-0.085199997 -0.0011 0.83700001
-0.084100001 -0.0011 0.84100002
-0.082900003 -0.0011 0.84299999
-0.081500001 -0.0011 0.84399998
-0.079999998 -0.0011 0.84399998
-0.078299999 -0.0011 0.84100002
-0.076499999 -0.0011 0.83700001
-0.0748 -0.0011 0.83399999
-0.071500003 -0.0011 0.82999998
-0.070100002 -0.0011 0.82999998
-0.068599999 -0.0011 0.82999998
-0.067299999 -0.0011 0.83099997
-0.065899998 -0.0011 0.83200002
-0.064499997 -0.0011 0.83200002
-0.063299999 -0.0011 0.83499998
-0.061900001 -0.0011 0.83600003
-0.0605 -0.0011 0.83700001
-0.059099998 -0.0011 0.838
-0.057799999 -0.0011 0.83999997
-0.33019999 0.00039999999 0.87900001
-0.32859999 0.00039999999 0.87900001
-0.3267 0.00039999999 0.87800002
-0.32519999 0.00039999999 0.87800002
-0.088500001 0.00039999999 0.82700002
-0.087499999 0.00039999999 0.83099997
-0.086400002 0.00039999999 0.83499998
-0.0854 0.00039999999 0.83899999
-0.084100001 0.00039999999 0.84100002
-0.082900003 0.00039999999 0.84299999
-0.0814 0.00039999999 0.84299999
-0.079899997 0.00039999999 0.84200001
-0.078100003 0.00039999999 0.83899999
-0.076300003 0.00039999999 0.83499998
-0.074600004 0.00039999999 0.83200002
-0.073100001 0.00039999999 0.83099997
-0.071500003 0.00039999999 0.82999998
-0.07 0.00039999999 0.829
-0.068599999 0.00039999999 0.829
-0.067199998 0.00039999999 0.82999998
-0.065899998 0.00039999999 0.83099997
-0.064499997 0.00039999999 0.83200002
-0.063199997 0.00039999999 0.83399999
-0.061799999 0.00039999999 0.83499998
-0.060400002 0.00039999999 0.83499998
-0.059099998 0.00039999999 0.83700001
-0.057799999 0.00039999999 0.83899999
-0.056499999 0.00039999999 0.84200001
-0.39410001 0.0019 0.87900001
-0.3926 0.0019 0.87900001
-0.33320001 0.0019 0.87900001
-0.3283 0.0019 0.87800002
-0.090000004 0.0018 0.815
-0.089199997 0.0018 0.82099998
-0.088799998 0.0018 0.82999998
-0.087499999 0.0018 0.83099997
-0.086300001 0.0018 0.83399999
-0.0854 0.0018 0.83899999
-0.084200002 0.0018 0.84200001
-0.082900003 0.0018 0.84299999
-0.0814 0.0018 0.84299999
-0.079999998 0.0018 0.84299999
-0.078199998 0.0018 0.83999997
-0.076300003 0.0018 0.83499998
-0.074699998 0.0018 0.833
-0.073100001 0.0018 0.83099997
-0.071500003 0.0018 0.82999998
-0.07 0.0018 0.829
-0.068599999 0.0018 0.829
-0.067199998 0.0018 0.82999998
-0.065899998 0.0018 0.83099997
-0.064499997 0.0018 0.83200002
-0.063199997 0.0018 0.83399999
-0.061900001 0.0018 0.83600003
-0.0605 0.0018 0.83600003
-0.059099998 0.0018 0.838
-0.057799999 0.0018 0.83999997
-0.056499999 0.0018 0.84200001
-0.055199999 0.0018 0.84399998
-0.39410001 0.0034 0.87900001
-0.36059999 0.0034 0.87900001
-0.34689999 0.0034 0.87900001
-0.33469999 0.0034 0.87900001
-0.3328 0.0034 0.87800002
-0.3256 0.0034 0.87900001
-0.090700001 0.0031999999 0.82099998
-0.090000004 0.0031999999 0.82800001
-0.0889 0.0033 0.83099997
-0.0876 0.0033 0.83200002
-0.086199999 0.0033 0.833
-0.085199997 0.0033 0.83700001
-0.083899997 0.0033 0.83899999
-0.082699999 0.0033 0.84100002
-0.0814 0.0033 0.84299999
-0.079899997 0.0033 0.84200001
-0.078100003 0.0033 0.83899999
-0.076399997 0.0033 0.83600003
-0.074699998 0.0033 0.833
-0.073100001 0.0033 0.83099997
-0.071500003 0.0031999999 0.82999998
-0.07 0.0031999999 0.829
-0.068599999 0.0031999999 0.829
-0.067100003 0.0031999999 0.829
-0.065899998 0.0033 0.83099997
-0.064400002 0.0033 0.83099997
-0.063100003 0.0033 0.833
-0.061799999 0.0033 0.83399999
-0.060400002 0.0033 0.83499998
-0.059099998 0.0033 0.83700001
-0.057700001 0.0033 0.838
-0.056400001 0.0033 0.83999997
-0.055 0.0033 0.84200001
-0.0537 0.0033 0.84299999
-0.052200001 0.0033 0.84299999
-0.050799999 0.0033 0.84399998
-0.0493 0.0033 0.84299999
-0.047899999 0.0033 0.84399998
-0.046500001 0.0033 0.84500003
-0.3328 0.0049999999 0.87800002
-0.3294 0.0049999999 0.87699997
-0.091300003 0.0046999999 0.82700002
-0.0902 0.0046999999 0.82999998
-0.0889 0.0046999999 0.83099997
-0.0876 0.0046999999 0.83200002
-0.086199999 0.0046999999 0.833
-0.085100003 0.0046999999 0.83600003
-0.083899997 0.0046999999 0.83899999
-0.082699999 0.0046999999 0.84100002
-0.0814 0.0048000002 0.84299999
-0.079999998 0.0048000002 0.84299999
-0.078100003 0.0046999999 0.83899999
-0.076300003 0.0046999999 0.83499998
-0.074699998 0.0046999999 0.833
-0.073100001 0.0046999999 0.83200002
-0.071500003 0.0046999999 0.82999998
-0.07 0.0046999999 0.829
-0.068599999 0.0046999999 0.829
-0.065800004 0.0046999999 0.82999998
-0.064400002 0.0046999999 0.83099997
-0.063100003 0.0046999999 0.833
-0.061799999 0.0046999999 0.83399999
-0.060400002 0.0046999999 0.83499998
-0.059099998 0.0046999999 0.83700001
-0.057599999 0.0046999999 0.83700001
-0.056299999 0.0046999999 0.83899999
-0.054900002 0.0046999999 0.83999997
-0.0535 0.0046999999 0.83999997
-0.052099999 0.0046999999 0.84100002
-0.0506 0.0046999999 0.84100002
-0.049199998 0.0046999999 0.84100002
-0.047800001 0.0048000002 0.84299999
-0.046399999 0.0048000002 0.84399998
-0.045000002 0.0048000002 0.84500003
-0.0438 0.0048000002 0.85000002
-0.39410001 0.0065000001 0.87900001
-0.3576 0.0065000001 0.87900001
-0.35569999 0.0065000001 0.87800002
-0.3294 0.0065000001 0.87699997
-0.091700003 0.0060999999 0.82999998
-0.090300001 0.0060999999 0.83099997
-0.089000002 0.0060999999 0.83200002
-0.087700002 0.0060999999 0.833
-0.086300001 0.0062000002 0.83399999
-0.085299999 0.0062000002 0.838
-0.083999999 0.0062000002 0.83999997
-0.082699999 0.0062000002 0.84100002
-0.081200004 0.0062000002 0.84100002
-0.079800002 0.0062000002 0.84100002
-0.078000002 0.0062000002 0.838
-0.076300003 0.0062000002 0.83499998
-0.074699998 0.0060999999 0.833
-0.073100001 0.0060999999 0.83200002
-0.071599998 0.0060999999 0.83099997
-0.070100002 0.0060999999 0.82999998
-0.068599999 0.0060999999 0.82999998
-0.067199998 0.0060999999 0.82999998
-0.064499997 0.0060999999 0.83200002
-0.063100003 0.0060999999 0.833
-0.061799999 0.0062000002 0.83399999
-0.060400002 0.0062000002 0.83499998
-0.059099998 0.0062000002 0.83700001
-0.057599999 0.0062000002 0.83700001
-0.056200001 0.0062000002 0.838
-0.0548 0.0062000002 0.838
-0.053300001 0.0062000002 0.838
-0.051800001 0.0062000002 0.83700001
-0.050299998 0.0062000002 0.83600003
-0.048799999 0.0062000002 0.83499998
-0.047499999 0.0062000002 0.83700001
-0.046100002 0.0062000002 0.838
-0.044799998 0.0062000002 0.84100002
-0.043699998 0.0063 0.84799999
-0.0425 0.0063 0.85299999
-0.041499998 0.0063999998 0.86400002
-0.040199999 0.0063999998 0.86900002
-0.32980001 0.0080000004 0.87800002
-0.3283 0.0080000004 0.87800002
-0.0933 0.0076000001 0.83200002
-0.091899998 0.0076000001 0.83200002
-0.090400003 0.0076000001 0.83200002
-0.089100003 0.0076000001 0.833
-0.087800004 0.0076000001 0.83399999
-0.086599998 0.0076000001 0.83700001
-0.085500002 0.0077 0.83999997
-0.084299996 0.0077 0.84299999
-0.082900003 0.0077 0.84299999
-0.081200004 0.0077 0.84100002
-0.079700001 0.0077 0.83999997
-0.078000002 0.0076000001 0.838
-0.076399997 0.0076000001 0.83600003
-0.0748 0.0076000001 0.83399999
-0.073200002 0.0076000001 0.833
-0.071699999 0.0076000001 0.83200002
-0.068800002 0.0076000001 0.83200002
-0.067400001 0.0076000001 0.83200002
-0.066 0.0076000001 0.833
-0.064599998 0.0076000001 0.833
-0.063199997 0.0076000001 0.83399999
-0.061799999 0.0076000001 0.83499998
-0.060400002 0.0076000001 0.83499998
-0.059099998 0.0076000001 0.83700001
-0.057599999 0.0076000001 0.83700001
-0.056200001 0.0076000001 0.83700001
-0.054699998 0.0076000001 0.83600003
-0.053199999 0.0076000001 0.83600003
-0.0517 0.0076000001 0.83499998
-0.0502 0.0076000001 0.83499998
-0.048700001 0.0076000001 0.83399999
-0.0473 0.0076000001 0.83399999
-0.045899998 0.0076000001 0.83499998
-0.044599999 0.0076000001 0.838
-0.043499999 0.0077 0.84399998
-0.042199999 0.0077 0.84799999
-0.041000001 0.0077999998 0.85399997
-0.039999999 0.0078999996 0.86299998
-0.038699999 0.0078999996 0.86799997
-0.037500001 0.0080000004 0.87599999
-0.0361 0.0080000004 0.87900001
-0.41260001 0.0094999997 0.87300003
-0.39410001 0.0094999997 0.87900001
-0.33320001 0.0094999997 0.87900001
-0.32980001 0.0094999997 0.87800002
-0.32859999 0.0094999997 0.87900001
-0.094800003 0.0089999996 0.83200002
-0.0933 0.0089999996 0.83200002
-0.092 0.0089999996 0.833
-0.090599999 0.0089999996 0.833
-0.089199997 0.0089999996 0.83399999
-0.088100001 0.0091000004 0.83700001
-0.086800002 0.0091000004 0.83899999
-0.085699998 0.0091000004 0.84200001
-0.084299996 0.0091000004 0.84299999
-0.082900003 0.0091000004 0.84299999
-0.081200004 0.0091000004 0.84100002
-0.079700001 0.0091000004 0.83999997
-0.078000002 0.0091000004 0.838
-0.076399997 0.0091000004 0.83600003
-0.074900001 0.0091000004 0.83499998
-0.073299997 0.0089999996 0.83399999
-0.071900003 0.0089999996 0.83399999
-0.0704 0.0089999996 0.83399999
-0.068899997 0.0089999996 0.833
-0.067500003 0.0089999996 0.833
-0.066100001 0.0089999996 0.83399999
-0.064599998 0.0089999996 0.83399999
-0.063199997 0.0089999996 0.83399999
-0.061799999 0.0091000004 0.83499998
-0.0605 0.0091000004 0.83600003
-0.059099998 0.0091000004 0.83700001
-0.057599999 0.0091000004 0.83700001
-0.0561 0.0091000004 0.83600003
-0.0546 0.0091000004 0.83499998
-0.053100001 0.0091000004 0.83499998
-0.051600002 0.0089999996 0.83399999
-0.050099999 0.0089999996 0.833
-0.048599999 0.0089999996 0.83200002
-0.047200002 0.0089999996 0.833
-0.0458 0.0089999996 0.833
-0.044500001 0.0091000004 0.83600003
-0.043299999 0.0091000004 0.83999997
-0.042100001 0.0092000002 0.84500003
-0.040800001 0.0092000002 0.85000002
-0.039700001 0.0093 0.85699999
-0.0385 0.0093999999 0.86299998
-0.037099998 0.0093999999 0.866
-0.035700001 0.0093999999 0.86900002
-0.034200002 0.0093999999 0.86900002
-0.032699998 0.0093999999 0.86900002
-0.031300001 0.0094999997 0.87199998
-0.029899999 0.0094999997 0.87599999
-0.3928 0.011 0.87599999
-0.094800003 0.0105 0.83200002
-0.0933 0.0105 0.83200002
-0.092 0.0105 0.833
-0.090599999 0.0105 0.833
-0.089199997 0.0105 0.83399999
-0.088100001 0.0105 0.83700001
-0.086999997 0.0106 0.84100002
-0.0858 0.0106 0.84299999
-0.084399998 0.0106 0.84399998
-0.082900003 0.0106 0.84299999
-0.081200004 0.0106 0.84100002
-0.079700001 0.0106 0.83999997
-0.078000002 0.0105 0.838
-0.076499999 0.0105 0.83700001
-0.074900001 0.0105 0.83600003
-0.073399998 0.0105 0.83499998
-0.071999997 0.0105 0.83499998
-0.070500001 0.0105 0.83499998
-0.0691 0.0105 0.83499998
-0.067599997 0.0105 0.83499998
-0.066200003 0.0105 0.83499998
-0.0647 0.0105 0.83499998
-0.063299999 0.0105 0.83499998
-0.061999999 0.0105 0.83700001
-0.0605 0.0105 0.83700001
-0.059099998 0.0105 0.83700001
-0.057599999 0.0105 0.83700001
-0.0561 0.0105 0.83600003
-0.054699998 0.0105 0.83600003
-0.053100001 0.0105 0.83499998
-0.051600002 0.0105 0.83399999
-0.050099999 0.0105 0.833
-0.048599999 0.0105 0.83200002
-0.047200002 0.0105 0.833
-0.0458 0.0105 0.833
-0.044500001 0.0105 0.83499998
-0.043299999 0.0106 0.83999997
-0.042100001 0.0106 0.84500003
-0.040800001 0.0107 0.84899998
-0.0394 0.0107 0.85100001
-0.037999999 0.0107 0.852
-0.036499999 0.0107 0.85299999
-0.035300002 0.0108 0.85799998
-0.0339 0.0108 0.86000001
-0.032299999 0.0108 0.85799998
-0.0308 0.0108 0.85799998
-0.029300001 0.0108 0.85699999
-0.028100001 0.0109 0.866
-0.0266 0.0109 0.86699998
-0.3012 0.0126 0.87900001
-0.29660001 0.0126 0.87900001
-0.094899997 0.0119 0.833
-0.093400002 0.0119 0.833
-0.092100002 0.0119 0.83399999
-0.090800002 0.0119 0.83499998
-0.089500003 0.012 0.83700001
-0.088500001 0.012 0.84100002
-0.087399997 0.0121 0.84399998
-0.085900001 0.0121 0.84399998
-0.084399998 0.0121 0.84399998
-0.082800001 0.0121 0.84200001
-0.081200004 0.012 0.84100002
-0.079599999 0.012 0.83899999
-0.0779 0.012 0.83700001
-0.076399997 0.012 0.83600003
-0.074900001 0.0119 0.83499998
-0.073399998 0.0119 0.83499998
-0.071999997 0.0119 0.83499998
-0.070600003 0.012 0.83600003
-0.0691 0.012 0.83600003
-0.067699999 0.012 0.83600003
-0.066299997 0.012 0.83700001
-0.064900003 0.012 0.83700001
-0.063299999 0.012 0.83600003
-0.061999999 0.012 0.83700001
-0.0605 0.012 0.83700001
-0.059099998 0.012 0.83700001
-0.057599999 0.012 0.83700001
-0.0561 0.012 0.83600003
-0.054499999 0.0119 0.83399999
-0.053100001 0.0119 0.83399999
-0.051600002 0.0119 0.83399999
-0.050099999 0.0119 0.833
-0.048599999 0.0119 0.83200002
-0.047200002 0.0119 0.833
-0.045899998 0.0119 0.83399999
-0.044500001 0.012 0.83600003
-0.043200001 0.012 0.83899999
-0.042100001 0.0121 0.84500003
-0.0407 0.0121 0.847
-0.039299998 0.0121 0.84799999
-0.037799999 0.0121 0.84799999
-0.0363 0.0121 0.84799999
-0.034899998 0.0122 0.84899998
-0.033399999 0.0122 0.84899998
-0.0319 0.0121 0.84799999
-0.0305 0.0121 0.84799999
-0.028999999 0.0122 0.84899998
-0.0277 0.0122 0.85299999
-0.0263 0.0123 0.85699999
-0.30270001 0.0141 0.87900001
-0.30050001 0.0141 0.87699997
-0.094999999 0.0134 0.83399999
-0.093599997 0.0134 0.83399999
-0.092100002 0.0134 0.83399999
-0.090800002 0.0134 0.83499998
-0.089599997 0.0134 0.838
-0.088600002 0.0135 0.84200001
-0.087399997 0.0135 0.84399998
-0.085900001 0.0135 0.84399998
-0.084399998 0.0135 0.84399998
-0.082800001 0.0135 0.84200001
-0.081100002 0.0135 0.83999997
-0.079599999 0.0135 0.83899999
-0.0779 0.0134 0.83700001
-0.076499999 0.0134 0.83700001
-0.074900001 0.0134 0.83600003
-0.0735 0.0134 0.83600003
-0.072099999 0.0134 0.83700001
-0.070699997 0.0134 0.83700001
-0.069200002 0.0134 0.83700001
-0.0678 0.0134 0.83700001
-0.066399999 0.0134 0.838
-0.064999998 0.0134 0.838
-0.063500002 0.0134 0.838
-0.061999999 0.0134 0.838
-0.060600001 0.0134 0.838
-0.059099998 0.0134 0.83700001
-0.057599999 0.0134 0.83700001
-0.056000002 0.0134 0.83499998
-0.054499999 0.0134 0.83399999
-0.053100001 0.0134 0.83399999
-0.051600002 0.0134 0.833
-0.050099999 0.0133 0.83200002
-0.048599999 0.0133 0.83200002
-0.047200002 0.0134 0.833
-0.0458 0.0134 0.833
-0.044500001 0.0134 0.83600003
-0.043200001 0.0135 0.83899999
-0.041999999 0.0135 0.84399998
-0.040600002 0.0136 0.84600002
-0.0392 0.0136 0.847
-0.037799999 0.0136 0.847
-0.036200002 0.0136 0.84600002
-0.0348 0.0136 0.847
-0.033300001 0.0136 0.84600002
-0.031800002 0.0136 0.84500003
-0.030300001 0.0135 0.84399998
-0.028899999 0.0136 0.84500003
-0.0275 0.0136 0.84600002
-0.026000001 0.0136 0.84799999
-0.024599999 0.0136 0.84799999
-0.0232 0.0137 0.85100001
-0.35609999 0.0156 0.87900001
-0.35299999 0.0156 0.87900001
-0.29730001 0.0155 0.87199998
-0.094899997 0.0148 0.833
-0.093400002 0.0148 0.833
-0.092 0.0148 0.833
-0.090800002 0.0148 0.83499998
-0.089599997 0.0149 0.838
-0.088699996 0.015 0.84299999
-0.087399997 0.015 0.84399998
-0.085900001 0.015 0.84399998
-0.084299996 0.015 0.84299999
-0.082699999 0.015 0.84100002
-0.081 0.0149 0.83899999
-0.079499997 0.0149 0.838
-0.0779 0.0149 0.83700001
-0.076499999 0.0149 0.83700001
-0.075000003 0.0149 0.83700001
-0.073600002 0.0149 0.83700001
-0.0722 0.0149 0.838
-0.070799999 0.0149 0.838
-0.069300003 0.0149 0.838
-0.067900002 0.0149 0.838
-0.066399999 0.0149 0.838
-0.064999998 0.0149 0.838
-0.0634 0.0149 0.83700001
-0.061999999 0.0149 0.838
-0.0605 0.0149 0.83700001
-0.059099998 0.0149 0.83700001
-0.057599999 0.0149 0.83600003
-0.056000002 0.0148 0.83499998
-0.054499999 0.0148 0.83399999
-0.053100001 0.0148 0.83399999
-0.051600002 0.0148 0.833
-0.050099999 0.0148 0.83200002
-0.048700001 0.0148 0.833
-0.047200002 0.0148 0.833
-0.045899998 0.0148 0.83399999
-0.044599999 0.0149 0.83700001
-0.043200001 0.0149 0.83899999
-0.041999999 0.015 0.84399998
-0.040600002 0.015 0.84600002
-0.0392 0.015 0.84600002
-0.037700001 0.015 0.84600002
-0.036200002 0.015 0.84500003
-0.034699999 0.015 0.84500003
-0.033199999 0.015 0.84399998
-0.0317 0.015 0.84100002
-0.030200001 0.015 0.84100002
-0.0287 0.015 0.84100002
-0.0274 0.015 0.84299999
-0.026000001 0.015 0.84500003
-0.024499999 0.015 0.84600002
-0.0231 0.0151 0.847
-0.0217 0.0151 0.85000002
-0.0209 0.0156 0.87900001
-0.3987 0.017100001 0.87900001
-0.39480001 0.017100001 0.87699997
-0.3937 0.017100001 0.87800002
-0.3511 0.017100001 0.87800002
-0.34999999 0.017100001 0.87900001
-0.3484 0.017100001 0.87900001
-0.34540001 0.017100001 0.87900001
-0.3439 0.017100001 0.87900001
-0.3423 0.017100001 0.87900001
-0.30430001 0.017100001 0.87900001
-0.3017 0.017100001 0.87599999
-0.094800003 0.0162 0.83200002
-0.0933 0.0162 0.83200002
-0.091899998 0.0162 0.83200002
-0.090599999 0.0163 0.833
-0.089299999 0.0163 0.83499998
-0.088299997 0.0164 0.83899999
-0.087200001 0.0164 0.84200001
-0.085699998 0.0164 0.84200001
-0.084100001 0.0164 0.84100002
-0.082599998 0.0164 0.83999997
-0.081 0.0164 0.83899999
-0.079499997 0.0163 0.838
-0.0779 0.0163 0.83700001
-0.076499999 0.0163 0.83700001
-0.075099997 0.0163 0.838
-0.073700003 0.0163 0.838
-0.072300002 0.0164 0.83899999
-0.070799999 0.0164 0.83899999
-0.069399998 0.0164 0.83899999
-0.067900002 0.0164 0.83899999
-0.066500001 0.0164 0.83899999
-0.064999998 0.0164 0.83899999
-0.063500002 0.0163 0.838
-0.061999999 0.0163 0.838
-0.060600001 0.0163 0.838
-0.059099998 0.0163 0.83700001
-0.057599999 0.0163 0.83700001
-0.0561 0.0163 0.83600003
-0.0546 0.0163 0.83499998
-0.053100001 0.0163 0.83499998
-0.051600002 0.0163 0.83399999
-0.0502 0.0163 0.83399999
-0.048700001 0.0163 0.83399999
-0.047400001 0.0163 0.83499998
-0.046 0.0163 0.83700001
-0.039099999 0.0165 0.84399998
-0.037599999 0.0165 0.84399998
-0.036200002 0.0165 0.84399998
-0.034699999 0.0164 0.84299999
-0.033199999 0.0164 0.84200001
-0.031599998 0.0164 0.83899999
-0.030099999 0.0164 0.83899999
-0.0287 0.0164 0.83899999
-0.0272 0.0164 0.83899999
-0.025800001 0.0164 0.84100002
-0.0244 0.0164 0.84299999
-0.023 0.0165 0.84399998
-0.021600001 0.0165 0.84500003
-0.020099999 0.0165 0.84500003
-0.41569999 0.0185 0.87300003
-0.39719999 0.0187 0.87900001
-0.39480001 0.0186 0.87699997
-0.39320001 0.0186 0.87699997
-0.39219999 0.0187 0.87800002
-0.3513 0.0185 0.87099999
-0.34650001 0.0187 0.87800002
-0.34540001 0.0187 0.87900001
-0.3439 0.0187 0.87900001
-0.3423 0.0187 0.87900001
-0.3017 0.0186 0.87599999
-0.096199997 0.0177 0.83200002
-0.094800003 0.0177 0.83200002
-0.093400002 0.0177 0.833
-0.092 0.0177 0.833
-0.090700001 0.0177 0.83399999
-0.089299999 0.0177 0.83499998
-0.088100001 0.0178 0.83700001
-0.0867 0.0178 0.838
-0.085299999 0.0178 0.838
-0.083700001 0.0178 0.83700001
-0.082400002 0.0178 0.838
-0.080799997 0.0178 0.83700001
-0.079400003 0.0178 0.83700001
-0.0779 0.0178 0.83700001
-0.0766 0.0178 0.838
-0.075099997 0.0178 0.838
-0.073700003 0.0178 0.838
-0.072300002 0.0178 0.83899999
-0.070799999 0.0178 0.83899999
-0.069399998 0.0178 0.83899999
-0.067900002 0.0178 0.83899999
-0.066399999 0.0178 0.838
-0.064999998 0.0178 0.838
-0.063500002 0.0178 0.838
-0.061999999 0.0178 0.838
-0.060699999 0.0178 0.83899999
-0.059099998 0.0178 0.838
-0.057599999 0.0178 0.83700001
-0.056200001 0.0178 0.83700001
-0.054699998 0.0178 0.83600003
-0.053199999 0.0178 0.83600003
-0.0517 0.0177 0.83499998
-0.0502 0.0177 0.83499998
-0.048900001 0.0178 0.83700001
-0.047499999 0.0178 0.838
-0.0462 0.0178 0.83999997
-0.037599999 0.017899999 0.84299999
-0.0361 0.017899999 0.84200001
-0.034600001 0.017899999 0.84100002
-0.033100002 0.017899999 0.84100002
-0.031500001 0.0178 0.838
-0.030099999 0.0178 0.83700001
-0.0286 0.0178 0.83700001
-0.0272 0.0178 0.83700001
-0.025800001 0.0178 0.83899999
-0.0243 0.0178 0.83999997
-0.0229 0.017899999 0.84100002
-0.021500001 0.017899999 0.84399998
-0.02 0.017899999 0.84299999
-0.0186 0.017899999 0.84399998
-0.41659999 0.020099999 0.875
-0.39570001 0.020199999 0.87900001
-0.3937 0.020199999 0.87800002
-0.3926 0.020199999 0.87900001
-0.34540001 0.020199999 0.87900001
-0.3439 0.020199999 0.87900001
-0.3423 0.020199999 0.87900001
-0.34079999 0.020199999 0.87900001
-0.0977 0.019099999 0.83200002
-0.096199997 0.019099999 0.83200002
-0.094800003 0.019099999 0.83200002
-0.0933 0.019099999 0.83200002
-0.091899998 0.019099999 0.83200002
-0.090599999 0.019099999 0.833
-0.089100003 0.019099999 0.833
-0.087800004 0.019200001 0.83399999
-0.086300001 0.019200001 0.83399999
-0.085199997 0.019200001 0.83700001
-0.083700001 0.019200001 0.83700001
-0.082400002 0.019300001 0.838
-0.080799997 0.019200001 0.83700001
-0.079400003 0.019200001 0.83700001
-0.0779 0.019200001 0.83700001
-0.0766 0.019300001 0.838
-0.075099997 0.019300001 0.838
-0.073600002 0.019200001 0.83700001
-0.072099999 0.019200001 0.83700001
-0.070799999 0.019300001 0.838
-0.069300003 0.019300001 0.838
-0.067900002 0.019300001 0.838
-0.066399999 0.019300001 0.838
-0.064999998 0.019300001 0.838
-0.063500002 0.019300001 0.838
-0.061999999 0.019300001 0.838
-0.060600001 0.019300001 0.838
-0.059099998 0.019200001 0.83700001
-0.057599999 0.019200001 0.83700001
-0.056200001 0.019200001 0.83700001
-0.054699998 0.019200001 0.83600003
-0.053199999 0.019200001 0.83600003
-0.0517 0.019200001 0.83499998
-0.050299998 0.019200001 0.83600003
-0.048999999 0.019300001 0.838
-0.047600001 0.019300001 0.83899999
-0.0462 0.019300001 0.83999997
-0.036200002 0.019400001 0.84399998
-0.034699999 0.019400001 0.84299999
-0.033100002 0.019300001 0.84100002
-0.031500001 0.019300001 0.838
-0.030099999 0.019200001 0.83700001
-0.0286 0.019200001 0.83700001
-0.027100001 0.019200001 0.83600003
-0.025699999 0.019200001 0.83700001
-0.0243 0.019300001 0.838
-0.0229 0.019300001 0.83999997
-0.021500001 0.019300001 0.84200001
-0.02 0.019300001 0.84100002
-0.0185 0.019300001 0.84100002
-0.017100001 0.019400001 0.84299999
-0.0156 0.019300001 0.84200001
-0.39570001 0.0217 0.87900001
-0.39410001 0.0217 0.87900001
-0.3423 0.0217 0.87900001
-0.34079999 0.0217 0.87900001
-0.33930001 0.0217 0.87900001
-0.33739999 0.0217 0.87800002
-0.33590001 0.0217 0.87800002
-0.21439999 0.0217 0.87900001
-0.21259999 0.0217 0.87800002
-0.2113 0.0217 0.87900001
-0.0977 0.0206 0.83200002
-0.096199997 0.0206 0.83200002
-0.094700001 0.020500001 0.83099997
-0.093199998 0.020500001 0.83099997
-0.091899998 0.0206 0.83200002
-0.090400003 0.0206 0.83200002
-0.089000002 0.0206 0.83200002
-0.087700002 0.0206 0.833
-0.086199999 0.0206 0.833
-0.085000001 0.0206 0.83499998
-0.083700001 0.0207 0.83700001
-0.082400002 0.0207 0.838
-0.080799997 0.0207 0.83700001
-0.079300001 0.0207 0.83600003
-0.077799998 0.0207 0.83600003
-0.076499999 0.0207 0.83700001
-0.074900001 0.0207 0.83600003
-0.0735 0.0207 0.83600003
-0.071999997 0.0206 0.83499998
-0.070699997 0.0207 0.83700001
-0.0691 0.0207 0.83600003
-0.0678 0.0207 0.83700001
-0.066299997 0.0207 0.83700001
-0.064900003 0.0207 0.83700001
-0.063299999 0.0207 0.83600003
-0.061900001 0.0207 0.83600003
-0.0605 0.0207 0.83600003
-0.059 0.0207 0.83600003
-0.057500001 0.0206 0.83499998
-0.056000002 0.0206 0.83499998
-0.054499999 0.0206 0.83399999
-0.053100001 0.0206 0.83499998
-0.0517 0.0206 0.83499998
-0.050299998 0.0207 0.83600003
-0.048900001 0.0207 0.83700001
-0.047499999 0.0207 0.838
-0.046100002 0.0207 0.83899999
-0.034699999 0.0208 0.84299999
-0.033100002 0.0208 0.84100002
-0.031500001 0.0207 0.838
-0.029999999 0.0207 0.83600003
-0.0285 0.0206 0.83499998
-0.027100001 0.0206 0.83499998
-0.025699999 0.0207 0.83600003
-0.0243 0.0207 0.838
-0.0229 0.0208 0.83999997
-0.021500001 0.0208 0.84200001
-0.02 0.0208 0.84200001
-0.0186 0.0208 0.84299999
-0.017100001 0.0209 0.84399998
-0.015699999 0.0209 0.84399998
-0.0133 0.0217 0.87900001
-0.34079999 0.0232 0.87900001
-0.33930001 0.0232 0.87900001
-0.2141 0.0232 0.87800002
-0.2124 0.0232 0.87699997
-0.2111 0.0232 0.87800002
-0.2098 0.0232 0.87900001
-0.0977 0.022 0.83200002
-0.096199997 0.022 0.83200002
-0.094700001 0.022 0.83099997
-0.0933 0.022 0.83200002
-0.091899998 0.022 0.83200002
-0.090400003 0.022 0.83200002
-0.089000002 0.022 0.83200002
-0.086099997 0.022 0.83200002
-0.083499998 0.0221 0.83499998
-0.0823 0.0221 0.83700001
-0.080600001 0.0221 0.83499998
-0.079300001 0.0221 0.83600003
-0.077799998 0.0221 0.83600003
-0.076399997 0.0221 0.83600003
-0.0748 0.0221 0.83399999
-0.073299997 0.0221 0.83399999
-0.071900003 0.0221 0.83399999
-0.070500001 0.0221 0.83499998
-0.0691 0.0221 0.83499998
-0.067599997 0.0221 0.83499998
-0.066200003 0.0221 0.83499998
-0.0647 0.0221 0.83499998
-0.063299999 0.0221 0.83499998
-0.061799999 0.0221 0.83499998
-0.060400002 0.0221 0.83499998
-0.059 0.0221 0.83600003
-0.057599999 0.0221 0.83600003
-0.056000002 0.0221 0.83499998
-0.054699998 0.0221 0.83600003
-0.053300001 0.0222 0.838
-0.051899999 0.0222 0.838
-0.0504 0.0221 0.83700001
-0.048900001 0.0221 0.83700001
-0.047499999 0.0221 0.83700001
-0.046 0.0221 0.83700001
-0.033199999 0.022299999 0.84200001
-0.031500001 0.0222 0.838
-0.029999999 0.0221 0.83499998
-0.0285 0.0221 0.83399999
-0.027100001 0.0221 0.83399999
-0.025599999 0.0221 0.83499998
-0.0243 0.0221 0.83700001
-0.0229 0.0222 0.83899999
-0.021500001 0.0222 0.84100002
-0.02 0.0222 0.84100002
-0.0186 0.022299999 0.84200001
-0.017100001 0.022299999 0.84299999
-0.015699999 0.022299999 0.84299999
-0.0142 0.0222 0.84100002
-0.0128 0.022299999 0.84399998
-0.0114 0.022500001 0.852
-0.0101 0.0229 0.866
-0.0086000003 0.023 0.86799997
-0.0071999999 0.0232 0.87599999
-0.2129 0.024800001 0.87900001
-0.099299997 0.023499999 0.83399999
-0.0977 0.023399999 0.83200002
-0.096199997 0.023399999 0.83200002
-0.094800003 0.023399999 0.83200002
-0.0933 0.023399999 0.83200002
-0.091899998 0.023399999 0.83200002
-0.090400003 0.023399999 0.83200002
-0.089000002 0.023399999 0.83200002
-0.0876 0.023399999 0.83200002
-0.084899999 0.023499999 0.83399999
-0.083400004 0.023499999 0.83399999
-0.082199998 0.023600001 0.83600003
-0.080600001 0.023499999 0.83499998
-0.079300001 0.023600001 0.83600003
-0.077799998 0.023600001 0.83600003
-0.076399997 0.023600001 0.83600003
-0.0748 0.023499999 0.83399999
-0.073299997 0.023499999 0.83399999
-0.071900003 0.023499999 0.83399999
-0.0704 0.023499999 0.83399999
-0.068999998 0.023499999 0.83399999
-0.067500003 0.023499999 0.83399999
-0.066100001 0.023499999 0.83399999
-0.064599998 0.023499999 0.83399999
-0.063299999 0.023499999 0.83499998
-0.061799999 0.023499999 0.83399999
-0.0603 0.023499999 0.83399999
-0.058899999 0.023499999 0.83499998
-0.057500001 0.023499999 0.83499998
-0.0561 0.023600001 0.83600003
-0.054699998 0.023600001 0.83700001
-0.053300001 0.023600001 0.838
-0.033199999 0.023800001 0.84399998
-0.031599998 0.023700001 0.83999997
-0.030099999 0.023600001 0.83700001
-0.0285 0.023499999 0.83499998
-0.027100001 0.023499999 0.83499998
-0.025699999 0.023600001 0.83600003
-0.0243 0.023600001 0.83700001
-0.0229 0.023700001 0.83999997
-0.021500001 0.023700001 0.84100002
-0.02 0.023700001 0.84100002
-0.0185 0.023700001 0.84100002
-0.017100001 0.023800001 0.84299999
-0.0156 0.023700001 0.84200001
-0.0142 0.023700001 0.84200001
-0.0127 0.023800001 0.84299999
-0.0113 0.023800001 0.84600002
-0.0098999999 0.0239 0.84899998
-0.0083999997 0.0239 0.84899998
-0.0070000002 0.024 0.852
-0.0055 0.0241 0.85399997
-0.0041 0.0244 0.866
-0.1014 0.0251 0.83899999
-0.0995 0.025 0.83499998
-0.0977 0.024900001 0.83200002
-0.096299998 0.024900001 0.833
-0.094899997 0.024900001 0.833
-0.093400002 0.024900001 0.833
-0.091899998 0.024900001 0.83200002
-0.090599999 0.024900001 0.833
-0.089100003 0.024900001 0.833
-0.087700002 0.024900001 0.833
-0.086199999 0.024900001 0.833
-0.085000001 0.025 0.83499998
-0.083499998 0.025 0.83499998
-0.0823 0.025 0.83700001
-0.080700003 0.025 0.83600003
-0.079400003 0.025 0.83700001
-0.0779 0.025 0.83700001
-0.076399997 0.025 0.83600003
-0.074900001 0.025 0.83499998
-0.073299997 0.024900001 0.83399999
-0.071900003 0.024900001 0.83399999
-0.0704 0.024900001 0.83399999
-0.068999998 0.024900001 0.83399999
-0.067500003 0.024900001 0.83399999
-0.066100001 0.024900001 0.83399999
-0.064599998 0.024900001 0.83399999
-0.063299999 0.025 0.83499998
-0.061799999 0.025 0.83499998
-0.0603 0.024900001 0.83399999
-0.058899999 0.025 0.83499998
-0.057500001 0.025 0.83499998
-0.0561 0.025 0.83600003
-0.054699998 0.025 0.83700001
-0.025699999 0.0251 0.838
-0.0244 0.0252 0.84100002
-0.023 0.0252 0.84299999
-0.021500001 0.0252 0.84299999
-0.02 0.0252 0.84299999
-0.0186 0.0252 0.84399998
-0.017100001 0.0252 0.84399998
-0.015699999 0.0252 0.84399998
-0.0142 0.0252 0.84299999
-0.0127 0.0252 0.84299999
-0.0113 0.0253 0.84500003
-0.0098999999 0.0253 0.84600002
-0.0083999997 0.0253 0.847
-0.0068999999 0.0253 0.84600002
-0.0055 0.0253 0.84600002
-0.0040000002 0.0253 0.84600002
-0.0024999999 0.0253 0.84500003
-0.36809999 0.0277 0.875
-0.1013 0.0265 0.838
-0.099299997 0.0264 0.83399999
-0.097800002 0.0264 0.833
-0.096299998 0.0264 0.833
-0.094899997 0.0264 0.833
-0.093400002 0.0264 0.833
-0.092 0.0264 0.833
-0.090599999 0.0264 0.833
-0.089100003 0.0264 0.833
-0.087700002 0.0264 0.833
-0.086199999 0.0264 0.833
-0.085000001 0.0264 0.83499998
-0.0836 0.0265 0.83600003
-0.0823 0.0265 0.83700001
-0.080799997 0.0265 0.83700001
-0.079400003 0.0265 0.83700001
-0.0779 0.0265 0.83700001
-0.076499999 0.0265 0.83700001
-0.074900001 0.0264 0.83499998
-0.073299997 0.0264 0.83399999
-0.071800001 0.0264 0.833
-0.070299998 0.0264 0.833
-0.068899997 0.0264 0.833
-0.067500003 0.0264 0.833
-0.066100001 0.0264 0.83399999
-0.064599998 0.0264 0.833
-0.063199997 0.0264 0.83399999
-0.061799999 0.0264 0.83399999
-0.0603 0.0264 0.83399999
-0.058899999 0.0264 0.83499998
-0.057500001 0.0264 0.83499998
-0.056000002 0.0264 0.83499998
-0.054699998 0.0265 0.83600003
-0.031800002 0.026699999 0.84399998
-0.025800001 0.0266 0.83999997
-0.0244 0.026699999 0.84299999
-0.023 0.026699999 0.84399998
-0.021600001 0.026699999 0.84500003
-0.020099999 0.026699999 0.84399998
-0.0186 0.026699999 0.84500003
-0.017200001 0.026699999 0.84500003
-0.015699999 0.026699999 0.84399998
-0.0142 0.026699999 0.84299999
-0.0127 0.0266 0.84200001
-0.0113 0.0266 0.84200001
-0.0098000001 0.026699999 0.84399998
-0.0083999997 0.026699999 0.84399998
-0.0068999999 0.026699999 0.84399998
-0.0054000001 0.026699999 0.84399998
-0.0040000002 0.026699999 0.84399998
-0.0024999999 0.026699999 0.84299999
-0.0011 0.026699999 0.84299999
0.00039999999 0.026699999 0.84299999
0.0019 0.026699999 0.84399998
0.0033 0.026699999 0.84399998
0.0048000002 0.026699999 0.84500003
-0.101 0.027899999 0.83600003
-0.099200003 0.027799999 0.833
-0.097800002 0.027799999 0.833
-0.096299998 0.027799999 0.833
-0.094899997 0.027799999 0.833
-0.093400002 0.027799999 0.833
-0.091899998 0.027799999 0.83200002
-0.090400003 0.027799999 0.83200002
-0.089000002 0.027799999 0.83200002
-0.087700002 0.027799999 0.833
-0.085000001 0.027899999 0.83499998
-0.0836 0.027899999 0.83600003
-0.0823 0.027899999 0.83700001
-0.080799997 0.027899999 0.83700001
-0.079400003 0.027899999 0.83700001
-0.0779 0.027899999 0.83700001
-0.076300003 0.027899999 0.83499998
-0.0748 0.027799999 0.83399999
-0.073200002 0.027799999 0.833
-0.071800001 0.027799999 0.833
-0.070299998 0.027799999 0.833
-0.068899997 0.027799999 0.833
-0.067500003 0.027799999 0.833
-0.066100001 0.027799999 0.83399999
-0.064599998 0.027799999 0.833
-0.063100003 0.027799999 0.833
-0.061700001 0.027799999 0.833
-0.060199998 0.027799999 0.833
-0.058899999 0.027799999 0.83399999
-0.057399999 0.027799999 0.83399999
-0.056000002 0.027799999 0.83399999
-0.0546 0.027899999 0.83499998
-0.053300001 0.027899999 0.83700001
-0.023 0.028200001 0.84399998
-0.021500001 0.028200001 0.84399998
-0.02 0.028100001 0.84299999
-0.0186 0.028100001 0.84299999
-0.017100001 0.028100001 0.84299999
-0.015699999 0.028100001 0.84299999
-0.0142 0.028100001 0.84200001
-0.0127 0.028100001 0.84100002
-0.0112 0.028000001 0.83999997
-0.0098000001 0.028100001 0.84100002
-0.0083999997 0.028100001 0.84299999
-0.0068999999 0.028100001 0.84299999
-0.0054000001 0.028100001 0.84200001
-0.0040000002 0.028100001 0.84100002
-0.0024999999 0.028100001 0.84100002
-0.0011 0.028100001 0.84100002
0.00039999999 0.028100001 0.84100002
0.0019 0.028100001 0.84100002
0.0033 0.028100001 0.84200001
0.0048000002 0.028100001 0.84299999
0.0063 0.028200001 0.84399998
0.0077 0.028200001 0.84500003
0.0092000002 0.028200001 0.84600002
-0.3655 0.0308 0.87599999
-0.36309999 0.0307 0.87400001
-0.1009 0.029300001 0.83499998
-0.099200003 0.029200001 0.833
-0.097800002 0.029200001 0.833
-0.096299998 0.029200001 0.833
-0.094999999 0.029300001 0.83399999
-0.093599997 0.029300001 0.83399999
-0.092100002 0.029300001 0.83399999
-0.090599999 0.029200001 0.833
-0.089100003 0.029200001 0.833
-0.087800004 0.029300001 0.83399999
-0.086300001 0.029300001 0.83399999
-0.085000001 0.029300001 0.83499998
-0.083499998 0.029300001 0.83499998
-0.082199998 0.0294 0.83600003
-0.080700003 0.0294 0.83600003
-0.079400003 0.0294 0.83700001
-0.077699997 0.029300001 0.83499998
-0.076300003 0.029300001 0.83499998
-0.0748 0.029300001 0.83399999
-0.073299997 0.029300001 0.83399999
-0.071800001 0.029200001 0.833
-0.070299998 0.029200001 0.833
-0.068899997 0.029200001 0.833
-0.067500003 0.029200001 0.833
-0.066 0.029200001 0.833
-0.064599998 0.029200001 0.833
-0.063100003 0.029200001 0.833
-0.061700001 0.029200001 0.833
-0.060199998 0.029200001 0.833
-0.058800001 0.029200001 0.833
-0.057399999 0.029300001 0.83399999
-0.056000002 0.029300001 0.83499998
-0.054699998 0.0294 0.83700001
-0.053300001 0.0294 0.838
-0.051899999 0.0294 0.838
-0.0504 0.0294 0.83700001
-0.031800002 0.0297 0.84500003
-0.023 0.0296 0.84399998
-0.021500001 0.0296 0.84399998
-0.020099999 0.0296 0.84399998
-0.0186 0.0296 0.84399998
-0.017100001 0.0296 0.84399998
-0.015699999 0.0296 0.84399998
-0.0142 0.0296 0.84299999
-0.0127 0.0295 0.84100002
-0.0112 0.0295 0.83999997
-0.0098000001 0.0295 0.83999997
-0.0082999999 0.0295 0.84100002
-0.0068999999 0.0295 0.83999997
-0.0054000001 0.0295 0.83999997
-0.0040000002 0.0295 0.83999997
-0.0024999999 0.0295 0.83899999
-0.0011 0.0295 0.83999997
0.00039999999 0.0295 0.83999997
0.0019 0.0295 0.84100002
0.0033 0.0295 0.84100002
0.0048000002 0.0295 0.84100002
0.0062000002 0.0295 0.84100002
0.0077 0.0296 0.84399998
0.0092000002 0.0297 0.84500003
0.0107 0.0297 0.84500003
0.0121 0.0297 0.84600002
0.0136 0.0297 0.84500003
0.0151 0.0297 0.84500003
-0.1026 0.0308 0.83700001
-0.1009 0.0308 0.83499998
-0.099299997 0.0307 0.83399999
-0.097900003 0.0307 0.83399999
-0.0964 0.0307 0.83399999
-0.094999999 0.0307 0.83399999
-0.093699999 0.0308 0.83499998
-0.092100002 0.0307 0.83399999
-0.090700001 0.0307 0.83399999
-0.089199997 0.0307 0.83399999
-0.087800004 0.0307 0.83399999
-0.086300001 0.0307 0.83399999
-0.085000001 0.0308 0.83499998
-0.083400004 0.0307 0.83399999
-0.082000002 0.0307 0.83399999
-0.080600001 0.0308 0.83499998
-0.079300001 0.0308 0.83600003
-0.077699997 0.0308 0.83499998
-0.076300003 0.0308 0.83499998
-0.0748 0.0307 0.83399999
-0.073299997 0.0307 0.83399999
-0.071900003 0.0307 0.83399999
-0.070299998 0.0307 0.833
-0.068899997 0.0307 0.833
-0.067500003 0.0307 0.833
-0.066 0.0307 0.833
-0.064599998 0.0307 0.833
-0.063100003 0.0307 0.833
-0.061700001 0.0307 0.833
-0.0603 0.0307 0.83399999
-0.058899999 0.0307 0.83399999
-0.057500001 0.0308 0.83499998
-0.056200001 0.0309 0.838
-0.054900002 0.0309 0.83899999
-0.053399999 0.0309 0.83899999
-0.051899999 0.0309 0.83899999
-0.0504 0.0309 0.838
-0.031800002 0.031099999 0.84500003
-0.030300001 0.031099999 0.84500003
-0.0288 0.031099999 0.84399998
-0.0274 0.031099999 0.84299999
-0.025900001 0.031099999 0.84299999
-0.0244 0.031099999 0.84299999
-0.023 0.031099999 0.84299999
-0.021500001 0.031099999 0.84299999
-0.02 0.030999999 0.84100002
-0.0185 0.030999999 0.84100002
-0.017100001 0.0309 0.83999997
-0.0156 0.0309 0.83999997
-0.0142 0.0309 0.83999997
-0.0127 0.0309 0.838
-0.0112 0.0308 0.83700001
-0.0098000001 0.0308 0.83700001
-0.0082999999 0.0309 0.838
-0.0068999999 0.0309 0.838
-0.0054000001 0.0309 0.838
