# .PCD v0.7 - Point Cloud Data file format
VERSION 0.7
FIELDS x y z
SIZE 4 4 4
TYPE F F F
COUNT 1 1 1
WIDTH 1688
HEIGHT 1
VIEWPOINT 0 0 0 1 0 0 0
POINTS 1688
DATA ascii
0.1008 0.0112 0.89099997
0.1023 0.0112 0.89099997
0.1041 0.0112 0.89300001
0.1075 0.0113 0.89499998
0.1088 0.0112 0.89300001
0.1104 0.0112 0.89399999
0.1121 0.0113 0.89499998
0.1135 0.0112 0.89399999
0.1148 0.0112 0.89200002
0.1162 0.0112 0.89099997
0.1177 0.0112 0.88999999
0.1191 0.0112 0.889
0.1206 0.0112 0.889
0.1223 0.0112 0.88999999
0.1238 0.0112 0.88999999
0.12710001 0.0112 0.89099997
0.12890001 0.0112 0.89300001
0.13070001 0.0113 0.89499998
0.13240001 0.0113 0.89600003
0.134 0.0113 0.89600003
0.13600001 0.0113 0.89899999
0.13770001 0.0113 0.89999998
0.13940001 0.0113 0.90100002
0.1411 0.0113 0.90200001
0.1427 0.0113 0.90200001
0.1443 0.0113 0.90200001
0.14569999 0.0113 0.90100002
0.14669999 0.0113 0.898
0.14920001 0.0112 0.89399999
0.15350001 0.0112 0.89200002
0.1567 0.0112 0.89300001
0.1585 0.0112 0.89399999
0.16 0.0112 0.89399999
0.1617 0.0113 0.89499998
0.1631 0.0112 0.89399999
0.1647 0.0112 0.89399999
0.1666 0.0113 0.89600003
0.16850001 0.0113 0.898
0.1706 0.0113 0.90100002
0.1728 0.0114 0.90399998
0.17470001 0.0114 0.90600002
0.17649999 0.0114 0.90700001
0.1855 0.0112 0.88999999
0.18790001 0.0112 0.89399999
-0.37689999 0.0127 0.88499999
-0.37540001 0.0127 0.88499999
-0.3721 0.0126 0.88099998
-0.36230001 0.0125 0.87199998
-0.3612 0.0125 0.87300003
-0.35969999 0.0125 0.87300003
-0.35730001 0.0126 0.88200003
-0.35530001 0.0126 0.88099998
-0.35260001 0.0126 0.87800002
-0.34909999 0.0125 0.87300003
-0.34720001 0.0125 0.87199998
-0.34299999 0.0125 0.87300003
-0.34150001 0.0125 0.87300003
-0.33849999 0.0126 0.87699997
-0.33660001 0.0125 0.87599999
-0.3355 0.0126 0.87699997
-0.3355 0.0126 0.88099998
-0.3351 0.0127 0.884
-0.33360001 0.0127 0.884
-0.33320001 0.0127 0.88700002
-0.33160001 0.0127 0.88700002
-0.3301 0.0127 0.88700002
-0.32890001 0.0127 0.88800001
-0.3274 0.0127 0.88800001
-0.32550001 0.0127 0.88700002
-0.32359999 0.0127 0.88599998
-0.32170001 0.0127 0.88499999
-0.32010001 0.0127 0.88499999
-0.31819999 0.0127 0.884
-0.31600001 0.0126 0.88200003
-0.3141 0.0126 0.88099998
-0.2692 0.0127 0.889
-0.26640001 0.0127 0.88999999
-0.2649 0.0127 0.88999999
-0.2633 0.0127 0.88999999
-0.26179999 0.0127 0.88999999
-0.26030001 0.0127 0.88999999
-0.25839999 0.0127 0.889
-0.25690001 0.0127 0.889
-0.255 0.0127 0.88800001
-0.25350001 0.0127 0.88800001
-0.252 0.0127 0.88800001
-0.2502 0.0127 0.88700002
-0.2483 0.0127 0.88599998
-0.2465 0.0127 0.88499999
-0.2447 0.0127 0.884
-0.2432 0.0127 0.884
-0.2414 0.0126 0.88300002
-0.2396 0.0126 0.88200003
-0.23800001 0.0126 0.88200003
-0.2362 0.0126 0.88099998
-0.23469999 0.0126 0.88099998
-0.23289999 0.0126 0.88
-0.2296 0.0126 0.87900001
-0.2256 0.0126 0.88099998
-0.22400001 0.0126 0.88099998
-0.2228 0.0126 0.88200003
-0.22149999 0.0126 0.88300002
-0.2202 0.0127 0.884
-0.21870001 0.0127 0.884
-0.21709999 0.0127 0.884
-0.2156 0.0127 0.884
-0.2141 0.0127 0.884
-0.2123 0.0126 0.88300002
-0.2103 0.0126 0.88099998
-0.2085 0.0126 0.88
-0.20649999 0.0126 0.87800002
-0.20479999 0.0126 0.87699997
-0.2033 0.0126 0.87699997
-0.2017 0.0126 0.87699997
-0.20039999 0.0126 0.87800002
-0.19939999 0.0126 0.88
-0.17569999 0.0118 0.82599998
-0.1743 0.0118 0.82599998
-0.1728 0.0118 0.82599998
-0.1716 0.0118 0.82700002
-0.17 0.0118 0.82599998
-0.16850001 0.0118 0.82599998
-0.1671 0.0118 0.82599998
-0.1657 0.0118 0.82599998
-0.16419999 0.0118 0.82599998
-0.1628 0.0118 0.82599998
-0.16140001 0.0118 0.82599998
-0.15989999 0.0118 0.82599998
-0.1585 0.0118 0.82599998
-0.15710001 0.0118 0.82599998
-0.1556 0.0118 0.82599998
-0.15440001 0.0118 0.82700002
-0.1533 0.0119 0.829
-0.1521 0.0119 0.82999998
-0.1506 0.0119 0.82999998
-0.1494 0.0119 0.83099997
-0.1479 0.0119 0.83099997
-0.1463 0.0119 0.82999998
-0.14489999 0.0119 0.82999998
-0.1435 0.0119 0.82999998
-0.1418 0.0119 0.829
-0.14040001 0.0119 0.829
-0.1391 0.0119 0.82999998
-0.13770001 0.0119 0.82999998
-0.1364 0.0119 0.83099997
-0.1348 0.0119 0.82999998
-0.13339999 0.0119 0.82999998
-0.1319 0.0119 0.82999998
-0.1305 0.0119 0.82999998
-0.12909999 0.0119 0.82999998
-0.1276 0.0119 0.82999998
-0.12620001 0.0119 0.82999998
-0.1249 0.0119 0.83099997
-0.1235 0.0119 0.83099997
-0.122 0.0119 0.83099997
-0.1189 0.0119 0.829
-0.1173 0.0118 0.82800001
-0.1157 0.0118 0.82700002
-0.1143 0.0118 0.82700002
-0.1128 0.0118 0.82700002
-0.1114 0.0118 0.82700002
-0.11 0.0118 0.82700002
-0.1088 0.0119 0.829
-0.1072 0.0118 0.82800001
-0.1058 0.0118 0.82800001
-0.1042 0.0118 0.82700002
-0.1028 0.0118 0.82700002
-0.1016 0.0119 0.829
-0.1002 0.0119 0.829
-0.098700002 0.0119 0.829
-0.0973 0.0119 0.829
-0.096000001 0.0119 0.82999998
-0.094499998 0.0119 0.82999998
-0.093099996 0.0119 0.82999998
-0.091600001 0.0119 0.829
-0.090000004 0.0118 0.82800001
-0.088600002 0.0118 0.82800001
-0.087200001 0.0119 0.829
-0.0858 0.0119 0.829
-0.084299996 0.0118 0.82800001
-0.082800001 0.0118 0.82800001
-0.081299998 0.0118 0.82700002
-0.079899997 0.0118 0.82700002
-0.078299999 0.0118 0.82599998
-0.076800004 0.0118 0.82499999
-0.075400002 0.0118 0.82499999
-0.074000001 0.0118 0.82599998
-0.072700001 0.0118 0.82700002
-0.071400002 0.0119 0.829
-0.070100002 0.0119 0.82999998
-0.055799998 0.0119 0.83099997
-0.054299999 0.0119 0.82999998
-0.0528 0.0119 0.829
-0.051399998 0.0119 0.82999998
-0.049899999 0.0119 0.82999998
-0.048599999 0.0119 0.83099997
-0.047200002 0.0119 0.83200002
-0.044399999 0.0119 0.833
-0.0429 0.0119 0.833
-0.041499998 0.0119 0.833
-0.0385 0.0119 0.83099997
-0.037 0.0119 0.83099997
-0.035599999 0.0119 0.83200002
-0.034200002 0.0119 0.83099997
-0.0328 0.0119 0.83200002
-0.031300001 0.0119 0.83200002
-0.029899999 0.0119 0.833
-0.0285 0.0119 0.833
-0.027000001 0.0119 0.833
-0.025599999 0.0119 0.83399999
-0.0242 0.0119 0.83399999
-0.022700001 0.0119 0.83399999
-0.021299999 0.0119 0.833
-0.0198 0.0119 0.833
-0.0184 0.0119 0.833
-0.016899999 0.0119 0.833
-0.0155 0.0119 0.833
-0.0141 0.0119 0.83399999
-0.0057999999 0.0128 0.89499998
-0.0041999999 0.0128 0.89300001
-0.0027000001 0.0128 0.89200002
-0.0011 0.0128 0.89200002
0.00039999999 0.0128 0.89300001
0.0020000001 0.0128 0.89399999
0.0035000001 0.0128 0.89399999
0.0051000002 0.0128 0.89399999
0.0066 0.0128 0.89499998
0.0082 0.0129 0.898
0.0098000001 0.0129 0.898
0.0113 0.0128 0.89700001
0.0129 0.0128 0.89600003
0.0144 0.0128 0.89600003
0.016000001 0.0128 0.89600003
0.0175 0.0128 0.89499998
0.018999999 0.0128 0.89399999
0.020500001 0.0128 0.89300001
0.022 0.0128 0.89099997
0.023600001 0.0128 0.89099997
0.0251 0.0128 0.89099997
0.026699999 0.0128 0.89099997
0.028200001 0.0128 0.89099997
0.0298 0.0128 0.89099997
0.031300001 0.0128 0.89200002
0.032900002 0.0128 0.89300001
0.034600001 0.0128 0.89600003
0.036200002 0.0129 0.898
0.037900001 0.0129 0.90100002
0.0396 0.013 0.90499997
0.041299999 0.013 0.90700001
0.0429 0.013 0.90700001
0.044500001 0.013 0.90700001
0.047400001 0.0129 0.903
0.048799999 0.0129 0.89999998
0.050099999 0.0128 0.89600003
0.0515 0.0128 0.89300001
0.052900001 0.0128 0.89099997
0.054400001 0.0127 0.88999999
0.056000002 0.0127 0.88999999
0.057500001 0.0127 0.88999999
0.0592 0.0128 0.89200002
0.060899999 0.0128 0.89399999
0.0625 0.0128 0.89499998
0.064099997 0.0128 0.89600003
0.065700002 0.0128 0.89600003
0.067199998 0.0128 0.89600003
0.068800002 0.0128 0.89600003
0.070200004 0.0128 0.89399999
0.071500003 0.0128 0.89099997
0.072899997 0.0127 0.88999999
0.0744 0.0127 0.889
0.075800002 0.0127 0.88800001
0.077399999 0.0127 0.88800001
0.079000004 0.0127 0.889
0.080499999 0.0127 0.889
0.082500003 0.0128 0.89300001
0.084299996 0.0128 0.89600003
0.089199997 0.0129 0.89899999
0.090700001 0.0129 0.898
0.093599997 0.0128 0.89600003
0.094800003 0.0128 0.89300001
0.0964 0.0128 0.89300001
0.097800002 0.0128 0.89200002
0.0995 0.0128 0.89300001
0.1009 0.0128 0.89200002
0.1026 0.0128 0.89300001
0.1042 0.0128 0.89399999
0.1059 0.0128 0.89499998
0.1075 0.0128 0.89499998
0.1089 0.0128 0.89399999
0.1106 0.0128 0.89499998
0.1121 0.0128 0.89499998
0.1135 0.0128 0.89399999
0.115 0.0128 0.89300001
0.1164 0.0128 0.89200002
0.1177 0.0127 0.88999999
0.1192 0.0127 0.88999999
0.1207 0.0127 0.88999999
0.1223 0.0127 0.88999999
0.1238 0.0127 0.88999999
0.12549999 0.0128 0.89099997
0.12729999 0.0128 0.89300001
0.1292 0.0128 0.89499998
0.131 0.0128 0.89700001
0.13259999 0.0128 0.89700001
0.13429999 0.0129 0.898
0.13609999 0.0129 0.89999998
0.13770001 0.0129 0.89999998
0.13940001 0.0129 0.90100002
0.141 0.0129 0.90100002
0.1425 0.0129 0.90100002
0.1443 0.0129 0.90200001
0.1455 0.0129 0.89999998
0.1469 0.0129 0.89899999
0.14830001 0.0129 0.898
0.1495 0.0128 0.89600003
0.1507 0.0128 0.89399999
0.1523 0.0128 0.89399999
0.15360001 0.0128 0.89300001
0.1583 0.0128 0.89300001
0.1631 0.0128 0.89399999
0.1645 0.0128 0.89300001
0.1666 0.0128 0.89600003
0.1689 0.0129 0.89999998
0.1708 0.0129 0.90200001
0.1728 0.0129 0.90399998
0.17470001 0.013 0.90600002
0.17649999 0.013 0.90700001
0.1851 0.0127 0.88800001
0.1866 0.0127 0.88800001
-0.417 0.0141 0.87900001
-0.37490001 0.0142 0.884
-0.37169999 0.0141 0.88
-0.36160001 0.014 0.87400001
-0.35730001 0.0142 0.88200003
-0.35530001 0.0141 0.88099998
-0.35260001 0.0141 0.87800002
-0.34869999 0.014 0.87199998
-0.34599999 0.0139 0.86900002
-0.34490001 0.014 0.87
-0.3396 0.014 0.87199998
-0.3389 0.014 0.87400001
-0.3362 0.014 0.875
-0.33430001 0.0141 0.87800002
-0.33430001 0.0142 0.88200003
-0.33320001 0.0142 0.88300002
-0.33239999 0.0142 0.88499999
-0.33160001 0.0142 0.88700002
-0.3301 0.0142 0.88700002
-0.32969999 0.0143 0.88999999
-0.3281 0.0143 0.88999999
-0.3258 0.0142 0.88800001
-0.32390001 0.0142 0.88700002
-0.322 0.0142 0.88599998
-0.32049999 0.0142 0.88599998
-0.3186 0.0142 0.88499999
-0.2649 0.0143 0.88999999
-0.26300001 0.0143 0.889
-0.2615 0.0143 0.889
-0.26030001 0.0143 0.88999999
-0.25839999 0.0143 0.889
-0.25659999 0.0142 0.88800001
-0.255 0.0142 0.88800001
-0.25319999 0.0142 0.88700002
-0.2502 0.0142 0.88700002
-0.2462 0.0142 0.884
-0.2447 0.0142 0.884
-0.2429 0.0142 0.88300002
-0.2411 0.0142 0.88200003
-0.2396 0.0142 0.88200003
-0.23800001 0.0142 0.88200003
-0.23649999 0.0142 0.88200003
-0.23469999 0.0141 0.88099998
-0.2332 0.0141 0.88099998
-0.2317 0.0141 0.88099998
-0.23010001 0.0141 0.88099998
-0.22679999 0.0141 0.88
-0.2256 0.0141 0.88099998
-0.22400001 0.0141 0.88099998
-0.2228 0.0142 0.88200003
-0.2212 0.0142 0.88200003
-0.2199 0.0142 0.88300002
-0.21870001 0.0142 0.884
-0.21709999 0.0142 0.884
-0.2154 0.0142 0.88300002
-0.2138 0.0142 0.88300002
-0.2121 0.0142 0.88200003
-0.2103 0.0141 0.88099998
-0.2088 0.0141 0.88099998
-0.2068 0.0141 0.87900001
-0.205 0.0141 0.87800002
-0.20370001 0.0141 0.87900001
-0.2022 0.0141 0.87900001
-0.2009 0.0141 0.88
-0.1996 0.0141 0.88099998
-0.17569999 0.0133 0.82599998
-0.1745 0.0133 0.82700002
-0.17299999 0.0133 0.82700002
-0.1716 0.0133 0.82700002
-0.17 0.0133 0.82599998
-0.16850001 0.0133 0.82599998
-0.1671 0.0133 0.82599998
-0.1657 0.0133 0.82599998
-0.16419999 0.0133 0.82599998
-0.1628 0.0133 0.82599998
-0.1612 0.0132 0.82499999
-0.15970001 0.0132 0.82499999
-0.1583 0.0132 0.82499999
-0.15710001 0.0133 0.82599998
-0.1558 0.0133 0.82700002
-0.15459999 0.0133 0.82800001
-0.15350001 0.0133 0.82999998
-0.1521 0.0133 0.82999998
-0.1506 0.0133 0.82999998
-0.1494 0.0133 0.83099997
-0.1478 0.0133 0.82999998
-0.1463 0.0133 0.82999998
-0.14470001 0.0133 0.829
-0.1433 0.0133 0.829
-0.1418 0.0133 0.829
-0.14040001 0.0133 0.829
-0.139 0.0133 0.829
-0.13770001 0.0133 0.82999998
-0.1363 0.0133 0.82999998
-0.1348 0.0133 0.82999998
-0.13339999 0.0133 0.82999998
-0.1318 0.0133 0.829
-0.1303 0.0133 0.829
-0.12890001 0.0133 0.829
-0.1275 0.0133 0.829
-0.126 0.0133 0.829
-0.1247 0.0133 0.82999998
-0.1233 0.0133 0.82999998
-0.1219 0.0133 0.82999998
-0.1204 0.0133 0.82999998
-0.1189 0.0133 0.829
-0.1171 0.0133 0.82700002
-0.1157 0.0133 0.82700002
-0.1141 0.0133 0.82599998
-0.1127 0.0133 0.82599998
-0.1113 0.0133 0.82599998
-0.1098 0.0133 0.82599998
-0.1085 0.0133 0.82700002
-0.1071 0.0133 0.82700002
-0.1057 0.0133 0.82700002
-0.1042 0.0133 0.82700002
-0.1028 0.0133 0.82700002
-0.1016 0.0133 0.829
-0.1002 0.0133 0.829
-0.098899998 0.0133 0.82999998
-0.097400002 0.0133 0.82999998
-0.096000001 0.0133 0.82999998
-0.094499998 0.0133 0.82999998
-0.093099996 0.0133 0.82999998
-0.091600001 0.0133 0.829
-0.090099998 0.0133 0.829
-0.088699996 0.0133 0.829
-0.087200001 0.0133 0.829
-0.0858 0.0133 0.829
-0.084399998 0.0133 0.829
-0.082900003 0.0133 0.829
-0.0814 0.0133 0.82800001
-0.079899997 0.0133 0.82700002
-0.078400001 0.0133 0.82700002
-0.076899998 0.0133 0.82599998
-0.075499997 0.0133 0.82599998
-0.074100003 0.0133 0.82700002
-0.072899997 0.0133 0.829
-0.071500003 0.0133 0.82999998
-0.070299998 0.0133 0.83200002
-0.068899997 0.0134 0.833
-0.063199997 0.0134 0.83399999
-0.061700001 0.0134 0.833
-0.054299999 0.0133 0.82999998
-0.0528 0.0133 0.829
-0.051399998 0.0133 0.82999998
-0.049899999 0.0133 0.82999998
-0.048599999 0.0133 0.83099997
-0.0471 0.0133 0.83099997
-0.0429 0.0134 0.833
-0.0414 0.0133 0.83200002
-0.039999999 0.0133 0.83200002
-0.0385 0.0133 0.83200002
-0.037 0.0133 0.83099997
-0.035599999 0.0133 0.83099997
-0.034200002 0.0133 0.83099997
-0.0328 0.0133 0.83200002
-0.031300001 0.0133 0.83200002
-0.029899999 0.0134 0.833
-0.0285 0.0134 0.833
-0.027000001 0.0133 0.83200002
-0.016899999 0.0134 0.833
-0.0155 0.0134 0.833
-0.0141 0.0134 0.83399999
-0.0126 0.0134 0.83399999
-0.0073000002 0.0144 0.89499998
-0.0057999999 0.0144 0.89499998
-0.0041999999 0.0143 0.89399999
-0.0027000001 0.0143 0.89300001
-0.0011 0.0143 0.89300001
0.00039999999 0.0143 0.89399999
0.0020000001 0.0144 0.89499998
0.0035000001 0.0144 0.89499998
0.0051000002 0.0144 0.89499998
0.0066 0.0144 0.89600003
0.0082 0.0144 0.89700001
0.0097000003 0.0144 0.89600003
0.0113 0.0144 0.89600003
0.0129 0.0144 0.89600003
0.0144 0.0144 0.89600003
0.015900001 0.0144 0.89499998
0.0175 0.0143 0.89300001
0.018999999 0.0143 0.89300001
0.020500001 0.0143 0.89099997
0.022 0.0143 0.89099997
0.023600001 0.0143 0.88999999
0.0251 0.0143 0.89099997
0.026699999 0.0143 0.89099997
0.028200001 0.0143 0.89099997
0.0298 0.0143 0.89099997
0.031300001 0.0143 0.89099997
0.032900002 0.0143 0.89300001
0.034600001 0.0144 0.89499998
0.036200002 0.0144 0.898
0.037900001 0.0145 0.90100002
0.0396 0.0145 0.90499997
0.041299999 0.0146 0.90700001
0.0429 0.0146 0.90700001
0.044399999 0.0145 0.90600002
0.045899998 0.0145 0.90499997
0.047400001 0.0145 0.903
0.048799999 0.0144 0.89999998
0.050099999 0.0144 0.89499998
0.051399998 0.0143 0.89200002
0.052900001 0.0143 0.89099997
0.054400001 0.0143 0.88999999
0.056000002 0.0143 0.88999999
0.057500001 0.0143 0.88999999
0.059099998 0.0143 0.89099997
0.060899999 0.0144 0.89499998
0.0625 0.0144 0.89600003
0.064199999 0.0144 0.898
0.065899998 0.0144 0.89899999
0.067400001 0.0144 0.89899999
0.068999998 0.0144 0.89899999
0.070299998 0.0144 0.89600003
0.071599998 0.0143 0.89300001
0.072899997 0.0143 0.88999999
0.074299999 0.0142 0.88800001
0.075900003 0.0143 0.889
0.077600002 0.0143 0.88999999
0.079099998 0.0143 0.88999999
0.080700003 0.0143 0.89099997
0.082500003 0.0143 0.89399999
0.084399998 0.0144 0.89700001
0.086000003 0.0144 0.898
0.0876 0.0144 0.898
0.089100003 0.0144 0.898
0.090700001 0.0144 0.898
0.092200004 0.0144 0.89700001
0.093500003 0.0144 0.89499998
0.094800003 0.0143 0.89300001
0.096500002 0.0143 0.89399999
0.098200001 0.0144 0.89499998
0.099699996 0.0144 0.89499998
0.1013 0.0144 0.89499998
0.1028 0.0144 0.89499998
0.106 0.0144 0.89600003
0.1076 0.0144 0.89600003
0.109 0.0144 0.89499998
0.1106 0.0144 0.89499998
0.1121 0.0144 0.89499998
0.1137 0.0144 0.89499998
0.115 0.0143 0.89300001
0.1164 0.0143 0.89200002
0.1178 0.0143 0.89099997
0.1192 0.0143 0.88999999
0.1207 0.0143 0.88999999
0.1224 0.0143 0.89099997
0.124 0.0143 0.89099997
0.1258 0.0143 0.89300001
0.1278 0.0144 0.89600003
0.1296 0.0144 0.898
0.1312 0.0144 0.898
0.1327 0.0144 0.898
0.13429999 0.0144 0.898
0.13600001 0.0144 0.89899999
0.1375 0.0144 0.89899999
0.1391 0.0144 0.89899999
0.1408 0.0144 0.89999998
0.1424 0.0144 0.89999998
0.1441 0.0145 0.90100002
0.1455 0.0144 0.89999998
0.14669999 0.0144 0.898
0.14830001 0.0144 0.898
0.1497 0.0144 0.89700001
0.15090001 0.0144 0.89499998
0.1524 0.0144 0.89499998
0.1538 0.0143 0.89399999
0.1567 0.0143 0.89300001
0.1583 0.0143 0.89300001
0.16140001 0.0143 0.89300001
0.1629 0.0143 0.89300001
0.1666 0.0144 0.89600003
0.1691 0.0145 0.90100002
0.171 0.0145 0.903
0.17299999 0.0145 0.90499997
0.1745 0.0145 0.90499997
0.17649999 0.0146 0.90700001
0.1851 0.0142 0.88800001
0.1866 0.0142 0.88800001
-0.39989999 0.0156 0.875
-0.3978 0.0156 0.87699997
-0.3599 0.015699999 0.88099998
-0.35179999 0.0156 0.87599999
-0.3479 0.0155 0.87
-0.3452 0.0154 0.86699998
-0.3441 0.0154 0.86799997
-0.33849999 0.0154 0.86900002
-0.3373 0.0155 0.87
-0.33579999 0.0155 0.87
-0.33430001 0.0155 0.87
-0.3317 0.0155 0.87099999
-0.33129999 0.0156 0.87800002
-0.33199999 0.015699999 0.884
-0.33160001 0.015799999 0.88700002
-0.33039999 0.015900001 0.89200002
-0.32890001 0.015900001 0.89200002
-0.32659999 0.015799999 0.88999999
-0.32429999 0.015799999 0.88800001
-0.3224 0.015799999 0.88700002
-0.32089999 0.015799999 0.88700002
-0.2615 0.015799999 0.889
-0.25999999 0.015799999 0.889
-0.2581 0.015799999 0.88800001
-0.25659999 0.015799999 0.88800001
-0.25479999 0.015799999 0.88700002
-0.2462 0.015699999 0.884
-0.245 0.015699999 0.88499999
-0.24349999 0.015699999 0.88499999
-0.24160001 0.015699999 0.884
-0.2401 0.015699999 0.884
-0.2386 0.015699999 0.884
-0.237 0.015699999 0.884
-0.23549999 0.015699999 0.884
-0.2335 0.015699999 0.88200003
-0.2317 0.015699999 0.88099998
-0.23010001 0.015699999 0.88099998
-0.2286 0.015699999 0.88099998
-0.2271 0.015699999 0.88099998
-0.2253 0.0156 0.88
-0.22400001 0.015699999 0.88099998
-0.2225 0.015699999 0.88099998
-0.2212 0.015699999 0.88200003
-0.21969999 0.015699999 0.88200003
-0.2182 0.015699999 0.88200003
-0.21690001 0.015699999 0.88300002
-0.2154 0.015699999 0.88300002
-0.2138 0.015699999 0.88300002
-0.2123 0.015699999 0.88300002
-0.2105 0.015699999 0.88200003
-0.20900001 0.015699999 0.88200003
-0.20720001 0.015699999 0.88099998
-0.20550001 0.0156 0.88
-0.2042 0.015699999 0.88099998
-0.2027 0.015699999 0.88099998
-0.20110001 0.015699999 0.88099998
-0.1998 0.015699999 0.88200003
-0.17569999 0.0147 0.82599998
-0.1745 0.0147 0.82700002
-0.1728 0.0147 0.82599998
-0.1716 0.0147 0.82700002
-0.17020001 0.0147 0.82700002
-0.16869999 0.0147 0.82700002
-0.1671 0.0147 0.82599998
-0.1657 0.0147 0.82599998
-0.16419999 0.0147 0.82599998
-0.1626 0.0147 0.82499999
-0.16140001 0.0147 0.82599998
-0.15970001 0.0147 0.82499999
-0.1583 0.0147 0.82499999
-0.1569 0.0147 0.82499999
-0.1556 0.0147 0.82599998
-0.15440001 0.0147 0.82700002
-0.1533 0.0147 0.829
-0.15189999 0.0147 0.829
-0.1505 0.0147 0.829
-0.14920001 0.0148 0.82999998
-0.1478 0.0148 0.82999998
-0.1462 0.0147 0.829
-0.1444 0.0147 0.82700002
-0.1429 0.0147 0.82700002
-0.1415 0.0147 0.82700002
-0.1402 0.0147 0.82800001
-0.1388 0.0147 0.82800001
-0.1375 0.0147 0.829
-0.13609999 0.0147 0.829
-0.1347 0.0147 0.829
-0.1332 0.0147 0.829
-0.13160001 0.0147 0.82800001
-0.13 0.0147 0.82700002
-0.1286 0.0147 0.82700002
-0.127 0.0147 0.82599998
-0.1256 0.0147 0.82599998
-0.1243 0.0147 0.82700002
-0.1229 0.0147 0.82700002
-0.1214 0.0147 0.82700002
-0.1201 0.0147 0.82800001
-0.1186 0.0147 0.82700002
-0.117 0.0147 0.82599998
-0.1154 0.0147 0.82499999
-0.1139 0.0146 0.824
-0.1126 0.0147 0.82499999
-0.1111 0.0147 0.82499999
-0.1097 0.0147 0.82499999
-0.1083 0.0147 0.82499999
-0.1068 0.0147 0.82499999
-0.1055 0.0147 0.82599998
-0.1042 0.0147 0.82700002
-0.1028 0.0147 0.82700002
-0.1015 0.0147 0.82800001
-0.1002 0.0147 0.829
-0.098899998 0.0148 0.82999998
-0.097400002 0.0148 0.82999998
-0.096100003 0.0148 0.83099997
-0.094700001 0.0148 0.83099997
-0.093199998 0.0148 0.83099997
-0.091700003 0.0148 0.82999998
-0.090099998 0.0147 0.829
-0.088799998 0.0148 0.82999998
-0.087300003 0.0148 0.82999998
-0.085900001 0.0148 0.82999998
-0.0845 0.0148 0.82999998
-0.082999997 0.0148 0.82999998
-0.081500001 0.0147 0.829
-0.079999998 0.0147 0.82800001
-0.078400001 0.0147 0.82700002
-0.076899998 0.0147 0.82599998
-0.075499997 0.0147 0.82599998
-0.074000001 0.0147 0.82599998
-0.072899997 0.0147 0.829
-0.071500003 0.0148 0.82999998
-0.070299998 0.0148 0.833
-0.068999998 0.0148 0.83399999
-0.067500003 0.0148 0.83399999
-0.066100001 0.0148 0.83399999
-0.064599998 0.0148 0.83399999
-0.063100003 0.0148 0.833
-0.061700001 0.0148 0.833
-0.060199998 0.0148 0.83200002
-0.058600001 0.0148 0.83099997
-0.0572 0.0148 0.83099997
-0.055799998 0.0148 0.83099997
-0.054299999 0.0148 0.82999998
-0.0528 0.0147 0.829
-0.0513 0.0147 0.829
-0.049899999 0.0147 0.829
-0.048500001 0.0148 0.82999998
-0.0471 0.0148 0.83099997
-0.0414 0.0148 0.83200002
-0.039999999 0.0148 0.83200002
-0.0385 0.0148 0.83099997
-0.037 0.0148 0.83099997
-0.035599999 0.0148 0.83099997
-0.034200002 0.0148 0.83099997
-0.0328 0.0148 0.83200002
-0.031300001 0.0148 0.83200002
-0.029899999 0.0148 0.833
-0.0285 0.0148 0.833
-0.027000001 0.0148 0.83099997
-0.025599999 0.0148 0.83200002
-0.016899999 0.0148 0.833
-0.0155 0.0148 0.833
-0.0141 0.0148 0.83399999
-0.0126 0.0148 0.83399999
-0.0112 0.0148 0.83499998
-0.0073000002 0.015900001 0.89499998
-0.0057999999 0.015900001 0.89499998
-0.0041999999 0.015900001 0.89300001
-0.0027000001 0.015900001 0.89300001
-0.0011 0.015900001 0.89399999
0.00039999999 0.015900001 0.89399999
0.0020000001 0.015900001 0.89499998
0.0035000001 0.015900001 0.89399999
0.0051000002 0.015900001 0.89399999
0.0066 0.015900001 0.89499998
0.0082 0.015900001 0.89600003
0.0097000003 0.015900001 0.89499998
0.0113 0.015900001 0.89499998
0.0128 0.015900001 0.89499998
0.0144 0.015900001 0.89600003
0.016000001 0.015900001 0.89600003
0.0175 0.015900001 0.89499998
0.018999999 0.015900001 0.89499998
0.020500001 0.015900001 0.89300001
0.022 0.015799999 0.89099997
0.023600001 0.015799999 0.89099997
0.0252 0.015900001 0.89200002
0.026699999 0.015900001 0.89300001
0.0283 0.015900001 0.89300001
0.0298 0.015900001 0.89300001
0.031399999 0.015900001 0.89300001
0.033 0.015900001 0.89499998
0.034600001 0.015900001 0.89700001
0.0363 0.016000001 0.89899999
0.037900001 0.016000001 0.90100002
0.0396 0.016100001 0.90399998
0.041200001 0.016100001 0.90499997
0.042800002 0.016100001 0.90600002
0.044399999 0.016100001 0.90499997
0.045899998 0.016100001 0.90399998
0.047400001 0.016100001 0.903
0.048799999 0.016000001 0.89999998
0.050099999 0.015900001 0.89600003
0.051600002 0.015900001 0.89399999
0.052900001 0.015799999 0.89099997
0.054400001 0.015799999 0.88999999
0.056000002 0.015799999 0.88999999
0.057500001 0.015799999 0.88999999
0.0592 0.015900001 0.89200002
0.060899999 0.015900001 0.89499998
0.062700003 0.016000001 0.898
0.064400002 0.016000001 0.89999998
0.066 0.016000001 0.90100002
0.067599997 0.016000001 0.90100002
0.0691 0.016000001 0.90100002
0.070600003 0.016000001 0.89999998
0.071999997 0.016000001 0.898
0.072999999 0.015799999 0.89099997
0.074500002 0.015799999 0.88999999
0.075999998 0.015799999 0.88999999
0.077600002 0.015799999 0.88999999
0.079099998 0.015799999 0.88999999
0.080700003 0.015799999 0.89099997
0.082599998 0.015900001 0.89499998
0.084299996 0.015900001 0.89600003
0.086000003 0.016000001 0.898
0.0876 0.016000001 0.898
0.089100003 0.016000001 0.898
0.090700001 0.016000001 0.898
0.092299998 0.016000001 0.898
0.093599997 0.015900001 0.89600003
0.095100001 0.015900001 0.89499998
0.096600004 0.015900001 0.89499998
0.098300003 0.015900001 0.89600003
0.0999 0.015900001 0.89700001
0.1014 0.015900001 0.89600003
0.1028 0.015900001 0.89499998
0.1045 0.015900001 0.89600003
0.106 0.015900001 0.89600003
0.1075 0.015900001 0.89499998
0.1089 0.015900001 0.89399999
0.1104 0.015900001 0.89399999
0.1121 0.015900001 0.89499998
0.1135 0.015900001 0.89399999
0.115 0.015900001 0.89300001
0.1164 0.015900001 0.89200002
0.1178 0.015799999 0.89099997
0.1193 0.015799999 0.89099997
0.1209 0.015799999 0.89099997
0.1227 0.015900001 0.89300001
0.1245 0.015900001 0.89499998
0.1265 0.016000001 0.898
0.1283 0.016000001 0.89999998
0.12989999 0.016000001 0.89999998
0.13150001 0.016000001 0.89999998
0.1327 0.016000001 0.898
0.13429999 0.016000001 0.898
0.13600001 0.016000001 0.89899999
0.1375 0.016000001 0.89899999
0.1389 0.016000001 0.898
0.1407 0.016000001 0.89899999
0.1424 0.016000001 0.89999998
0.14390001 0.016000001 0.89999998
0.1452 0.016000001 0.898
0.14659999 0.015900001 0.89700001
0.148 0.015900001 0.89600003
0.1495 0.015900001 0.89600003
0.15090001 0.015900001 0.89499998
0.1524 0.015900001 0.89499998
0.154 0.015900001 0.89499998
0.15549999 0.015900001 0.89499998
0.1567 0.015900001 0.89300001
0.1583 0.015900001 0.89300001
0.15979999 0.015900001 0.89300001
0.1629 0.015900001 0.89300001
0.1666 0.015900001 0.89600003
0.1689 0.016000001 0.89999998
0.1708 0.016000001 0.90200001
0.1726 0.016100001 0.903
0.1745 0.016100001 0.90499997
0.185 0.015900001 0.89499998
0.1851 0.015799999 0.88800001
0.1869 0.015799999 0.889
0.1884 0.015799999 0.889
-0.39480001 0.017100001 0.87699997
-0.3522 0.017100001 0.87699997
-0.3479 0.017000001 0.87
-0.34560001 0.016899999 0.86799997
-0.3441 0.016899999 0.86799997
-0.34110001 0.016899999 0.86799997
-0.3351 0.016899999 0.86799997
-0.3335 0.016899999 0.86799997
-0.33199999 0.016899999 0.86799997
-0.33090001 0.017000001 0.86900002
-0.3317 0.017200001 0.88300002
-0.33199999 0.0173 0.88800001
-0.3312 0.0174 0.88999999
-0.3308 0.0174 0.89300001
-0.32890001 0.0174 0.89200002
-0.32659999 0.0174 0.88999999
-0.32429999 0.0173 0.88800001
-0.3224 0.0173 0.88700002
-0.32089999 0.0173 0.88700002
-0.3204 0.0174 0.88999999
-0.26269999 0.0173 0.88800001
-0.25479999 0.0173 0.88700002
-0.24070001 0.0173 0.88599998
-0.2388 0.0173 0.88499999
-0.23729999 0.0173 0.88499999
-0.23549999 0.017200001 0.884
-0.23370001 0.017200001 0.88300002
-0.23190001 0.017200001 0.88200003
-0.23010001 0.017200001 0.88099998
-0.2286 0.017200001 0.88099998
-0.2271 0.017200001 0.88099998
-0.2256 0.017200001 0.88099998
-0.22400001 0.017200001 0.88099998
-0.2225 0.017200001 0.88099998
-0.221 0.017200001 0.88099998
-0.21969999 0.017200001 0.88200003
-0.2182 0.017200001 0.88200003
-0.2166 0.017200001 0.88200003
-0.21510001 0.017200001 0.88200003
-0.21359999 0.017200001 0.88200003
-0.2121 0.017200001 0.88200003
-0.2103 0.017200001 0.88099998
-0.2088 0.017200001 0.88099998
-0.20720001 0.017200001 0.88099998
-0.2057 0.017200001 0.88099998
-0.2042 0.017200001 0.88099998
-0.2027 0.017200001 0.88099998
-0.20110001 0.017200001 0.88099998
-0.1761 0.0162 0.82800001
-0.1749 0.0162 0.829
-0.1732 0.0162 0.82800001
-0.1718 0.0162 0.82800001
-0.17020001 0.016100001 0.82700002
-0.16869999 0.016100001 0.82700002
-0.1673 0.016100001 0.82700002
-0.1657 0.016100001 0.82599998
-0.16419999 0.016100001 0.82599998
-0.1628 0.016100001 0.82599998
-0.16140001 0.016100001 0.82599998
-0.15970001 0.016100001 0.82499999
-0.1583 0.016100001 0.82499999
-0.1569 0.016100001 0.82499999
-0.15549999 0.016100001 0.82499999
-0.1542 0.016100001 0.82599998
-0.153 0.016100001 0.82700002
-0.1515 0.016100001 0.82700002
-0.15009999 0.016100001 0.82700002
-0.1488 0.0162 0.82800001
-0.14740001 0.0162 0.82800001
-0.14579999 0.016100001 0.82700002
-0.1444 0.016100001 0.82700002
-0.1429 0.016100001 0.82700002
-0.1417 0.0162 0.82800001
-0.1402 0.0162 0.82800001
-0.1388 0.0162 0.82800001
-0.1374 0.0162 0.82800001
-0.13609999 0.0162 0.829
-0.1345 0.0162 0.82800001
-0.1329 0.016100001 0.82700002
-0.1313 0.016100001 0.82599998
-0.12970001 0.016100001 0.82499999
-0.1283 0.016100001 0.82499999
-0.1267 0.016100001 0.824
-0.12530001 0.016100001 0.824
-0.1238 0.016100001 0.824
-0.1226 0.016100001 0.82499999
-0.1213 0.016100001 0.82599998
-0.12 0.016100001 0.82700002
-0.1184 0.016100001 0.82599998
-0.1168 0.016100001 0.82499999
-0.1153 0.016100001 0.824
-0.1137 0.016100001 0.82300001
-0.1123 0.016100001 0.82300001
-0.1109 0.016100001 0.82300001
-0.1094 0.016100001 0.82300001
-0.1081 0.016100001 0.824
-0.1068 0.016100001 0.82499999
-0.1055 0.016100001 0.82599998
-0.1042 0.016100001 0.82700002
-0.1016 0.0162 0.829
-0.1002 0.0162 0.829
-0.098899998 0.0162 0.82999998
-0.097499996 0.0162 0.83099997
-0.096100003 0.0162 0.83099997
-0.094700001 0.0162 0.83099997
-0.093199998 0.0162 0.83099997
-0.091700003 0.0162 0.82999998
-0.0902 0.0162 0.82999998
-0.088799998 0.0162 0.82999998
-0.087300003 0.0162 0.82999998
-0.085900001 0.0162 0.82999998
-0.0845 0.0162 0.82999998
-0.082999997 0.0162 0.82999998
-0.081600003 0.0162 0.82999998
-0.078599997 0.0162 0.829
-0.077 0.016100001 0.82700002
-0.075499997 0.016100001 0.82599998
-0.074100003 0.016100001 0.82700002
-0.072999999 0.0162 0.82999998
-0.071599998 0.0162 0.83099997
-0.070299998 0.0162 0.83200002
-0.068899997 0.0163 0.833
-0.067500003 0.0163 0.833
-0.066 0.0163 0.833
-0.064599998 0.0163 0.833
-0.063000001 0.0162 0.83200002
-0.0616 0.0162 0.83200002
-0.060199998 0.0162 0.83200002
-0.058600001 0.0162 0.83099997
-0.0572 0.0162 0.83099997
-0.0557 0.0162 0.82999998
-0.054299999 0.0162 0.82999998
-0.0528 0.0162 0.829
-0.051399998 0.0162 0.82999998
-0.049899999 0.0162 0.829
-0.048500001 0.0162 0.82999998
-0.0471 0.0162 0.83099997
-0.037 0.0162 0.83099997
-0.035599999 0.0162 0.83099997
-0.034200002 0.0162 0.83099997
-0.032699998 0.0162 0.83099997
-0.031300001 0.0162 0.83200002
-0.029899999 0.0163 0.833
-0.0285 0.0163 0.833
-0.027000001 0.0162 0.83200002
-0.025599999 0.0162 0.83200002
-0.016899999 0.0163 0.833
-0.0155 0.0163 0.833
-0.0141 0.0163 0.83399999
-0.0126 0.0163 0.83399999
-0.0112 0.0163 0.83499998
-0.0073000002 0.0174 0.89300001
-0.0057999999 0.0174 0.89200002
-0.0041999999 0.0174 0.89300001
-0.0027000001 0.0174 0.89300001
-0.0011 0.0174 0.89300001
0.00039999999 0.0174 0.89399999
0.0020000001 0.0174 0.89300001
0.0035000001 0.0174 0.89399999
0.0051000002 0.0174 0.89399999
0.0066 0.0174 0.89300001
0.0082 0.0174 0.89300001
0.0097000003 0.0174 0.89300001
0.0113 0.0174 0.89300001
0.0128 0.0174 0.89300001
0.0144 0.0175 0.89499998
0.016000001 0.0175 0.89600003
0.0175 0.0175 0.89600003
0.019099999 0.0175 0.89600003
0.0206 0.0175 0.89499998
0.0221 0.0174 0.89399999
0.023600001 0.0174 0.89300001
0.0252 0.0174 0.89399999
0.026799999 0.0174 0.89399999
0.0283 0.0174 0.89399999
0.029899999 0.0174 0.89399999
0.031500001 0.0175 0.89499998
0.033 0.0175 0.89499998
0.034600001 0.0175 0.89700001
0.036200002 0.0175 0.898
0.037900001 0.0176 0.89999998
0.039500002 0.0176 0.90200001
0.041099999 0.0176 0.903
0.0427 0.0176 0.90399998
0.044300001 0.0176 0.903
0.0458 0.0176 0.90200001
0.0473 0.0176 0.90100002
0.048700001 0.0175 0.898
0.050099999 0.0175 0.89499998
0.051399998 0.0174 0.89099997
0.052900001 0.0174 0.88999999
0.054400001 0.0173 0.889
0.0559 0.0173 0.889
0.057399999 0.0173 0.889
0.059099998 0.0174 0.89099997
0.060899999 0.0175 0.89499998
0.062700003 0.0175 0.898
0.064400002 0.0176 0.89999998
0.066 0.0176 0.90100002
0.067599997 0.0176 0.90100002
0.069200002 0.0176 0.90200001
0.070699997 0.0176 0.90100002
0.0722 0.0176 0.89999998
0.073299997 0.0175 0.89499998
0.074600004 0.0174 0.89099997
0.076099999 0.0174 0.89099997
0.077600002 0.0174 0.89099997
0.0792 0.0174 0.89099997
0.080799997 0.0174 0.89200002
0.082500003 0.0174 0.89399999
0.084299996 0.0175 0.89600003
0.086000003 0.0175 0.898
0.0876 0.0175 0.898
0.089000002 0.0175 0.89700001
0.090499997 0.0175 0.89600003
0.092100002 0.0175 0.89600003
0.093500003 0.0175 0.89499998
0.094899997 0.0174 0.89399999
0.096600004 0.0175 0.89499998
0.098300003 0.0175 0.89600003
0.099799998 0.0175 0.89600003
0.1014 0.0175 0.89600003
0.1028 0.0175 0.89499998
0.1044 0.0175 0.89499998
0.1059 0.0175 0.89499998
0.1073 0.0174 0.89399999
0.1088 0.0174 0.89300001
0.1103 0.0174 0.89300001
0.1119 0.0174 0.89300001
0.1134 0.0174 0.89300001
0.115 0.0174 0.89300001
0.1165 0.0174 0.89300001
0.1181 0.0174 0.89300001
0.1197 0.0174 0.89399999
0.1216 0.0175 0.89600003
0.1235 0.0175 0.89899999
0.1252 0.0176 0.89999998
0.1269 0.0176 0.90100002
0.13 0.0176 0.90100002
0.13160001 0.0176 0.90100002
0.1327 0.0175 0.898
0.13429999 0.0175 0.898
0.1358 0.0175 0.898
0.1374 0.0175 0.898
0.1389 0.0175 0.898
0.14049999 0.0175 0.898
0.14210001 0.0175 0.898
0.1436 0.0175 0.898
0.1452 0.0175 0.898
0.1464 0.0175 0.89600003
0.1478 0.0175 0.89499998
0.14929999 0.0175 0.89499998
0.15090001 0.0175 0.89499998
0.15260001 0.0175 0.89600003
0.1542 0.0175 0.89600003
0.1557 0.0175 0.89600003
0.1569 0.0174 0.89399999
0.1585 0.0174 0.89399999
0.16140001 0.0174 0.89300001
0.1629 0.0174 0.89300001
0.1647 0.0174 0.89399999
0.1666 0.0175 0.89600003
0.1689 0.0176 0.89999998
0.1706 0.0176 0.90100002
0.1724 0.0176 0.90200001
0.1742 0.0176 0.903
0.1759 0.0176 0.90399998
0.1831 0.0176 0.90100002
0.185 0.0175 0.89499998
0.1855 0.0174 0.88999999
0.18709999 0.0174 0.88999999
0.1884 0.0173 0.889
-0.4224 0.0188 0.884
-0.3987 0.0187 0.87900001
-0.39669999 0.0187 0.87800002
-0.39520001 0.0187 0.87800002
-0.3928 0.0186 0.87599999
-0.3522 0.0186 0.87699997
-0.3441 0.0184 0.86799997
-0.34110001 0.0184 0.86799997
-0.34 0.0185 0.86900002
-0.33660001 0.0184 0.86799997
-0.33199999 0.0184 0.86799997
-0.33090001 0.0185 0.86900002
-0.32980001 0.0186 0.87400001
-0.33090001 0.0187 0.88099998
-0.33090001 0.0188 0.88499999
-0.33050001 0.0189 0.88800001
-0.32969999 0.0189 0.88999999
-0.3258 0.0189 0.88800001
-0.32390001 0.0188 0.88700002
-0.322 0.0188 0.88599998
-0.32049999 0.0188 0.88599998
-0.2394 0.0188 0.88700002
-0.2376 0.0188 0.88599998
-0.23549999 0.0188 0.884
-0.23370001 0.0188 0.88300002
-0.23190001 0.0187 0.88200003
-0.2304 0.0187 0.88200003
-0.2271 0.0187 0.88099998
-0.2253 0.0187 0.88
-0.22400001 0.0187 0.88099998
-0.2225 0.0187 0.88099998
-0.221 0.0187 0.88099998
-0.2194 0.0187 0.88099998
-0.2182 0.0187 0.88200003
-0.2166 0.0187 0.88200003
-0.21510001 0.0187 0.88200003
-0.21359999 0.0187 0.88200003
-0.2121 0.0187 0.88200003
-0.2103 0.0187 0.88099998
-0.2088 0.0187 0.88099998
-0.20720001 0.0187 0.88099998
-0.2057 0.0187 0.88099998
-0.2042 0.0187 0.88099998
-0.2024 0.0187 0.88
-0.1805 0.0177 0.83499998
-0.17839999 0.0177 0.83200002
-0.1767 0.0177 0.83099997
-0.1751 0.0176 0.82999998
-0.1737 0.0176 0.82999998
-0.17219999 0.0176 0.82999998
-0.1706 0.0176 0.829
-0.1689 0.0176 0.82800001
-0.1673 0.0176 0.82700002
-0.1657 0.0175 0.82599998
-0.164 0.0175 0.82499999
-0.1626 0.0175 0.82499999
-0.1612 0.0175 0.82499999
-0.1596 0.0175 0.824
-0.15809999 0.0175 0.824
-0.1567 0.0175 0.824
-0.15530001 0.0175 0.824
-0.1538 0.0175 0.824
-0.15260001 0.0175 0.82499999
-0.1512 0.0175 0.82499999
-0.1496 0.0175 0.824
-0.14830001 0.0175 0.82499999
-0.1471 0.0175 0.82599998
-0.1454 0.0175 0.82499999
-0.14399999 0.0175 0.82499999
-0.1428 0.0175 0.82599998
-0.1415 0.0176 0.82700002
-0.1401 0.0176 0.82700002
-0.13860001 0.0176 0.82700002
-0.13699999 0.0175 0.82599998
-0.1358 0.0176 0.82700002
-0.13420001 0.0175 0.82599998
-0.13259999 0.0175 0.82499999
-0.131 0.0175 0.824
-0.1294 0.0175 0.82300001
-0.1277 0.0174 0.82099998
-0.12620001 0.0174 0.82099998
-0.1247 0.0174 0.81999999
-0.1232 0.0174 0.81999999
-0.122 0.0174 0.82099998
-0.1207 0.0175 0.82200003
-0.1197 0.0175 0.82499999
-0.1183 0.0175 0.82499999
-0.1167 0.0175 0.824
-0.1153 0.0175 0.824
-0.1137 0.0175 0.82300001
-0.1123 0.0175 0.82300001
-0.1109 0.0175 0.82300001
-0.1096 0.0175 0.824
-0.1083 0.0175 0.82499999
-0.1068 0.0175 0.82499999
-0.1055 0.0175 0.82599998
-0.1042 0.0176 0.82700002
-0.1029 0.0176 0.82800001
-0.1016 0.0176 0.829
-0.1002 0.0176 0.829
-0.098899998 0.0176 0.82999998
-0.097499996 0.0177 0.83099997
-0.096100003 0.0177 0.83099997
-0.094700001 0.0177 0.83099997
-0.093199998 0.0177 0.83099997
-0.091700003 0.0176 0.82999998
-0.0902 0.0176 0.82999998
-0.088699996 0.0176 0.829
-0.087200001 0.0176 0.829
-0.0858 0.0176 0.829
-0.084399998 0.0176 0.829
-0.082900003 0.0176 0.829
-0.081500001 0.0176 0.829
-0.0801 0.0176 0.829
-0.078400001 0.0176 0.82700002
-0.076899998 0.0175 0.82599998
-0.075499997 0.0175 0.82599998
-0.074100003 0.0176 0.82700002
-0.072999999 0.0176 0.82999998
-0.070299998 0.0177 0.833
-0.068899997 0.0177 0.833
-0.067500003 0.0177 0.833
-0.066 0.0177 0.833
-0.064599998 0.0177 0.833
-0.063000001 0.0177 0.83200002
-0.0616 0.0177 0.83200002
-0.0601 0.0177 0.83099997
-0.058600001 0.0177 0.83099997
-0.0572 0.0177 0.83099997
-0.055799998 0.0177 0.83099997
-0.054299999 0.0176 0.82999998
-0.0528 0.0176 0.82999998
-0.051399998 0.0176 0.82999998
-0.049899999 0.0176 0.82999998
-0.048500001 0.0176 0.82999998
-0.0385 0.0177 0.83099997
-0.037 0.0177 0.83099997
-0.035599999 0.0176 0.82999998
-0.0341 0.0176 0.82999998
-0.032699998 0.0177 0.83099997
-0.031300001 0.0177 0.83099997
-0.029899999 0.0177 0.83200002
-0.0284 0.0177 0.83200002
-0.027000001 0.0177 0.83200002
-0.025599999 0.0177 0.833
-0.016899999 0.0177 0.833
-0.0155 0.0177 0.83399999
-0.0141 0.0177 0.83399999
-0.0126 0.0177 0.83399999
-0.0073000002 0.0189 0.89099997
-0.0057000001 0.0189 0.88999999
-0.0041999999 0.0189 0.89099997
-0.0027000001 0.0189 0.89099997
-0.0011 0.018999999 0.89300001
0.00039999999 0.018999999 0.89300001
0.0020000001 0.0189 0.89200002
0.0035000001 0.018999999 0.89300001
0.0051000002 0.018999999 0.89300001
0.0066 0.018999999 0.89300001
0.0081000002 0.0189 0.89099997
0.0097000003 0.0189 0.89099997
0.0113 0.0189 0.89200002
0.0128 0.018999999 0.89300001
0.0144 0.018999999 0.89499998
0.016000001 0.018999999 0.89600003
0.0176 0.019099999 0.898
0.019099999 0.019099999 0.898
0.0206 0.019099999 0.89700001
0.0222 0.019099999 0.89700001
0.023800001 0.019099999 0.89700001
0.0253 0.018999999 0.89600003
0.026799999 0.018999999 0.89600003
0.0284 0.018999999 0.89600003
0.029899999 0.018999999 0.89600003
0.031500001 0.018999999 0.89600003
0.033 0.018999999 0.89600003
0.034600001 0.019099999 0.89700001
0.036200002 0.019099999 0.898
0.037799999 0.019099999 0.89899999
0.039500002 0.019099999 0.90100002
0.041099999 0.019200001 0.90200001
0.0427 0.019200001 0.903
0.044199999 0.019099999 0.90100002
0.045699999 0.019099999 0.89999998
0.0471 0.019099999 0.898
0.048599999 0.018999999 0.89600003
0.049899999 0.0189 0.89200002
0.0513 0.0189 0.88999999
0.0528 0.0189 0.889
0.054299999 0.0189 0.88800001
0.055799998 0.0189 0.88800001
0.057399999 0.0189 0.889
0.059099998 0.0189 0.89099997
0.060899999 0.018999999 0.89399999
0.062700003 0.019099999 0.898
0.064400002 0.019099999 0.89999998
0.065899998 0.019099999 0.89999998
0.067599997 0.019099999 0.90100002
0.0691 0.019099999 0.90100002
0.070699997 0.019099999 0.90100002
0.072300002 0.019099999 0.90100002
0.073600002 0.019099999 0.898
0.0748 0.018999999 0.89399999
0.076300003 0.018999999 0.89300001
0.077699997 0.0189 0.89200002
0.079400003 0.018999999 0.89300001
0.080899999 0.018999999 0.89300001
0.082500003 0.018999999 0.89399999
0.084299996 0.018999999 0.89600003
0.085900001 0.019099999 0.89700001
0.0876 0.019099999 0.898
0.0889 0.018999999 0.89600003
0.090400003 0.018999999 0.89499998
0.091899998 0.018999999 0.89499998
0.093400002 0.018999999 0.89399999
0.094800003 0.018999999 0.89300001
0.096600004 0.018999999 0.89499998
0.098300003 0.018999999 0.89600003
0.099799998 0.018999999 0.89600003
0.1014 0.018999999 0.89600003
0.1028 0.018999999 0.89499998
0.1044 0.018999999 0.89499998
0.1058 0.018999999 0.89399999
0.1072 0.018999999 0.89300001
0.1086 0.0189 0.89200002
0.1102 0.0189 0.89200002
0.1119 0.018999999 0.89300001
0.1134 0.018999999 0.89300001
0.1151 0.018999999 0.89399999
0.1168 0.018999999 0.89499998
0.1184 0.018999999 0.89600003
0.1201 0.019099999 0.89700001
0.1238 0.019099999 0.90100002
0.1285 0.019099999 0.90100002
0.13 0.019099999 0.90100002
0.13150001 0.019099999 0.89999998
0.1327 0.019099999 0.898
0.134 0.018999999 0.89600003
0.1355 0.018999999 0.89600003
0.1371 0.018999999 0.89600003
0.13860001 0.018999999 0.89600003
0.1402 0.018999999 0.89600003
0.1417 0.018999999 0.89600003
0.1433 0.018999999 0.89600003
0.14480001 0.018999999 0.89600003
0.1462 0.018999999 0.89499998
0.1478 0.018999999 0.89499998
0.14920001 0.018999999 0.89399999
0.15090001 0.018999999 0.89499998
0.15260001 0.018999999 0.89600003
0.1542 0.018999999 0.89600003
0.15549999 0.018999999 0.89499998
0.1569 0.018999999 0.89399999
0.1583 0.018999999 0.89300001
0.15979999 0.018999999 0.89300001
0.16140001 0.018999999 0.89300001
0.1629 0.018999999 0.89300001
0.1645 0.018999999 0.89300001
0.1666 0.018999999 0.89600003
0.1689 0.019099999 0.89999998
0.1705 0.019099999 0.89999998
0.17219999 0.019099999 0.90100002
0.17380001 0.019099999 0.90100002
0.17550001 0.019200001 0.90200001
0.17730001 0.019200001 0.903
0.1788 0.019200001 0.903
0.1831 0.019099999 0.90100002
0.18520001 0.018999999 0.89600003
0.1855 0.0189 0.88999999
0.1864 0.0188 0.88700002
-0.4007 0.020199999 0.88
-0.3996 0.020199999 0.88099998
-0.39719999 0.020199999 0.87900001
-0.39520001 0.020199999 0.87800002
-0.3928 0.020099999 0.87599999
-0.34490001 0.02 0.87
-0.3434 0.02 0.87
-0.34 0.02 0.86900002
-0.33849999 0.02 0.86900002
-0.33239999 0.02 0.86900002
-0.3321 0.02 0.87199998
-0.3317 0.020099999 0.875
-0.3317 0.020199999 0.87900001
-0.33129999 0.020300001 0.88200003
-0.33090001 0.020300001 0.88499999
-0.3301 0.020400001 0.88700002
-0.32890001 0.020400001 0.88800001
-0.32390001 0.020400001 0.88700002
-0.32280001 0.020400001 0.88800001
-0.32120001 0.020400001 0.88800001
-0.2379 0.020400001 0.88700002
-0.2358 0.020300001 0.88499999
-0.23370001 0.020300001 0.88300002
-0.2317 0.020199999 0.88099998
-0.23010001 0.020199999 0.88099998
-0.22830001 0.020199999 0.88
-0.22679999 0.020199999 0.88
-0.2253 0.020199999 0.88
-0.2238 0.020199999 0.88
-0.22220001 0.020199999 0.88
-0.221 0.020199999 0.88099998
-0.21969999 0.020300001 0.88200003
-0.2182 0.020300001 0.88200003
-0.2166 0.020300001 0.88200003
-0.2154 0.020300001 0.88300002
-0.2138 0.020300001 0.88300002
-0.2123 0.020300001 0.88300002
-0.2105 0.020300001 0.88200003
-0.20900001 0.020300001 0.88200003
-0.20720001 0.020199999 0.88099998
-0.2057 0.020199999 0.88099998
-0.2042 0.020199999 0.88099998
-0.2027 0.020199999 0.88099998
-0.18009999 0.019099999 0.833
-0.17839999 0.019099999 0.83200002
-0.1767 0.019099999 0.83099997
-0.17550001 0.019099999 0.83200002
-0.17389999 0.019099999 0.83099997
-0.1724 0.019099999 0.83099997
-0.1708 0.019099999 0.82999998
-0.1691 0.018999999 0.829
-0.1673 0.018999999 0.82700002
-0.1657 0.018999999 0.82599998
-0.164 0.018999999 0.82499999
-0.16240001 0.0189 0.824
-0.1608 0.0189 0.82300001
-0.1592 0.0189 0.82200003
-0.1577 0.0189 0.82200003
-0.15629999 0.0189 0.82200003
-0.1547 0.0189 0.82099998
-0.15350001 0.0189 0.82200003
-0.1522 0.0189 0.82300001
-0.1508 0.0189 0.82300001
-0.14920001 0.0189 0.82200003
-0.1478 0.0189 0.82200003
-0.14650001 0.0189 0.82300001
-0.1453 0.0189 0.824
-0.14380001 0.0189 0.824
-0.1428 0.018999999 0.82599998
-0.14129999 0.018999999 0.82599998
-0.1399 0.018999999 0.82599998
-0.13850001 0.018999999 0.82599998
-0.13689999 0.018999999 0.82499999
-0.1356 0.018999999 0.82599998
-0.134 0.018999999 0.82499999
-0.1323 0.0189 0.82300001
-0.13070001 0.0189 0.82200003
-0.12909999 0.0189 0.82099998
-0.1277 0.0189 0.82099998
-0.1261 0.0188 0.81999999
-0.1245 0.0188 0.81900001
-0.1229 0.0188 0.81800002
-0.1217 0.0188 0.81900001
-0.1204 0.0188 0.81999999
-0.1191 0.0189 0.82099998
-0.118 0.0189 0.82300001
-0.1166 0.0189 0.82300001
-0.1153 0.0189 0.824
-0.1139 0.0189 0.824
-0.1124 0.0189 0.824
-0.111 0.0189 0.824
-0.1097 0.018999999 0.82499999
-0.1084 0.018999999 0.82599998
-0.107 0.018999999 0.82599998
-0.1057 0.018999999 0.82700002
-0.1042 0.018999999 0.82700002
-0.1029 0.018999999 0.82800001
-0.1016 0.018999999 0.829
-0.1002 0.018999999 0.829
-0.098899998 0.019099999 0.82999998
-0.097499996 0.019099999 0.83099997
-0.096100003 0.019099999 0.83099997
-0.094700001 0.019099999 0.83099997
-0.093199998 0.019099999 0.83099997
-0.091799997 0.019099999 0.83099997
-0.0902 0.019099999 0.82999998
-0.088799998 0.019099999 0.82999998
-0.087300003 0.019099999 0.82999998
-0.0858 0.018999999 0.829
-0.084399998 0.018999999 0.829
-0.082900003 0.018999999 0.829
-0.081500001 0.018999999 0.829
-0.0801 0.018999999 0.829
-0.078500003 0.018999999 0.82800001
-0.077 0.018999999 0.82700002
-0.0757 0.018999999 0.829
-0.074299999 0.018999999 0.829
-0.071800001 0.019099999 0.833
-0.0704 0.019200001 0.83399999
-0.068999998 0.019200001 0.83399999
-0.067500003 0.019099999 0.833
-0.065899998 0.019099999 0.83200002
-0.064499997 0.019099999 0.83200002
-0.063000001 0.019099999 0.83099997
-0.061500002 0.019099999 0.83099997
-0.0601 0.019099999 0.83099997
-0.058600001 0.019099999 0.82999998
-0.057100002 0.019099999 0.82999998
-0.0557 0.019099999 0.82999998
-0.054200001 0.018999999 0.829
-0.0528 0.018999999 0.829
-0.051399998 0.019099999 0.82999998
-0.049899999 0.019099999 0.82999998
-0.048599999 0.019099999 0.83099997
-0.047200002 0.019099999 0.83200002
-0.0429 0.019099999 0.833
-0.035599999 0.019099999 0.82999998
-0.034200002 0.019099999 0.83099997
-0.032699998 0.019099999 0.83099997
-0.031300001 0.019099999 0.83099997
-0.029899999 0.019099999 0.83200002
-0.0284 0.019099999 0.83200002
-0.027000001 0.019099999 0.833
-0.025599999 0.019099999 0.833
-0.018300001 0.019099999 0.83200002
-0.016899999 0.019099999 0.833
-0.0155 0.019099999 0.833
-0.014 0.019099999 0.833
-0.0073000002 0.020400001 0.88999999
-0.0057000001 0.020400001 0.88999999
-0.0041999999 0.020500001 0.89099997
-0.0027000001 0.020500001 0.89099997
-0.0011 0.020500001 0.89099997
0.00039999999 0.020500001 0.89200002
0.0020000001 0.020500001 0.89099997
0.0035000001 0.020500001 0.89300001
0.0051000002 0.020500001 0.89300001
0.0066 0.020500001 0.89099997
0.0081000002 0.020400001 0.88999999
0.0097000003 0.020400001 0.88999999
0.0112 0.020500001 0.89099997
0.0128 0.020500001 0.89300001
0.0144 0.0206 0.89499998
0.016000001 0.0206 0.89600003
0.0176 0.0206 0.898
0.019099999 0.0206 0.898
0.0207 0.0206 0.898
0.0222 0.0206 0.898
0.023800001 0.0206 0.898
0.0253 0.0206 0.898
0.026900001 0.0206 0.898
0.0284 0.0206 0.89700001
0.029899999 0.0206 0.89600003
0.031500001 0.0206 0.89700001
0.033100002 0.0206 0.898
0.034699999 0.0206 0.898
0.036200002 0.0206 0.898
0.039500002 0.0207 0.90100002
0.041000001 0.0207 0.90100002
0.042599998 0.0207 0.90200001
0.044199999 0.0207 0.90100002
0.045699999 0.0207 0.89999998
0.0471 0.0206 0.898
0.048500001 0.0206 0.89499998
0.049899999 0.020500001 0.89200002
0.0513 0.020400001 0.88999999
0.0528 0.020400001 0.889
0.054299999 0.020400001 0.88800001
0.0559 0.020400001 0.889
0.057500001 0.020400001 0.88999999
0.059099998 0.020500001 0.89099997
0.060800001 0.020500001 0.89300001
0.0625 0.0206 0.89600003
0.064300001 0.0207 0.89899999
0.065899998 0.0207 0.89999998
0.067599997 0.0207 0.90100002
0.0691 0.0207 0.90100002
0.070699997 0.0207 0.90100002
0.072300002 0.0207 0.90100002
0.073600002 0.0206 0.898
0.075000003 0.0206 0.89600003
0.076399997 0.0206 0.89499998
0.078000002 0.0206 0.89499998
0.079599999 0.0206 0.89600003
0.081200004 0.0206 0.89600003
0.082699999 0.0206 0.89600003
0.0845 0.0206 0.898
0.086000003 0.0206 0.898
0.0876 0.0206 0.898
0.089000002 0.0206 0.89700001
0.090400003 0.0206 0.89499998
0.091899998 0.0206 0.89499998
0.093400002 0.020500001 0.89399999
0.094800003 0.020500001 0.89300001
0.096600004 0.0206 0.89499998
0.098300003 0.0206 0.89600003
0.0999 0.0206 0.89700001
0.1015 0.0206 0.89700001
0.1029 0.0206 0.89600003
0.1045 0.0206 0.89600003
0.1059 0.0206 0.89499998
0.1072 0.020500001 0.89300001
0.1088 0.020500001 0.89300001
0.1102 0.020500001 0.89200002
0.1119 0.020500001 0.89300001
0.1134 0.020500001 0.89300001
0.1151 0.020500001 0.89399999
0.1168 0.0206 0.89499998
0.1187 0.0206 0.898
0.12540001 0.0207 0.90100002
0.1283 0.0207 0.89999998
0.12980001 0.0207 0.89899999
0.1312 0.0206 0.898
0.1321 0.020500001 0.89399999
0.13349999 0.020500001 0.89300001
0.13510001 0.020500001 0.89300001
0.13689999 0.0206 0.89499998
0.13850001 0.0206 0.89499998
0.1399 0.020500001 0.89399999
0.14139999 0.020500001 0.89399999
0.1433 0.0206 0.89600003
0.14480001 0.0206 0.89600003
0.1464 0.0206 0.89600003
0.148 0.0206 0.89600003
0.1495 0.0206 0.89600003
0.1512 0.0206 0.89700001
0.153 0.0206 0.898
0.15449999 0.0206 0.898
0.1557 0.0206 0.89600003
0.15710001 0.0206 0.89499998
0.1586 0.0206 0.89499998
0.1602 0.0206 0.89499998
