# .PCD v0.7 - Point Cloud Data file format
VERSION 0.7
FIELDS x y z
SIZE 4 4 4
TYPE F F F
COUNT 1 1 1
WIDTH 1511
HEIGHT 1
VIEWPOINT 0 0 0 1 0 0 0
POINTS 1511
DATA ascii
0.044100001 0.0528 0.84100002
0.045600001 0.0528 0.84100002
0.047200002 0.052999999 0.84299999
0.048700001 0.053100001 0.84500003
0.0504 0.053300001 0.84799999
0.051899999 0.053399999 0.84899998
0.053599998 0.0535 0.852
-0.24250001 0.056600001 0.87599999
-0.13349999 0.056699999 0.87800002
-0.123 0.0548 0.84799999
-0.1211 0.0546 0.84500003
-0.1191 0.054299999 0.84100002
-0.1171 0.054000001 0.83700001
-0.1152 0.0539 0.83399999
-0.1137 0.053800002 0.833
-0.1121 0.0537 0.83200002
-0.1106 0.0537 0.83200002
-0.1092 0.0537 0.83200002
-0.1079 0.053800002 0.833
-0.1066 0.0539 0.83399999
-0.1052 0.0539 0.83499998
-0.1042 0.054099999 0.838
-0.1028 0.054200001 0.83899999
-0.1015 0.054200001 0.83999997
-0.1002 0.054299999 0.84100002
-0.098700002 0.054299999 0.84100002
-0.097099997 0.054200001 0.83999997
-0.0955 0.054099999 0.838
-0.093800001 0.054000001 0.83600003
-0.092200004 0.0539 0.83499998
-0.090800002 0.0539 0.83499998
-0.089199997 0.0539 0.83399999
-0.087700002 0.053800002 0.833
-0.086199999 0.053800002 0.833
-0.084799998 0.053800002 0.833
-0.083300002 0.053800002 0.833
-0.081799999 0.0537 0.83200002
-0.080300003 0.0537 0.83099997
-0.0788 0.0537 0.83099997
-0.077399999 0.0537 0.83099997
-0.075900003 0.0537 0.83099997
-0.0744 0.053599998 0.82999998
-0.072999999 0.053599998 0.82999998
-0.071500003 0.053599998 0.82999998
-0.070200004 0.0537 0.83099997
-0.068800002 0.0537 0.83200002
-0.067400001 0.0537 0.83200002
-0.066 0.053800002 0.833
-0.064599998 0.0539 0.83399999
-0.063199997 0.0539 0.83399999
-0.061799999 0.0539 0.83399999
-0.058899999 0.0539 0.83399999
-0.057300001 0.053800002 0.833
-0.0559 0.053800002 0.833
-0.054400001 0.0537 0.83200002
-0.052999999 0.0537 0.83200002
-0.0515 0.0537 0.83200002
-0.050099999 0.0537 0.83200002
-0.048599999 0.0537 0.83200002
-0.047200002 0.053800002 0.833
-0.045899998 0.0539 0.83399999
-0.044500001 0.054000001 0.83600003
-0.043099999 0.054000001 0.83700001
-0.041700002 0.054000001 0.83700001
-0.040199999 0.054000001 0.83700001
-0.038699999 0.054000001 0.83600003
-0.037300002 0.054000001 0.83600003
-0.035799999 0.0539 0.83499998
-0.034299999 0.0539 0.83499998
-0.032900002 0.054000001 0.83600003
-0.031500001 0.054000001 0.83700001
-0.030099999 0.054000001 0.83700001
-0.0286 0.054000001 0.83700001
-0.027100001 0.054000001 0.83600003
-0.025699999 0.054000001 0.83700001
-0.0243 0.054200001 0.83899999
-0.0229 0.054299999 0.84100002
-0.021500001 0.054400001 0.84299999
-0.02 0.054400001 0.84200001
-0.0186 0.054400001 0.84299999
-0.017100001 0.054499999 0.84399998
-0.015699999 0.054499999 0.84399998
-0.0142 0.054400001 0.84299999
-0.0127 0.054299999 0.84100002
-0.0112 0.054099999 0.838
-0.0098000001 0.054000001 0.83700001
-0.0082999999 0.0539 0.83499998
-0.0068000001 0.0539 0.83499998
-0.0054000001 0.0539 0.83499998
-0.0038999999 0.054000001 0.83600003
-0.0024999999 0.054000001 0.83700001
-0.0011 0.054200001 0.83899999
0.00039999999 0.054200001 0.83899999
0.0019 0.054200001 0.83999997
0.0033 0.054099999 0.838
0.0105 0.053800002 0.833
0.0119 0.053800002 0.833
0.0134 0.0539 0.83399999
0.0149 0.0539 0.83399999
0.0163 0.0539 0.83499998
0.0178 0.0539 0.83499998
0.019300001 0.054099999 0.838
0.0208 0.054200001 0.83999997
0.022299999 0.054299999 0.84100002
0.023700001 0.054299999 0.84100002
0.0252 0.054200001 0.83999997
0.0266 0.054200001 0.83999997
0.028000001 0.054200001 0.83899999
0.0294 0.054000001 0.83700001
0.0308 0.054000001 0.83600003
0.032299999 0.054000001 0.83700001
0.033799998 0.054099999 0.838
0.035300002 0.054099999 0.838
0.036800001 0.054200001 0.83899999
0.0383 0.054200001 0.83999997
0.039799999 0.054299999 0.84100002
0.041200001 0.054200001 0.83999997
0.042599998 0.054200001 0.83999997
0.044100001 0.054200001 0.83999997
0.045499999 0.054200001 0.83999997
0.046999998 0.054200001 0.83999997
0.048599999 0.054400001 0.84299999
0.0502 0.0546 0.84500003
0.0517 0.0546 0.84600002
0.053300001 0.0548 0.84799999
-0.24349999 0.057999998 0.87400001
-0.2411 0.057799999 0.87099999
-0.2401 0.0579 0.87300003
-0.2397 0.0581 0.87699997
-0.2388 0.0583 0.87900001
-0.1336 0.0583 0.87900001
-0.1302 0.057399999 0.866
-0.123 0.056200001 0.84799999
-0.121 0.056000002 0.84399998
-0.1188 0.055599999 0.83899999
-0.1168 0.055399999 0.83499998
-0.1151 0.055199999 0.833
-0.1135 0.055199999 0.83200002
-0.1119 0.055100001 0.83099997
-0.1105 0.055100001 0.83099997
-0.1091 0.055100001 0.83099997
-0.1079 0.055199999 0.833
-0.1064 0.055199999 0.833
-0.1051 0.055300001 0.83399999
-0.1039 0.055399999 0.83600003
-0.1027 0.055599999 0.838
-0.1013 0.055599999 0.838
-0.099799998 0.055599999 0.838
-0.098399997 0.055599999 0.838
-0.096799999 0.055500001 0.83700001
-0.095200002 0.055399999 0.83600003
-0.093599997 0.055300001 0.83399999
-0.092 0.055199999 0.833
-0.090599999 0.055199999 0.833
-0.089100003 0.055199999 0.833
-0.0876 0.055199999 0.83200002
-0.086099997 0.055199999 0.83200002
-0.084700003 0.055199999 0.83200002
-0.0832 0.055199999 0.83200002
-0.081799999 0.055199999 0.83200002
-0.080300003 0.055100001 0.83099997
-0.0788 0.055100001 0.83099997
-0.077399999 0.055100001 0.83099997
-0.075900003 0.055100001 0.83099997
-0.0744 0.055 0.82999998
-0.072999999 0.055 0.82999998
-0.071500003 0.055 0.82999998
-0.070200004 0.055100001 0.83099997
-0.068700001 0.055100001 0.83099997
-0.067400001 0.055199999 0.83200002
-0.066 0.055199999 0.833
-0.064599998 0.055300001 0.83399999
-0.063299999 0.055399999 0.83499998
-0.061799999 0.055399999 0.83499998
-0.0603 0.055300001 0.83399999
-0.058899999 0.055300001 0.83399999
-0.057399999 0.055300001 0.83399999
-0.0559 0.055199999 0.833
-0.054400001 0.055199999 0.83200002
-0.052999999 0.055199999 0.83200002
-0.0515 0.055199999 0.83200002
-0.050099999 0.055199999 0.83200002
-0.048599999 0.055199999 0.83200002
-0.047200002 0.055199999 0.83200002
-0.045899998 0.055300001 0.83399999
-0.044500001 0.055399999 0.83499998
-0.043099999 0.055399999 0.83600003
-0.0416 0.055399999 0.83600003
-0.040100001 0.055399999 0.83499998
-0.038699999 0.055399999 0.83600003
-0.037300002 0.055399999 0.83600003
-0.035799999 0.055399999 0.83499998
-0.034400001 0.055399999 0.83600003
-0.032900002 0.055399999 0.83600003
-0.031500001 0.055500001 0.83700001
-0.030099999 0.055500001 0.83700001
-0.0286 0.055500001 0.83700001
-0.027100001 0.055399999 0.83600003
-0.025699999 0.055399999 0.83600003
-0.0243 0.055599999 0.838
-0.0229 0.055599999 0.83899999
-0.021400001 0.055599999 0.83899999
-0.02 0.0557 0.83999997
-0.0185 0.0557 0.83999997
-0.017100001 0.055799998 0.84100002
-0.0156 0.055799998 0.84100002
-0.0142 0.055799998 0.84100002
-0.0127 0.055599999 0.83899999
-0.0112 0.055599999 0.838
-0.0098000001 0.055500001 0.83700001
-0.0082999999 0.055399999 0.83499998
-0.0068000001 0.055399999 0.83499998
-0.0054000001 0.055399999 0.83600003
-0.0038999999 0.055500001 0.83700001
-0.0024999999 0.055599999 0.83899999
-0.0011 0.0557 0.83999997
0.00039999999 0.055799998 0.84100002
0.0076000001 0.055300001 0.83399999
0.0105 0.055300001 0.83399999
0.012 0.055300001 0.83399999
0.0134 0.055300001 0.83399999
0.0149 0.055300001 0.83399999
0.0163 0.055300001 0.83399999
0.0178 0.055399999 0.83499998
0.019300001 0.055599999 0.838
0.0208 0.055599999 0.83899999
0.0222 0.0557 0.83999997
0.023700001 0.055799998 0.84100002
0.0252 0.055799998 0.84100002
0.0266 0.055799998 0.84100002
0.028100001 0.055799998 0.84100002
0.0294 0.055599999 0.838
0.0309 0.055500001 0.83700001
0.032299999 0.055500001 0.83700001
0.033799998 0.055500001 0.83700001
0.0352 0.055500001 0.83700001
0.036699999 0.055500001 0.83700001
0.0381 0.055500001 0.83700001
0.0396 0.055500001 0.83700001
0.041099999 0.055599999 0.838
0.0425 0.055599999 0.838
0.044 0.055599999 0.838
0.045400001 0.055500001 0.83700001
0.0469 0.055599999 0.838
0.0484 0.0557 0.83999997
0.050099999 0.0559 0.84299999
0.0517 0.056000002 0.84500003
0.053199999 0.0561 0.84600002
-0.243 0.059700001 0.87800002
-0.24150001 0.059700001 0.87800002
-0.2403 0.059799999 0.87900001
-0.1336 0.059799999 0.87900001
-0.123 0.057700001 0.84799999
-0.1211 0.057500001 0.84500003
-0.119 0.0572 0.83999997
-0.1168 0.0568 0.83499998
-0.1151 0.056699999 0.833
-0.1134 0.056499999 0.83099997
-0.1119 0.056499999 0.83099997
-0.1105 0.056499999 0.83099997
-0.1092 0.056600001 0.83200002
-0.1079 0.056699999 0.833
-0.1064 0.056699999 0.833
-0.1051 0.056699999 0.83399999
-0.1038 0.0568 0.83499998
-0.1026 0.056899998 0.83700001
-0.1011 0.056899998 0.83700001
-0.099699996 0.056899998 0.83700001
-0.097999997 0.0568 0.83499998
-0.096600004 0.0568 0.83499998
-0.094999999 0.056699999 0.83399999
-0.093400002 0.056699999 0.833
-0.091899998 0.056600001 0.83200002
-0.090400003 0.056600001 0.83200002
-0.0889 0.056499999 0.83099997
-0.087499999 0.056499999 0.83099997
-0.086000003 0.056499999 0.83099997
-0.0845 0.056499999 0.82999998
-0.082999997 0.056499999 0.82999998
-0.081600003 0.056499999 0.82999998
-0.080200002 0.056499999 0.82999998
-0.078699999 0.056499999 0.82999998
-0.077299997 0.056499999 0.82999998
-0.075800002 0.056499999 0.82999998
-0.0744 0.056499999 0.82999998
-0.072999999 0.056499999 0.82999998
-0.071500003 0.056499999 0.82999998
-0.070200004 0.056499999 0.83099997
-0.068700001 0.056499999 0.83099997
-0.067400001 0.056600001 0.83200002
-0.065899998 0.056600001 0.83200002
-0.064599998 0.056699999 0.833
-0.063199997 0.056699999 0.83399999
-0.060199998 0.056699999 0.833
-0.058800001 0.056699999 0.833
-0.057300001 0.056699999 0.833
-0.055799998 0.056600001 0.83200002
-0.054400001 0.056600001 0.83200002
-0.052999999 0.056600001 0.83200002
-0.0515 0.056600001 0.83200002
-0.050099999 0.056600001 0.83200002
-0.048599999 0.056600001 0.83200002
-0.047200002 0.056600001 0.83200002
-0.0458 0.056699999 0.833
-0.044399999 0.056699999 0.83399999
-0.043000001 0.0568 0.83499998
-0.0416 0.0568 0.83499998
-0.040199999 0.056899998 0.83600003
-0.038699999 0.056899998 0.83600003
-0.037300002 0.056899998 0.83600003
-0.035799999 0.0568 0.83499998
-0.034400001 0.056899998 0.83600003
-0.032900002 0.056899998 0.83600003
-0.031500001 0.056899998 0.83700001
-0.030099999 0.056899998 0.83700001
-0.0286 0.056899998 0.83700001
-0.027100001 0.056899998 0.83600003
-0.025699999 0.056899998 0.83700001
-0.0243 0.057 0.838
-0.0229 0.057100002 0.83899999
-0.021400001 0.057100002 0.83899999
-0.02 0.057100002 0.83899999
-0.0185 0.057100002 0.83899999
-0.017100001 0.0572 0.83999997
-0.0156 0.0572 0.83999997
-0.0142 0.0572 0.83999997
-0.0127 0.057100002 0.83899999
-0.0112 0.056899998 0.83700001
-0.0097000003 0.056899998 0.83600003
-0.0082999999 0.056899998 0.83600003
-0.0068000001 0.056899998 0.83600003
-0.0054000001 0.056899998 0.83700001
-0.0040000002 0.057100002 0.83899999
-0.0024999999 0.0572 0.83999997
-0.0011 0.057300001 0.84200001
0.00039999999 0.057399999 0.84299999
0.0019 0.057399999 0.84299999
0.0033 0.0568 0.83499998
0.0076000001 0.056699999 0.83399999
0.0091000004 0.056699999 0.83399999
0.0105 0.0568 0.83499998
0.012 0.0568 0.83499998
0.0134 0.0568 0.83499998
0.0149 0.056699999 0.83399999
0.0163 0.056699999 0.83399999
0.0177 0.056699999 0.83399999
0.019200001 0.0568 0.83499998
0.0207 0.056899998 0.83700001
0.0222 0.057 0.838
0.023700001 0.0572 0.83999997
0.0252 0.057300001 0.84200001
0.026699999 0.057399999 0.84299999
0.028100001 0.057300001 0.84200001
0.0296 0.0572 0.84100002
0.0309 0.057100002 0.83899999
0.032400001 0.057100002 0.83899999
0.033799998 0.057 0.838
0.035300002 0.057 0.838
0.036699999 0.056899998 0.83700001
0.0381 0.056899998 0.83700001
0.0396 0.056899998 0.83700001
0.041000001 0.056899998 0.83700001
0.0425 0.057 0.838
0.044 0.057 0.838
0.045400001 0.057 0.838
0.0469 0.057100002 0.83899999
0.048500001 0.0572 0.84100002
0.050099999 0.057399999 0.84399998
0.0517 0.057500001 0.84500003
0.053100001 0.057500001 0.84500003
-0.13079999 0.060699999 0.87
-0.1279 0.0601 0.861
-0.1232 0.0592 0.84899998
-0.1213 0.059 0.84600002
-0.1191 0.058699999 0.84100002
-0.1168 0.0583 0.83499998
-0.1151 0.0581 0.833
-0.1135 0.057999998 0.83200002
-0.1119 0.057999998 0.83099997
-0.1105 0.057999998 0.83099997
-0.1092 0.057999998 0.83200002
-0.1079 0.0581 0.833
-0.1066 0.058200002 0.83399999
-0.1051 0.058200002 0.83399999
-0.1037 0.058200002 0.83399999
-0.1023 0.0583 0.83499998
-0.1011 0.058400001 0.83700001
-0.099600002 0.0583 0.83600003
-0.097999997 0.0583 0.83499998
-0.0964 0.058200002 0.83399999
-0.094899997 0.0581 0.833
-0.0933 0.057999998 0.83200002
-0.091799997 0.057999998 0.83099997
-0.0902 0.0579 0.82999998
-0.088799998 0.0579 0.82999998
-0.087499999 0.057999998 0.83099997
-0.085900001 0.0579 0.82999998
-0.0845 0.0579 0.82999998
-0.082999997 0.0579 0.82999998
-0.081500001 0.057799999 0.829
-0.0801 0.057799999 0.829
-0.078699999 0.0579 0.82999998
-0.077299997 0.0579 0.82999998
-0.075800002 0.0579 0.82999998
-0.0744 0.0579 0.82999998
-0.072999999 0.0579 0.82999998
-0.071599998 0.057999998 0.83099997
-0.070299998 0.057999998 0.83200002
-0.068800002 0.057999998 0.83200002
-0.067400001 0.057999998 0.83200002
-0.066 0.0581 0.833
-0.064599998 0.058200002 0.83399999
-0.063199997 0.058200002 0.83399999
-0.061799999 0.058200002 0.83399999
-0.0603 0.058200002 0.83399999
-0.058800001 0.0581 0.833
-0.057300001 0.0581 0.833
-0.055799998 0.057999998 0.83200002
-0.054400001 0.057999998 0.83200002
-0.052999999 0.057999998 0.83200002
-0.0515 0.057999998 0.83200002
-0.050099999 0.057999998 0.83200002
-0.048599999 0.057999998 0.83200002
-0.047200002 0.057999998 0.83200002
-0.045699999 0.057999998 0.83200002
-0.044399999 0.0581 0.833
-0.0429 0.0581 0.833
-0.041499998 0.058200002 0.83399999
-0.040100001 0.058200002 0.83399999
-0.038699999 0.0583 0.83499998
-0.0372 0.0583 0.83499998
-0.035799999 0.0583 0.83499998
-0.034400001 0.0583 0.83600003
-0.033 0.058400001 0.83700001
-0.031500001 0.058499999 0.838
-0.030099999 0.058499999 0.838
-0.0286 0.058499999 0.838
-0.0272 0.058400001 0.83700001
-0.025699999 0.0583 0.83600003
-0.0243 0.058400001 0.83700001
-0.0228 0.0583 0.83600003
-0.021400001 0.058400001 0.83700001
-0.0199 0.058400001 0.83700001
-0.0185 0.058499999 0.838
-0.017100001 0.058600001 0.83999997
-0.0156 0.058600001 0.83999997
-0.0142 0.058600001 0.83999997
-0.0127 0.058499999 0.83899999
-0.0112 0.058499999 0.838
-0.0098000001 0.058400001 0.83700001
-0.0082999999 0.058499999 0.838
-0.0068999999 0.058499999 0.838
-0.0054000001 0.058499999 0.83899999
-0.0040000002 0.058600001 0.83999997
-0.0024999999 0.058800001 0.84299999
-0.0011 0.058800001 0.84299999
0.00039999999 0.058899999 0.84399998
0.0019 0.059 0.84500003
0.0033 0.058899999 0.84399998
0.0076000001 0.0583 0.83600003
0.0091000004 0.0583 0.83600003
0.0106 0.058400001 0.83700001
0.012 0.058400001 0.83700001
0.0134 0.0583 0.83499998
0.0149 0.058200002 0.83399999
0.0163 0.058200002 0.83399999
0.0177 0.058200002 0.83399999
0.019200001 0.0583 0.83499998
0.0207 0.0583 0.83600003
0.0222 0.058499999 0.838
0.023700001 0.058600001 0.83999997
0.0252 0.058699999 0.84100002
0.026699999 0.058800001 0.84299999
0.028200001 0.058800001 0.84299999
0.0296 0.058699999 0.84200001
0.030999999 0.058600001 0.83999997
0.032400001 0.058600001 0.83999997
0.033799998 0.058499999 0.83899999
0.035300002 0.058499999 0.838
0.036699999 0.058400001 0.83700001
0.0381 0.0583 0.83600003
0.039500002 0.0583 0.83600003
0.041000001 0.058400001 0.83700001
0.0425 0.058499999 0.838
0.044 0.058499999 0.83899999
0.045499999 0.058499999 0.83899999
0.046999998 0.058699999 0.84100002
0.048599999 0.058800001 0.84299999
0.0502 0.059 0.84500003
0.0517 0.059 0.84600002
0.053199999 0.059 0.84600002
-0.1309 0.0623 0.87099999
-0.1285 0.061900001 0.86500001
-0.1261 0.0614 0.85900003
-0.1235 0.060899999 0.85100001
-0.1213 0.0605 0.84600002
-0.1191 0.0601 0.84100002
-0.1168 0.059700001 0.83499998
-0.1151 0.059599999 0.833
-0.1134 0.0594 0.83099997
-0.1121 0.059500001 0.83200002
-0.1105 0.0594 0.83099997
-0.1092 0.059500001 0.83200002
-0.1079 0.059599999 0.833
-0.1066 0.059599999 0.83399999
-0.105 0.059599999 0.833
-0.1037 0.059599999 0.83399999
-0.1023 0.059700001 0.83499998
-0.101 0.059799999 0.83600003
-0.099600002 0.059799999 0.83600003
-0.097900003 0.059599999 0.83399999
-0.096299998 0.059599999 0.833
-0.094899997 0.059599999 0.833
-0.0933 0.059500001 0.83200002
-0.091700003 0.059300002 0.82999998
-0.090099998 0.059300002 0.829
-0.088600002 0.0592 0.82800001
-0.087099999 0.0592 0.82800001
-0.085600004 0.059099998 0.82700002
-0.084200002 0.059099998 0.82700002
-0.082699999 0.059099998 0.82700002
-0.081299998 0.059099998 0.82700002
-0.079999998 0.0592 0.82800001
-0.078699999 0.059300002 0.82999998
-0.077299997 0.059300002 0.82999998
-0.075900003 0.0594 0.83099997
-0.074600004 0.059500001 0.83200002
-0.073100001 0.059500001 0.83200002
-0.071699999 0.059500001 0.83200002
-0.070299998 0.059599999 0.833
-0.068899997 0.059599999 0.833
-0.067500003 0.059599999 0.833
-0.066100001 0.059599999 0.83399999
-0.064599998 0.059599999 0.83399999
-0.063199997 0.059599999 0.83399999
-0.061799999 0.059599999 0.83399999
-0.060199998 0.059599999 0.833
-0.058800001 0.059599999 0.833
-0.057300001 0.059599999 0.833
-0.0559 0.059599999 0.833
-0.054499999 0.059599999 0.833
-0.052999999 0.059599999 0.833
-0.051600002 0.059599999 0.833
-0.050099999 0.059599999 0.833
-0.048700001 0.059599999 0.833
-0.047200002 0.059599999 0.833
-0.0458 0.059599999 0.833
-0.044399999 0.059599999 0.833
-0.0429 0.059599999 0.833
-0.041499998 0.059599999 0.833
-0.040100001 0.059599999 0.83399999
-0.038699999 0.059700001 0.83499998
-0.037300002 0.059799999 0.83600003
-0.035799999 0.059799999 0.83600003
-0.034400001 0.059799999 0.83700001
-0.033 0.059999999 0.83899999
-0.031599998 0.0601 0.83999997
-0.030200001 0.0601 0.83999997
-0.0287 0.059999999 0.83899999
-0.0272 0.059900001 0.838
-0.025699999 0.059900001 0.838
-0.0243 0.059999999 0.83899999
-0.0228 0.059900001 0.838
-0.021400001 0.059799999 0.83700001
-0.0199 0.059900001 0.838
-0.0185 0.059900001 0.838
-0.017100001 0.0601 0.83999997
-0.0156 0.059999999 0.83899999
-0.0141 0.059999999 0.83899999
-0.0127 0.059999999 0.83899999
-0.0112 0.059900001 0.838
-0.0098000001 0.059900001 0.838
-0.0082999999 0.059900001 0.838
-0.0068999999 0.059999999 0.83899999
-0.0054000001 0.0601 0.83999997
-0.0040000002 0.060199998 0.84200001
-0.0024999999 0.0603 0.84299999
-0.0011 0.0603 0.84399998
0.00039999999 0.0603 0.84399998
0.0019 0.0603 0.84399998
0.0033 0.0603 0.84299999
0.0048000002 0.0601 0.84100002
0.0076000001 0.059700001 0.83499998
0.0091000004 0.059599999 0.83399999
0.0105 0.059700001 0.83499998
0.012 0.059700001 0.83499998
0.0134 0.059599999 0.83399999
0.0148 0.059599999 0.833
0.0163 0.059599999 0.833
0.0177 0.059599999 0.833
0.019200001 0.059599999 0.833
0.0206 0.059599999 0.83399999
0.0221 0.059700001 0.83499998
0.023600001 0.059799999 0.83700001
0.0251 0.059999999 0.83899999
0.0266 0.0601 0.83999997
0.028100001 0.0601 0.84100002
0.0295 0.0601 0.83999997
0.030999999 0.0601 0.83999997
0.032400001 0.059999999 0.83899999
0.033799998 0.059900001 0.838
0.0352 0.059799999 0.83700001
0.036600001 0.059799999 0.83600003
0.0381 0.059799999 0.83600003
0.039500002 0.059799999 0.83600003
0.041000001 0.059799999 0.83600003
0.0425 0.059799999 0.83700001
0.044 0.059900001 0.838
0.045499999 0.059999999 0.83899999
0.046999998 0.0601 0.84100002
0.048700001 0.0603 0.84399998
0.0502 0.060400002 0.84500003
0.0517 0.0605 0.84600002
0.053300001 0.060600001 0.847
-0.1311 0.063900001 0.87199998
-0.12899999 0.063600004 0.86799997
-0.1266 0.063100003 0.86199999
-0.1238 0.0625 0.85299999
-0.1211 0.061900001 0.84500003
-0.119 0.061500002 0.83999997
-0.1168 0.0612 0.83499998
-0.1151 0.061000001 0.833
-0.1135 0.060899999 0.83200002
-0.1121 0.060899999 0.83200002
-0.1106 0.060899999 0.83200002
-0.1092 0.060899999 0.83200002
-0.1079 0.061000001 0.833
-0.1066 0.061099999 0.83399999
-0.1051 0.061099999 0.83399999
-0.1037 0.061099999 0.83399999
-0.1022 0.061099999 0.83399999
-0.1009 0.0612 0.83499998
-0.0995 0.0612 0.83499998
-0.097900003 0.061099999 0.83399999
-0.096299998 0.061000001 0.833
-0.094800003 0.060899999 0.83200002
-0.093199998 0.060899999 0.83099997
-0.091700003 0.060800001 0.82999998
-0.090000004 0.060600001 0.82800001
-0.088500001 0.060600001 0.82700002
-0.086999997 0.060600001 0.82700002
-0.085500002 0.0605 0.82599998
-0.084100001 0.0605 0.82599998
-0.082599998 0.0605 0.82599998
-0.081200004 0.0605 0.82599998
-0.079899997 0.060600001 0.82700002
-0.078599997 0.060699999 0.829
-0.077299997 0.060800001 0.82999998
-0.075900003 0.060899999 0.83099997
-0.073100001 0.060899999 0.83200002
-0.071800001 0.061000001 0.833
-0.070299998 0.061000001 0.833
-0.068800002 0.060899999 0.83200002
-0.067400001 0.060899999 0.83200002
-0.066 0.061000001 0.833
-0.064599998 0.061000001 0.833
-0.063100003 0.061000001 0.833
-0.061799999 0.061099999 0.83399999
-0.060199998 0.061000001 0.833
-0.058800001 0.061000001 0.833
-0.057399999 0.061099999 0.83399999
-0.0559 0.061000001 0.833
-0.054499999 0.061099999 0.83399999
-0.053100001 0.061099999 0.83399999
-0.051600002 0.061099999 0.83399999
-0.0502 0.061099999 0.83399999
-0.048700001 0.061000001 0.833
-0.047200002 0.060899999 0.83200002
-0.045699999 0.060899999 0.83200002
-0.044300001 0.060899999 0.83200002
-0.0429 0.060899999 0.83200002
-0.041499998 0.061000001 0.833
-0.040100001 0.061099999 0.83399999
-0.038699999 0.0612 0.83600003
-0.0374 0.0614 0.838
-0.0359 0.0614 0.838
-0.034499999 0.0614 0.83899999
-0.033100002 0.061500002 0.83999997
-0.0317 0.061700001 0.84200001
-0.030200001 0.0616 0.84100002
-0.0287 0.061500002 0.83999997
-0.0272 0.0614 0.83899999
-0.025800001 0.061500002 0.83999997
-0.0243 0.061500002 0.83999997
-0.0228 0.0614 0.838
-0.021400001 0.061299998 0.83700001
-0.0199 0.0614 0.838
-0.0185 0.0614 0.83899999
-0.017000001 0.0614 0.83899999
-0.0156 0.0614 0.83899999
-0.0141 0.0614 0.83899999
-0.0127 0.0614 0.83899999
-0.0112 0.0614 0.83899999
-0.0098000001 0.0614 0.83899999
-0.0082999999 0.061500002 0.83999997
-0.0068999999 0.0616 0.84100002
-0.0054000001 0.061700001 0.84200001
-0.0040000002 0.061700001 0.84299999
-0.0024999999 0.061799999 0.84399998
-0.0011 0.061799999 0.84399998
0.00039999999 0.061799999 0.84399998
0.0019 0.061799999 0.84399998
0.0033 0.061700001 0.84299999
0.0048000002 0.061700001 0.84200001
0.0062000002 0.061500002 0.83999997
0.0077 0.0614 0.838
0.0091000004 0.0612 0.83600003
0.0105 0.0612 0.83600003
0.012 0.0612 0.83499998
0.0134 0.061099999 0.83399999
0.0148 0.061000001 0.833
0.0163 0.060899999 0.83200002
0.0177 0.060899999 0.83200002
0.019200001 0.061000001 0.833
0.0206 0.061000001 0.833
0.0221 0.061099999 0.83399999
0.023600001 0.0612 0.83600003
0.0251 0.0614 0.83899999
0.0266 0.061500002 0.83999997
0.028100001 0.061500002 0.83999997
0.0295 0.061500002 0.83999997
0.030999999 0.061500002 0.83999997
0.032400001 0.0614 0.838
0.033799998 0.0614 0.838
0.0352 0.061299998 0.83700001
0.036600001 0.0612 0.83600003
0.037999999 0.0612 0.83499998
0.039500002 0.0612 0.83499998
0.040899999 0.0612 0.83499998
0.042399999 0.0612 0.83499998
0.043900002 0.061299998 0.83700001
0.045499999 0.0614 0.83899999
0.046999998 0.061500002 0.83999997
0.048599999 0.061700001 0.84299999
0.0502 0.061900001 0.84500003
0.0517 0.061999999 0.84600002
-0.41409999 0.065399997 0.87300003
-0.24330001 0.065899998 0.87900001
-0.2418 0.065899998 0.87900001
-0.1312 0.065399997 0.87300003
-0.1188 0.062899999 0.83899999
-0.1167 0.0625 0.83399999
-0.1151 0.0625 0.833
-0.1135 0.062399998 0.83200002
-0.1122 0.0625 0.833
-0.1108 0.0625 0.833
-0.1095 0.0625 0.83399999
-0.1081 0.062600002 0.83499998
-0.1067 0.062600002 0.83499998
-0.1052 0.062600002 0.83499998
-0.1038 0.062600002 0.83499998
-0.1023 0.062600002 0.83499998
-0.1009 0.062600002 0.83499998
-0.099299997 0.0625 0.83399999
-0.097800002 0.0625 0.833
-0.096199997 0.062399998 0.83200002
-0.094700001 0.0623 0.83099997
-0.093099996 0.062199999 0.82999998
-0.091600001 0.062199999 0.829
-0.089900002 0.061999999 0.82700002
-0.088500001 0.061999999 0.82700002
-0.086999997 0.061999999 0.82700002
-0.085500002 0.061900001 0.82599998
-0.084100001 0.061900001 0.82599998
-0.082599998 0.061900001 0.82599998
-0.081200004 0.061900001 0.82599998
-0.079999998 0.062100001 0.82800001
-0.078699999 0.062199999 0.82999998
-0.077399999 0.0623 0.83099997
-0.075999998 0.062399998 0.83200002
-0.074699998 0.0625 0.833
-0.073299997 0.0625 0.83399999
-0.071900003 0.0625 0.83399999
-0.0704 0.0625 0.83399999
-0.068999998 0.0625 0.83399999
-0.067500003 0.0625 0.83399999
-0.066 0.0625 0.833
-0.064599998 0.0625 0.83399999
-0.063100003 0.0625 0.833
-0.061700001 0.0625 0.833
-0.060199998 0.0625 0.833
-0.058899999 0.0625 0.83399999
-0.057399999 0.0625 0.83399999
-0.056000002 0.0625 0.83399999
-0.054499999 0.0625 0.83399999
-0.053100001 0.0625 0.83399999
-0.051600002 0.0625 0.83399999
-0.0502 0.0625 0.83399999
-0.048700001 0.0625 0.833
-0.047200002 0.062399998 0.83200002
-0.045699999 0.062399998 0.83200002
-0.044300001 0.062399998 0.83200002
-0.0429 0.062399998 0.83200002
-0.041499998 0.0625 0.83399999
-0.040199999 0.062700003 0.83600003
-0.038899999 0.062899999 0.83899999
-0.037500001 0.063100003 0.84100002
-0.035999998 0.063100003 0.84100002
-0.034600001 0.063100003 0.84100002
-0.033199999 0.063100003 0.84200001
-0.0317 0.063199997 0.84299999
-0.030200001 0.063100003 0.84200001
-0.0287 0.063100003 0.84100002
-0.0273 0.063100003 0.84100002
-0.025800001 0.063100003 0.84100002
-0.0243 0.063000001 0.83999997
-0.0229 0.062899999 0.83899999
-0.021400001 0.062799998 0.838
-0.0199 0.062799998 0.838
-0.0185 0.062799998 0.838
-0.017000001 0.062899999 0.83899999
-0.0156 0.062899999 0.83899999
-0.0141 0.062899999 0.83899999
-0.0127 0.062899999 0.83899999
-0.0112 0.062899999 0.83899999
-0.0098000001 0.063000001 0.83999997
-0.0082999999 0.063000001 0.83999997
-0.0068999999 0.063100003 0.84200001
-0.0054000001 0.063199997 0.84299999
-0.0040000002 0.063299999 0.84399998
-0.0024999999 0.063299999 0.84399998
-0.0011 0.063299999 0.84399998
0.00039999999 0.063299999 0.84399998
0.0019 0.063299999 0.84399998
0.0033 0.063299999 0.84399998
0.0048000002 0.063199997 0.84299999
0.0062000002 0.063100003 0.84100002
0.0077 0.062899999 0.83899999
0.0091000004 0.062799998 0.838
0.0106 0.062799998 0.83700001
0.012 0.062700003 0.83600003
0.0134 0.0625 0.83399999
0.0148 0.0625 0.833
0.0163 0.062399998 0.83200002
0.0177 0.062399998 0.83200002
0.019200001 0.0625 0.833
0.0206 0.0625 0.833
0.0221 0.0625 0.83399999
0.023600001 0.062700003 0.83600003
0.0251 0.062799998 0.838
0.0266 0.063000001 0.83999997
0.028100001 0.063100003 0.84100002
0.0295 0.063000001 0.83999997
0.030999999 0.063000001 0.83999997
0.032400001 0.062899999 0.83899999
0.033799998 0.062799998 0.838
0.0352 0.062799998 0.83700001
0.036600001 0.062700003 0.83600003
0.037999999 0.062600002 0.83499998
0.0394 0.0625 0.83399999
0.040899999 0.0625 0.83399999
0.042300001 0.0625 0.83399999
0.0438 0.062600002 0.83499998
0.045400001 0.062799998 0.83700001
0.0469 0.062899999 0.83899999
0.048500001 0.063100003 0.84100002
-0.41370001 0.0669 0.87199998
-0.1185 0.064199999 0.83700001
-0.1167 0.064000003 0.83399999
-0.1151 0.063900001 0.833
-0.1138 0.064000003 0.83399999
-0.1125 0.064000003 0.83499998
-0.111 0.064000003 0.83499998
-0.1097 0.064099997 0.83600003
-0.1085 0.064300001 0.838
-0.1071 0.064300001 0.838
-0.1055 0.064199999 0.83700001
-0.1025 0.064099997 0.83600003
-0.101 0.064099997 0.83600003
-0.0995 0.064000003 0.83499998
-0.097800002 0.063900001 0.833
-0.096199997 0.0638 0.83200002
-0.094700001 0.063699998 0.83099997
-0.093199998 0.063699998 0.83099997
-0.091600001 0.063600004 0.829
-0.090099998 0.063600004 0.829
-0.088600002 0.063500002 0.82800001
-0.086999997 0.0634 0.82700002
-0.085600004 0.0634 0.82700002
-0.084100001 0.0634 0.82599998
-0.082599998 0.0634 0.82599998
-0.081200004 0.0634 0.82599998
-0.079999998 0.063500002 0.82800001
-0.078699999 0.063699998 0.82999998
-0.077399999 0.063699998 0.83099997
-0.076099999 0.063900001 0.833
-0.0748 0.064000003 0.83399999
-0.073399998 0.064000003 0.83499998
-0.071999997 0.064000003 0.83499998
-0.070600003 0.064099997 0.83600003
-0.0691 0.064000003 0.83499998
-0.067599997 0.064000003 0.83499998
-0.066100001 0.064000003 0.83399999
-0.064599998 0.064000003 0.83399999
-0.063199997 0.064000003 0.83399999
-0.061799999 0.064000003 0.83399999
-0.060199998 0.063900001 0.833
-0.058899999 0.064000003 0.83399999
-0.057500001 0.064000003 0.83499998
-0.0561 0.064099997 0.83600003
-0.054699998 0.064099997 0.83600003
-0.053199999 0.064099997 0.83600003
-0.0517 0.064000003 0.83499998
-0.0502 0.064000003 0.83399999
-0.048700001 0.063900001 0.833
-0.047200002 0.0638 0.83200002
-0.045699999 0.0638 0.83200002
-0.044300001 0.0638 0.83200002
-0.0429 0.0638 0.83200002
-0.041499998 0.064000003 0.83399999
-0.040199999 0.064099997 0.83600003
-0.038899999 0.064400002 0.83899999
-0.0374 0.064400002 0.83999997
-0.035999998 0.064499997 0.84100002
-0.034600001 0.064499997 0.84100002
-0.033199999 0.064599998 0.84200001
-0.0317 0.064599998 0.84200001
-0.030200001 0.064499997 0.84100002
-0.0287 0.064499997 0.84100002
-0.0273 0.064499997 0.84100002
-0.025800001 0.064499997 0.84100002
-0.0244 0.064499997 0.84100002
-0.0229 0.064400002 0.83999997
-0.021400001 0.064400002 0.83899999
-0.02 0.064400002 0.83899999
-0.0185 0.064400002 0.83999997
-0.017100001 0.064400002 0.83999997
-0.0156 0.064400002 0.83999997
-0.0142 0.064400002 0.83999997
-0.0127 0.064400002 0.83999997
-0.0112 0.064400002 0.83999997
-0.0098000001 0.064400002 0.83999997
-0.0082999999 0.064499997 0.84100002
-0.0068999999 0.064599998 0.84200001
-0.0054000001 0.0647 0.84399998
-0.0040000002 0.064800002 0.84500003
-0.0024999999 0.064800002 0.84500003
-0.0011 0.064800002 0.84500003
0.00039999999 0.064800002 0.84500003
0.0019 0.064800002 0.84500003
0.0033 0.0647 0.84399998
0.0048000002 0.0647 0.84299999
0.0062000002 0.064499997 0.84100002
0.0077 0.064400002 0.83899999
0.0091000004 0.064199999 0.83700001
0.0105 0.064000003 0.83499998
0.012 0.064000003 0.83499998
0.0134 0.064000003 0.83399999
0.0148 0.063900001 0.833
0.0163 0.0638 0.83200002
0.019099999 0.0638 0.83200002
0.0206 0.063900001 0.833
0.0221 0.064000003 0.83399999
0.023600001 0.064000003 0.83499998
0.0251 0.064199999 0.83700001
0.0265 0.064300001 0.838
0.028000001 0.064400002 0.83899999
0.0295 0.064400002 0.83899999
0.0309 0.064300001 0.838
0.032400001 0.064300001 0.838
0.033799998 0.064199999 0.83700001
0.0352 0.064099997 0.83600003
0.036600001 0.064000003 0.83499998
0.037999999 0.064000003 0.83499998
0.0394 0.064000003 0.83399999
0.040800001 0.063900001 0.833
0.042300001 0.064000003 0.83399999
0.0438 0.064000003 0.83399999
0.045299999 0.064000003 0.83499998
0.046799999 0.064199999 0.83700001
0.0484 0.064400002 0.83999997
-0.41909999 0.068800002 0.87699997
-0.1332 0.068700001 0.87599999
-0.1184 0.0656 0.83600003
-0.1167 0.065399997 0.83399999
-0.1154 0.065499999 0.83499998
-0.1141 0.0656 0.83600003
-0.1127 0.065700002 0.83700001
-0.1114 0.065700002 0.838
-0.1102 0.065899998 0.83999997
-0.109 0.066 0.84200001
-0.1076 0.066 0.84200001
-0.106 0.066 0.84100002
-0.1043 0.065800004 0.83899999
-0.1027 0.065700002 0.838
-0.1013 0.065700002 0.838
-0.099600002 0.0656 0.83600003
-0.097900003 0.065399997 0.83399999
-0.096199997 0.065300003 0.83200002
-0.094800003 0.065300003 0.83200002
-0.093199998 0.065200001 0.83099997
-0.091700003 0.065099999 0.82999998
-0.090099998 0.064999998 0.829
-0.088600002 0.064900003 0.82800001
-0.086999997 0.064900003 0.82700002
-0.085600004 0.064900003 0.82700002
-0.084200002 0.064900003 0.82700002
-0.082599998 0.064800002 0.82599998
-0.081200004 0.064800002 0.82599998
-0.079899997 0.064900003 0.82700002
-0.078599997 0.064999998 0.829
-0.077399999 0.065200001 0.83099997
-0.076099999 0.065300003 0.833
-0.074900001 0.065499999 0.83499998
-0.0735 0.0656 0.83600003
-0.072099999 0.065700002 0.83700001
-0.070699997 0.065700002 0.83700001
-0.069300003 0.065700002 0.838
-0.0678 0.065700002 0.83700001
-0.066200003 0.065499999 0.83499998
-0.064599998 0.065399997 0.83399999
-0.063199997 0.065399997 0.83399999
-0.061799999 0.065399997 0.83399999
-0.060199998 0.065300003 0.833
-0.058899999 0.065399997 0.83399999
-0.057500001 0.065499999 0.83499998
-0.0561 0.0656 0.83600003
-0.054699998 0.065700002 0.83700001
-0.053300001 0.065700002 0.83700001
-0.0517 0.065499999 0.83499998
-0.0502 0.065499999 0.83499998
-0.048700001 0.065300003 0.833
-0.047200002 0.065300003 0.83200002
-0.045699999 0.065300003 0.83200002
-0.044300001 0.065300003 0.83200002
-0.0429 0.065300003 0.83200002
-0.041499998 0.065399997 0.83399999
-0.040199999 0.0656 0.83600003
-0.038899999 0.065899998 0.83999997
-0.037500001 0.066 0.84200001
-0.0361 0.066100001 0.84299999
-0.034699999 0.066100001 0.84299999
-0.033199999 0.066200003 0.84399998
-0.031800002 0.066200003 0.84399998
-0.030300001 0.066299997 0.84500003
-0.0288 0.066200003 0.84399998
-0.0274 0.066299997 0.84500003
-0.025900001 0.066200003 0.84399998
-0.0244 0.066 0.84200001
-0.0229 0.065899998 0.83999997
-0.021400001 0.065800004 0.83899999
-0.02 0.065800004 0.83899999
-0.0185 0.065800004 0.83899999
-0.017100001 0.065899998 0.83999997
-0.0156 0.065899998 0.83999997
-0.0142 0.065899998 0.83999997
-0.0127 0.065899998 0.83999997
-0.0113 0.066 0.84100002
-0.0098000001 0.066 0.84200001
-0.0083999997 0.066 0.84200001
-0.0068999999 0.066100001 0.84299999
-0.0054000001 0.066200003 0.84399998
-0.0040000002 0.066299997 0.84500003
-0.0024999999 0.066299997 0.84500003
-0.0011 0.066299997 0.84500003
0.00039999999 0.066299997 0.84500003
0.0019 0.066200003 0.84399998
0.0033 0.066200003 0.84399998
0.0048000002 0.066100001 0.84299999
0.0062000002 0.066 0.84100002
0.0077 0.065899998 0.83999997
0.0091000004 0.065700002 0.838
0.0106 0.065700002 0.83700001
0.012 0.065499999 0.83499998
0.0134 0.065499999 0.83499998
0.0149 0.065399997 0.83399999
0.0163 0.065300003 0.833
0.0177 0.065300003 0.83200002
0.019200001 0.065300003 0.833
0.0206 0.065300003 0.833
0.0221 0.065399997 0.83399999
0.023600001 0.065499999 0.83499998
0.0251 0.065700002 0.838
0.0265 0.065700002 0.838
0.028000001 0.065700002 0.838
0.0294 0.065700002 0.838
0.0309 0.065700002 0.838
0.032400001 0.065700002 0.838
0.033799998 0.065700002 0.838
0.0352 0.065700002 0.83700001
0.036699999 0.065700002 0.83700001
0.0381 0.065700002 0.83700001
0.039500002 0.0656 0.83600003
0.040899999 0.065499999 0.83499998
0.042399999 0.065499999 0.83499998
0.0438 0.065499999 0.83499998
0.045400001 0.065700002 0.83700001
0.0469 0.065800004 0.83899999
-0.41859999 0.070200004 0.87599999
-0.1365 0.0704 0.87800002
-0.1347 0.070200004 0.87599999
-0.1327 0.07 0.87300003
-0.1181 0.0669 0.83399999
-0.1165 0.066799998 0.833
-0.1152 0.0669 0.83399999
-0.1143 0.067199998 0.838
-0.113 0.067299999 0.83899999
-0.1117 0.067299999 0.83999997
-0.1106 0.067599997 0.84299999
-0.1094 0.067699999 0.84500003
-0.108 0.067699999 0.84500003
-0.1064 0.067699999 0.84399998
-0.1047 0.067500003 0.84200001
-0.1031 0.067400001 0.84100002
-0.1015 0.067299999 0.83999997
-0.099699996 0.067100003 0.83700001
-0.097999997 0.0669 0.83499998
-0.096299998 0.066799998 0.833
-0.094800003 0.066699997 0.83200002
-0.093199998 0.066600002 0.83099997
-0.091700003 0.066500001 0.82999998
-0.090099998 0.066500001 0.829
-0.088500001 0.066299997 0.82700002
-0.086999997 0.066299997 0.82700002
-0.085600004 0.066299997 0.82700002
-0.084200002 0.066299997 0.82700002
-0.082699999 0.066299997 0.82700002
-0.081299998 0.066299997 0.82700002
-0.079999998 0.066399999 0.82800001
-0.078699999 0.066500001 0.82999998
-0.077399999 0.066600002 0.83099997
-0.075999998 0.066699997 0.83200002
-0.074900001 0.0669 0.83499998
-0.073600002 0.067100003 0.83700001
-0.072300002 0.067299999 0.83899999
-0.070799999 0.067299999 0.83899999
-0.069499999 0.067299999 0.83999997
-0.067900002 0.067299999 0.83899999
-0.066299997 0.067100003 0.83700001
-0.064800002 0.067000002 0.83600003
-0.063299999 0.0669 0.83499998
-0.061799999 0.0669 0.83399999
-0.0603 0.0669 0.83399999
-0.058899999 0.0669 0.83499998
-0.057599999 0.067000002 0.83600003
-0.056200001 0.067100003 0.83700001
-0.054699998 0.067100003 0.83700001
-0.053300001 0.067100003 0.83700001
-0.0517 0.0669 0.83499998
-0.0502 0.0669 0.83499998
-0.048700001 0.066799998 0.833
-0.047200002 0.066699997 0.83200002
-0.045699999 0.066699997 0.83200002
-0.044300001 0.066699997 0.83200002
-0.0429 0.066699997 0.83200002
-0.041499998 0.0669 0.83399999
-0.040199999 0.067000002 0.83600003
-0.038899999 0.067299999 0.83999997
-0.037599999 0.067599997 0.84299999
-0.036200002 0.067699999 0.84399998
-0.034699999 0.067699999 0.84399998
-0.033199999 0.067699999 0.84399998
-0.031800002 0.067699999 0.84500003
-0.030400001 0.0678 0.84600002
-0.028899999 0.0678 0.84600002
-0.0275 0.0678 0.84600002
-0.026000001 0.067699999 0.84500003
-0.024499999 0.067699999 0.84399998
-0.0229 0.067500003 0.84200001
-0.021400001 0.067299999 0.83999997
-0.02 0.067299999 0.83899999
-0.0185 0.067299999 0.83999997
-0.017100001 0.067299999 0.83999997
-0.0156 0.067299999 0.83999997
-0.0142 0.067400001 0.84100002
-0.0127 0.067400001 0.84100002
-0.0113 0.067500003 0.84200001
-0.0098000001 0.067599997 0.84299999
-0.0083999997 0.067599997 0.84299999
-0.0068999999 0.067599997 0.84299999
-0.0054000001 0.067699999 0.84399998
-0.0040000002 0.067699999 0.84500003
-0.0024999999 0.067699999 0.84399998
-0.0011 0.067699999 0.84500003
0.00039999999 0.067699999 0.84399998
0.0019 0.067699999 0.84399998
0.0033 0.067599997 0.84299999
0.0048000002 0.067599997 0.84299999
0.0062000002 0.067400001 0.84100002
0.0077 0.067299999 0.83999997
0.0091000004 0.067199998 0.838
0.0106 0.067100003 0.83700001
0.012 0.067000002 0.83600003
0.0134 0.0669 0.83499998
0.0149 0.0669 0.83499998
0.0163 0.0669 0.83399999
0.0177 0.0669 0.83399999
0.019200001 0.0669 0.83399999
0.0207 0.0669 0.83499998
0.0222 0.067100003 0.83700001
0.023600001 0.067100003 0.83700001
0.0251 0.067199998 0.838
0.0265 0.067199998 0.838
0.028000001 0.067100003 0.83700001
0.0294 0.067100003 0.83700001
0.0308 0.067000002 0.83600003
0.032200001 0.0669 0.83499998
0.0337 0.0669 0.83499998
0.035100002 0.0669 0.83499998
0.036600001 0.0669 0.83499998
0.0381 0.067000002 0.83600003
0.039500002 0.0669 0.83499998
0.040899999 0.0669 0.83399999
0.042300001 0.0669 0.83399999
0.0438 0.0669 0.83399999
0.045299999 0.0669 0.83499998
-0.1165 0.0682 0.833
-0.1152 0.068300001 0.83399999
-0.1143 0.068599999 0.838
-0.1133 0.068899997 0.84100002
-0.112 0.068999998 0.84200001
-0.1109 0.069200002 0.84500003
-0.1096 0.069300003 0.84600002
-0.108 0.069200002 0.84500003
-0.1065 0.069200002 0.84500003
-0.1049 0.0691 0.84399998
-0.1033 0.068999998 0.84299999
-0.1016 0.068899997 0.84100002
-0.099799998 0.068599999 0.838
-0.097999997 0.068400003 0.83499998
-0.0964 0.068300001 0.83399999
-0.094800003 0.068099998 0.83200002
-0.093199998 0.068099998 0.83099997
-0.091700003 0.068000004 0.82999998
-0.090099998 0.067900002 0.829
-0.088600002 0.0678 0.82800001
-0.086999997 0.067699999 0.82700002
-0.0858 0.067900002 0.829
-0.084399998 0.067900002 0.829
-0.082800001 0.0678 0.82800001
-0.0814 0.0678 0.82800001
-0.080200002 0.068000004 0.82999998
-0.0788 0.068099998 0.83099997
-0.077500001 0.068099998 0.83200002
-0.076099999 0.0682 0.833
-0.074900001 0.068400003 0.83499998
-0.073700003 0.068599999 0.838
-0.072400004 0.068800002 0.83999997
-0.071000002 0.068899997 0.84100002
-0.069600001 0.068899997 0.84100002
-0.068000004 0.068800002 0.83999997
-0.066299997 0.068599999 0.83700001
-0.0647 0.068400003 0.83499998
-0.063199997 0.068300001 0.83399999
-0.061700001 0.0682 0.833
-0.060199998 0.0682 0.833
-0.058899999 0.068300001 0.83399999
-0.057500001 0.068400003 0.83499998
-0.056000002 0.068400003 0.83499998
-0.054699998 0.068499997 0.83600003
-0.053100001 0.068400003 0.83499998
-0.0517 0.068400003 0.83499998
-0.0502 0.068400003 0.83499998
-0.048700001 0.0682 0.833
-0.047200002 0.068099998 0.83200002
-0.045699999 0.068099998 0.83200002
-0.044399999 0.0682 0.833
-0.043000001 0.068300001 0.83399999
-0.0416 0.068400003 0.83499998
-0.0403 0.068599999 0.838
-0.038899999 0.068899997 0.84100002
-0.037599999 0.068999998 0.84299999
-0.036200002 0.0691 0.84399998
-0.034699999 0.069200002 0.84500003
-0.033199999 0.0691 0.84399998
-0.031800002 0.069200002 0.84500003
-0.030400001 0.069300003 0.84600002
-0.028899999 0.069300003 0.84600002
-0.0275 0.069300003 0.84600002
-0.026000001 0.069200002 0.84500003
-0.024499999 0.0691 0.84399998
-0.023 0.068999998 0.84299999
-0.021500001 0.068899997 0.84100002
-0.02 0.068800002 0.83999997
-0.0185 0.068800002 0.83999997
-0.017100001 0.068800002 0.83999997
-0.0156 0.068800002 0.83999997
-0.0142 0.068899997 0.84100002
-0.0127 0.068999998 0.84200001
-0.0113 0.068999998 0.84200001
-0.0098000001 0.068999998 0.84299999
-0.0083999997 0.068999998 0.84299999
-0.0068999999 0.068999998 0.84299999
-0.0054000001 0.068999998 0.84299999
-0.0040000002 0.0691 0.84399998
-0.0024999999 0.068999998 0.84299999
-0.0011 0.068999998 0.84299999
0.00039999999 0.068999998 0.84299999
0.0019 0.068999998 0.84299999
0.0033 0.068899997 0.84100002
0.0048000002 0.068800002 0.83999997
0.0062000002 0.068800002 0.83999997
0.0077 0.068700001 0.83899999
0.0091000004 0.068599999 0.83700001
0.0106 0.068599999 0.83700001
0.012 0.068499997 0.83600003
0.0134 0.068499997 0.83600003
0.0149 0.068499997 0.83600003
0.0163 0.068400003 0.83499998
0.0178 0.068400003 0.83499998
0.019200001 0.068400003 0.83499998
0.0207 0.068499997 0.83600003
0.0222 0.068599999 0.83700001
0.023600001 0.068599999 0.83700001
0.0251 0.068599999 0.838
0.0265 0.068599999 0.83700001
0.028000001 0.068599999 0.83700001
0.0294 0.068499997 0.83600003
0.0308 0.068499997 0.83600003
0.032299999 0.068499997 0.83600003
0.0337 0.068499997 0.83600003
0.035100002 0.068400003 0.83499998
0.036600001 0.068499997 0.83600003
0.0381 0.068599999 0.83700001
0.039500002 0.068499997 0.83600003
0.040899999 0.068400003 0.83499998
0.042300001 0.068300001 0.83399999
0.0438 0.068300001 0.83399999
0.045200001 0.068300001 0.83399999
-0.3682 0.0735 0.87900001
-0.36669999 0.0735 0.87900001
-0.1132 0.070299998 0.83999997
-0.112 0.0704 0.84200001
-0.1109 0.070699997 0.84500003
-0.1096 0.070799999 0.84600002
-0.1081 0.070799999 0.84600002
-0.1065 0.070699997 0.84500003
-0.105 0.070699997 0.84500003
-0.1033 0.070500001 0.84299999
-0.1016 0.070299998 0.84100002
-0.099799998 0.070100002 0.838
-0.097999997 0.069799997 0.83499998
-0.0964 0.069799997 0.83399999
-0.094800003 0.069600001 0.83200002
-0.093199998 0.069499999 0.83099997
-0.091700003 0.069399998 0.82999998
-0.090099998 0.069300003 0.829
-0.088699996 0.069300003 0.829
-0.087200001 0.069300003 0.829
-0.0858 0.069300003 0.829
-0.084399998 0.069300003 0.829
-0.082900003 0.069300003 0.829
-0.081500001 0.069300003 0.829
-0.080200002 0.069399998 0.82999998
-0.0788 0.069499999 0.83099997
-0.077500001 0.069600001 0.83200002
-0.076099999 0.069700003 0.833
-0.074900001 0.069799997 0.83499998
-0.073600002 0.07 0.83700001
-0.072300002 0.070200004 0.83899999
-0.070900001 0.070299998 0.83999997
-0.069499999 0.070299998 0.83999997
-0.067900002 0.070200004 0.83899999
-0.066299997 0.07 0.83700001
-0.0647 0.069799997 0.83499998
-0.063199997 0.069799997 0.83399999
-0.061799999 0.069799997 0.83399999
-0.060199998 0.069700003 0.833
-0.058899999 0.069799997 0.83399999
-0.057500001 0.069799997 0.83499998
-0.056000002 0.069799997 0.83499998
-0.0546 0.069799997 0.83499998
-0.053100001 0.069799997 0.83399999
-0.051600002 0.069799997 0.83399999
-0.0502 0.069799997 0.83399999
-0.048700001 0.069700003 0.833
-0.047200002 0.069700003 0.833
-0.0458 0.069700003 0.833
-0.044399999 0.069700003 0.833
-0.043000001 0.069799997 0.83399999
-0.0416 0.069799997 0.83499998
-0.0403 0.070100002 0.838
-0.038899999 0.070299998 0.84100002
-0.037599999 0.070500001 0.84299999
-0.036200002 0.070600003 0.84399998
-0.034699999 0.070600003 0.84399998
-0.033199999 0.070500001 0.84299999
-0.031800002 0.070600003 0.84399998
-0.030300001 0.070699997 0.84500003
-0.028899999 0.070799999 0.84600002
-0.0275 0.070799999 0.84600002
-0.026000001 0.070699997 0.84500003
-0.024499999 0.070600003 0.84399998
-0.0229 0.0704 0.84200001
-0.021400001 0.070299998 0.83999997
-0.02 0.070200004 0.83899999
-0.0185 0.070200004 0.83899999
-0.017000001 0.070200004 0.83899999
-0.0156 0.070299998 0.83999997
-0.0142 0.070299998 0.83999997
-0.0127 0.070299998 0.84100002
-0.0113 0.070299998 0.84100002
-0.0098000001 0.070299998 0.84100002
-0.0082999999 0.070299998 0.83999997
-0.0068999999 0.070299998 0.83999997
-0.0054000001 0.070299998 0.83999997
-0.0040000002 0.0704 0.84200001
-0.0024999999 0.070299998 0.84100002
-0.0011 0.070299998 0.84100002
0.00039999999 0.070299998 0.84100002
0.0019 0.070299998 0.84100002
0.0033 0.070299998 0.84100002
0.0048000002 0.070299998 0.83999997
0.0062000002 0.070299998 0.83999997
0.0077 0.070299998 0.83999997
0.0091000004 0.070200004 0.83899999
0.0106 0.070200004 0.83899999
0.012 0.070100002 0.838
0.0135 0.070100002 0.838
0.0149 0.070100002 0.838
0.0164 0.07 0.83700001
0.0178 0.07 0.83700001
0.019300001 0.07 0.83700001
0.0207 0.070100002 0.838
0.0222 0.070299998 0.83999997
0.023700001 0.070299998 0.83999997
0.0251 0.070200004 0.83899999
0.0265 0.070100002 0.838
0.028000001 0.070100002 0.838
0.0294 0.07 0.83700001
0.0309 0.07 0.83700001
0.032299999 0.07 0.83700001
0.033799998 0.07 0.83700001
0.0352 0.069899999 0.83600003
0.036699999 0.07 0.83700001
0.0381 0.07 0.83700001
0.0396 0.07 0.83700001
0.041000001 0.069899999 0.83600003
0.042399999 0.069899999 0.83600003
0.043900002 0.07 0.83700001
0.045400001 0.07 0.83700001
-0.1235 0.070900001 0.83099997
-0.1132 0.071699999 0.83999997
-0.1118 0.071800001 0.84100002
-0.1109 0.072099999 0.84500003
-0.1096 0.0722 0.84600002
-0.108 0.072099999 0.84500003
-0.1065 0.072099999 0.84500003
-0.105 0.072099999 0.84500003
-0.1034 0.072099999 0.84399998
-0.1019 0.071999997 0.84299999
-0.1 0.071699999 0.83999997
-0.098200001 0.071500003 0.83700001
-0.0964 0.071199998 0.83399999
-0.094899997 0.071099997 0.833
-0.0933 0.071000002 0.83200002
-0.091799997 0.070900001 0.83099997
-0.090099998 0.070799999 0.829
-0.088699996 0.070799999 0.829
-0.087099999 0.070699997 0.82800001
-0.0858 0.070799999 0.829
-0.0845 0.070900001 0.82999998
-0.082900003 0.070799999 0.829
-0.081600003 0.070900001 0.82999998
-0.080300003 0.070900001 0.83099997
-0.0788 0.070900001 0.83099997
-0.077500001 0.071000002 0.83200002
-0.075999998 0.071000002 0.83200002
-0.074699998 0.071099997 0.833
-0.073399998 0.0713 0.83499998
-0.072099999 0.071500003 0.83700001
-0.070799999 0.071500003 0.838
-0.069399998 0.071599998 0.83899999
-0.067900002 0.071599998 0.83899999
-0.066399999 0.071500003 0.838
-0.064900003 0.071500003 0.83700001
-0.063299999 0.0713 0.83499998
-0.061799999 0.0713 0.83499998
-0.060400002 0.0713 0.83499998
-0.058899999 0.0713 0.83499998
-0.057500001 0.0713 0.83499998
-0.056000002 0.0713 0.83499998
-0.054499999 0.071199998 0.83399999
-0.053100001 0.071199998 0.83399999
-0.051600002 0.071199998 0.83399999
-0.0502 0.071199998 0.83399999
-0.048700001 0.071099997 0.833
-0.047200002 0.071099997 0.833
-0.045899998 0.071199998 0.83399999
-0.044399999 0.071199998 0.83399999
-0.043000001 0.0713 0.83499998
-0.0416 0.0713 0.83499998
-0.040199999 0.071500003 0.83700001
-0.038899999 0.071599998 0.83899999
-0.037500001 0.071800001 0.84100002
-0.035999998 0.071800001 0.84100002
-0.034600001 0.071800001 0.84100002
-0.033100002 0.071800001 0.84100002
-0.0317 0.071800001 0.84100002
-0.030300001 0.071999997 0.84299999
-0.0288 0.072099999 0.84399998
-0.0274 0.072099999 0.84399998
-0.025900001 0.072099999 0.84399998
-0.0244 0.071999997 0.84299999
-0.023 0.071999997 0.84299999
-0.021400001 0.071699999 0.83999997
-0.02 0.071599998 0.83899999
-0.0185 0.071599998 0.83899999
-0.017000001 0.071599998 0.83899999
-0.0156 0.071599998 0.83899999
-0.0141 0.071599998 0.83899999
-0.0127 0.071599998 0.83899999
-0.0112 0.071599998 0.83899999
-0.0098000001 0.071599998 0.83899999
-0.0082999999 0.071500003 0.838
-0.0068999999 0.071500003 0.83700001
-0.0054000001 0.071500003 0.838
-0.0040000002 0.071500003 0.838
-0.0024999999 0.071500003 0.838
-0.0011 0.071599998 0.83899999
0.00039999999 0.071599998 0.83899999
