# .PCD v0.7 - Point Cloud Data file format
VERSION 0.7
FIELDS x y z
SIZE 4 4 4
TYPE F F F
COUNT 1 1 1
WIDTH 1474
HEIGHT 1
VIEWPOINT 0 0 0 1 0 0 0
POINTS 1474
DATA ascii
0.048099998 -0.079599999 0.88800001
0.049600001 -0.079499997 0.88700002
0.055599999 -0.079300001 0.884
0.057100002 -0.079300001 0.884
0.058699999 -0.079400003 0.88499999
0.060199998 -0.079400003 0.88499999
0.061900001 -0.079499997 0.88700002
0.063500002 -0.079499997 0.88700002
0.065099999 -0.079599999 0.88800001
0.066600002 -0.079599999 0.88800001
0.068099998 -0.079599999 0.88800001
0.069799997 -0.079700001 0.889
0.071400002 -0.079800002 0.88999999
0.072899997 -0.079800002 0.88999999
0.074500002 -0.079800002 0.88999999
0.076099999 -0.079899997 0.89099997
0.077600002 -0.079800002 0.88999999
0.079099998 -0.079800002 0.88999999
0.080600001 -0.079800002 0.88999999
0.082099997 -0.079700001 0.889
0.0836 -0.079700001 0.889
0.085299999 -0.079800002 0.88999999
0.086800002 -0.079800002 0.88999999
0.088399999 -0.079899997 0.89099997
0.090099998 -0.079999998 0.89200002
0.091600001 -0.079999998 0.89200002
0.093199998 -0.079999998 0.89200002
0.094700001 -0.079999998 0.89200002
0.096299998 -0.079999998 0.89200002
0.097800002 -0.079999998 0.89200002
0.099299997 -0.079899997 0.89099997
0.1007 -0.079800002 0.88999999
0.1022 -0.079800002 0.88999999
0.1038 -0.079800002 0.88999999
0.1053 -0.079800002 0.88999999
0.1069 -0.079800002 0.88999999
0.1085 -0.079899997 0.89099997
0.1101 -0.079899997 0.89099997
0.1116 -0.079899997 0.89099997
0.1133 -0.079999998 0.89200002
0.1148 -0.079999998 0.89200002
0.1164 -0.079999998 0.89200002
0.1181 -0.0801 0.89300001
0.1196 -0.0801 0.89300001
0.1211 -0.0801 0.89300001
0.123 -0.080300003 0.89499998
0.1244 -0.080200002 0.89399999
0.1261 -0.080300003 0.89499998
0.1276 -0.080300003 0.89499998
0.1293 -0.080300003 0.89600003
0.1309 -0.080300003 0.89600003
0.1323 -0.080300003 0.89499998
0.1338 -0.080300003 0.89499998
0.1354 -0.080300003 0.89499998
0.1371 -0.080300003 0.89600003
0.13860001 -0.080300003 0.89600003
0.14 -0.080300003 0.89499998
0.1416 -0.080300003 0.89499998
0.14309999 -0.080300003 0.89499998
0.14480001 -0.080300003 0.89600003
0.1464 -0.080300003 0.89600003
0.1478 -0.080300003 0.89499998
0.1538 -0.080200002 0.89399999
0.1552 -0.0801 0.89300001
0.1564 -0.079899997 0.89099997
0.15790001 -0.079899997 0.89099997
0.1595 -0.079899997 0.89099997
0.161 -0.079899997 0.89099997
0.1626 -0.079899997 0.89099997
0.1655 -0.079800002 0.88999999
0.16859999 -0.079800002 0.88999999
0.1732 -0.079800002 0.88999999
0.17470001 -0.079800002 0.88999999
0.1763 -0.079800002 0.88999999
0.17739999 -0.079599999 0.88800001
-0.41170001 -0.0766 0.87099999
-0.38690001 -0.076800004 0.87300003
-0.38499999 -0.076700002 0.87199998
-0.38260001 -0.076499999 0.87
-0.37799999 -0.076499999 0.87
-0.33629999 -0.077299997 0.87900001
-0.33469999 -0.077299997 0.87900001
-0.33320001 -0.077299997 0.87900001
-0.31720001 -0.077500001 0.88099998
-0.31490001 -0.077299997 0.87900001
-0.3127 -0.077100001 0.87699997
-0.3105 -0.077 0.875
-0.3082 -0.076800004 0.87300003
-0.3064 -0.076700002 0.87199998
-0.30489999 -0.076700002 0.87199998
-0.303 -0.0766 0.87099999
-0.30149999 -0.0766 0.87099999
-0.3003 -0.076700002 0.87199998
-0.2992 -0.076800004 0.87300003
-0.2983 -0.077 0.875
-0.29710001 -0.077 0.87599999
-0.29550001 -0.077399999 0.88
-0.29429999 -0.077500001 0.88099998
-0.29269999 -0.077500001 0.88099998
-0.29190001 -0.077699997 0.88300002
-0.29069999 -0.077699997 0.884
-0.28909999 -0.077699997 0.884
-0.28760001 -0.077699997 0.884
-0.2861 -0.077699997 0.884
-0.28420001 -0.077699997 0.88300002
-0.28240001 -0.077600002 0.88200003
-0.28119999 -0.077699997 0.88300002
-0.27959999 -0.077699997 0.88300002
-0.27779999 -0.077600002 0.88200003
-0.27630001 -0.077600002 0.88200003
-0.27469999 -0.077600002 0.88200003
-0.27320001 -0.077600002 0.88200003
-0.27200001 -0.077699997 0.88300002
-0.2701 -0.077600002 0.88200003
-0.26859999 -0.077600002 0.88200003
-0.26710001 -0.077600002 0.88200003
-0.2656 -0.077600002 0.88200003
-0.264 -0.077600002 0.88200003
-0.2622 -0.077500001 0.88099998
-0.2604 -0.077399999 0.88
-0.2586 -0.077299997 0.87900001
-0.257 -0.077299997 0.87900001
-0.2552 -0.077200003 0.87800002
-0.25400001 -0.077299997 0.87900001
-0.2525 -0.077299997 0.87900001
-0.25209999 -0.077699997 0.88300002
-0.25080001 -0.077699997 0.884
-0.2493 -0.077699997 0.884
-0.2429 -0.077699997 0.88300002
-0.23109999 -0.077299997 0.87900001
-0.2279 -0.077699997 0.884
-0.2263 -0.077699997 0.884
-0.2212 -0.077600002 0.88200003
-0.2192 -0.077399999 0.88
-0.21520001 -0.077 0.87599999
-0.21340001 -0.077 0.875
-0.2119 -0.077 0.875
-0.2111 -0.077200003 0.87800002
-0.20999999 -0.077399999 0.88
-0.20900001 -0.077600002 0.88200003
-0.2079 -0.077699997 0.884
-0.2066 -0.077799998 0.88499999
-0.1948 -0.078000002 0.88700002
-0.1919 -0.078100003 0.88800001
-0.18430001 -0.078100003 0.88800001
-0.18080001 -0.0779 0.88599998
-0.17900001 -0.077799998 0.88499999
-0.17730001 -0.077699997 0.884
-0.1758 -0.077699997 0.884
-0.1742 -0.077699997 0.884
-0.1723 -0.077600002 0.88200003
-0.1693 -0.077600002 0.88200003
-0.1662 -0.077600002 0.88200003
-0.1647 -0.077600002 0.88200003
-0.16329999 -0.077699997 0.88300002
-0.1618 -0.077699997 0.88300002
-0.1604 -0.077699997 0.884
-0.1574 -0.077699997 0.884
-0.1514 -0.077799998 0.88499999
-0.1499 -0.077799998 0.88499999
-0.14839999 -0.077799998 0.88499999
-0.1468 -0.077799998 0.88499999
-0.1453 -0.077799998 0.88499999
-0.14380001 -0.077799998 0.88499999
-0.14210001 -0.077699997 0.884
-0.14049999 -0.077699997 0.884
-0.13869999 -0.077600002 0.88200003
-0.1372 -0.077600002 0.88200003
-0.1356 -0.077600002 0.88200003
-0.13420001 -0.077699997 0.88300002
-0.1327 -0.077699997 0.88300002
-0.1313 -0.077699997 0.884
-0.12980001 -0.077699997 0.884
-0.12809999 -0.077699997 0.88300002
-0.1265 -0.077600002 0.88200003
-0.1246 -0.077399999 0.88
-0.1228 -0.077200003 0.87800002
-0.121 -0.077 0.87599999
-0.1194 -0.077 0.875
-0.1179 -0.077 0.875
-0.1162 -0.076899998 0.87400001
-0.1147 -0.076899998 0.87400001
-0.1134 -0.077 0.87599999
-0.1122 -0.077200003 0.87800002
-0.1109 -0.077399999 0.88
-0.1095 -0.077500001 0.88099998
-0.1081 -0.077600002 0.88200003
-0.1066 -0.077600002 0.88200003
-0.1051 -0.077600002 0.88200003
-0.1035 -0.077600002 0.88200003
-0.102 -0.077600002 0.88200003
-0.1005 -0.077600002 0.88200003
-0.098899998 -0.077600002 0.88200003
-0.097400002 -0.077600002 0.88200003
-0.095899999 -0.077600002 0.88200003
-0.094400004 -0.077600002 0.88200003
-0.092799999 -0.077600002 0.88200003
-0.091200002 -0.077500001 0.88099998
-0.089699998 -0.077500001 0.88099998
-0.088100001 -0.077500001 0.88099998
-0.086599998 -0.077500001 0.88099998
-0.085100003 -0.077500001 0.88099998
-0.0836 -0.077500001 0.88099998
-0.082000002 -0.077500001 0.88099998
-0.080499999 -0.077500001 0.88099998
-0.079000004 -0.077500001 0.88099998
-0.077500001 -0.077600002 0.88200003
-0.076099999 -0.077699997 0.88300002
-0.074699998 -0.077799998 0.88499999
-0.073299997 -0.0779 0.88599998
-0.071800001 -0.078000002 0.88700002
-0.0704 -0.078100003 0.88800001
-0.068800002 -0.078100003 0.88800001
-0.067299999 -0.078100003 0.88800001
-0.065800004 -0.078100003 0.88800001
-0.064199999 -0.078100003 0.88800001
-0.062700003 -0.078100003 0.88800001
-0.061099999 -0.078100003 0.88800001
-0.059599999 -0.078100003 0.88800001
-0.0581 -0.078100003 0.88800001
-0.056499999 -0.078100003 0.88800001
-0.055 -0.078100003 0.88800001
-0.053399999 -0.078000002 0.88700002
-0.051800001 -0.078000002 0.88700002
-0.050299998 -0.078000002 0.88700002
-0.048799999 -0.078000002 0.88700002
-0.0473 -0.078100003 0.88800001
-0.045699999 -0.078100003 0.88800001
-0.044199999 -0.078100003 0.88800001
-0.042800002 -0.078299999 0.88999999
-0.041099999 -0.078100003 0.88800001
-0.0396 -0.078100003 0.88800001
-0.037999999 -0.078000002 0.88700002
-0.036400001 -0.0779 0.88599998
-0.034899998 -0.078000002 0.88700002
-0.033399999 -0.0779 0.88599998
-0.031800002 -0.0779 0.88599998
-0.030300001 -0.077799998 0.88499999
-0.0287 -0.077799998 0.88499999
-0.0272 -0.077799998 0.88499999
-0.0241 -0.077799998 0.88499999
-0.0196 -0.078199998 0.889
-0.018100001 -0.078299999 0.88999999
-0.0166 -0.078500003 0.89300001
-0.0151 -0.078699999 0.89499998
-0.0135 -0.078699999 0.89499998
-0.012 -0.078699999 0.89499998
-0.0104 -0.078699999 0.89499998
-0.0088999998 -0.078599997 0.89399999
-0.0073000002 -0.078500003 0.89300001
-0.0057999999 -0.078500003 0.89300001
-0.0041999999 -0.078500003 0.89300001
-0.0027000001 -0.078500003 0.89300001
-0.0011 -0.078500003 0.89300001
0.00039999999 -0.078500003 0.89300001
0.0020000001 -0.078400001 0.89200002
0.0035000001 -0.078500003 0.89300001
0.0051000002 -0.078500003 0.89300001
0.0066 -0.078500003 0.89300001
0.0082 -0.078400001 0.89200002
0.0097000003 -0.078400001 0.89099997
0.0112 -0.078400001 0.89099997
0.0128 -0.078400001 0.89099997
0.0143 -0.078299999 0.88999999
0.015900001 -0.078299999 0.88999999
0.0174 -0.078199998 0.889
0.0189 -0.078100003 0.88800001
0.020400001 -0.078100003 0.88800001
0.0219 -0.078000002 0.88700002
0.023499999 -0.0779 0.88599998
0.025 -0.0779 0.88599998
0.0265 -0.0779 0.88599998
0.028100001 -0.078000002 0.88700002
0.0296 -0.078000002 0.88700002
0.031099999 -0.0779 0.88599998
0.032699998 -0.078100003 0.88800001
0.034299999 -0.078199998 0.889
0.0359 -0.078299999 0.88999999
0.037500001 -0.078400001 0.89099997
0.039000001 -0.078400001 0.89099997
0.040600002 -0.078400001 0.89099997
0.042100001 -0.078400001 0.89099997
0.0436 -0.078299999 0.88999999
0.045200001 -0.078299999 0.88999999
0.046700001 -0.078299999 0.88999999
0.048099998 -0.078100003 0.88800001
0.052700002 -0.078000002 0.88700002
0.054200001 -0.0779 0.88599998
0.055599999 -0.077799998 0.88499999
0.0572 -0.077799998 0.88499999
0.058800001 -0.0779 0.88599998
0.060400002 -0.078000002 0.88700002
0.061900001 -0.078000002 0.88700002
0.063500002 -0.078100003 0.88800001
0.065099999 -0.078100003 0.88800001
0.066699997 -0.078199998 0.889
0.068099998 -0.078100003 0.88800001
0.069700003 -0.078100003 0.88800001
0.071199998 -0.078100003 0.88800001
0.072800003 -0.078100003 0.88800001
0.074299999 -0.078100003 0.88800001
0.075999998 -0.078299999 0.88999999
0.077500001 -0.078199998 0.889
0.079000004 -0.078199998 0.889
0.080600001 -0.078299999 0.88999999
0.082000002 -0.078100003 0.88800001
0.083499998 -0.078100003 0.88800001
0.085100003 -0.078100003 0.88800001
0.086599998 -0.078100003 0.88800001
0.088299997 -0.078299999 0.88999999
0.090000004 -0.078400001 0.89099997
0.091600001 -0.078400001 0.89200002
0.093199998 -0.078400001 0.89200002
0.094700001 -0.078400001 0.89200002
0.096299998 -0.078400001 0.89200002
0.097900003 -0.078500003 0.89300001
0.099299997 -0.078400001 0.89099997
0.1007 -0.078299999 0.88999999
0.1021 -0.078199998 0.889
0.1037 -0.078199998 0.889
0.1052 -0.078199998 0.889
0.1069 -0.078299999 0.88999999
0.1084 -0.078299999 0.88999999
0.1101 -0.078400001 0.89099997
0.1116 -0.078400001 0.89099997
0.1134 -0.078500003 0.89300001
0.115 -0.078500003 0.89300001
0.1165 -0.078500003 0.89300001
0.1182 -0.078599997 0.89399999
0.1197 -0.078599997 0.89399999
0.1214 -0.078699999 0.89499998
0.1231 -0.0788 0.89600003
0.1247 -0.0788 0.89600003
0.12620001 -0.0788 0.89600003
0.12809999 -0.079000004 0.898
0.1296 -0.079000004 0.898
0.1312 -0.079000004 0.898
0.1327 -0.079000004 0.898
0.134 -0.0788 0.89600003
0.1355 -0.0788 0.89600003
0.1371 -0.0788 0.89600003
0.13860001 -0.0788 0.89600003
0.14 -0.078699999 0.89499998
0.1416 -0.078699999 0.89499998
0.14309999 -0.078699999 0.89499998
0.14470001 -0.078699999 0.89499998
0.1461 -0.078599997 0.89399999
0.14749999 -0.078500003 0.89300001
0.15790001 -0.078400001 0.89099997
0.1595 -0.078400001 0.89099997
0.161 -0.078400001 0.89099997
0.1639 -0.078299999 0.88999999
0.1666 -0.078100003 0.88800001
0.1716 -0.078299999 0.88999999
0.1732 -0.078299999 0.88999999
0.1745 -0.078199998 0.889
0.1763 -0.078299999 0.88999999
0.1776 -0.078199998 0.889
0.17900001 -0.078100003 0.88800001
-0.38499999 -0.075199999 0.87199998
-0.38260001 -0.075000003 0.87
-0.3811 -0.075000003 0.87
-0.3761 -0.074900001 0.86900002
-0.36050001 -0.075400002 0.875
-0.35820001 -0.075300001 0.87300003
-0.35710001 -0.075300001 0.87400001
-0.32409999 -0.075800002 0.87900001
-0.32170001 -0.075999998 0.88099998
-0.3206 -0.075999998 0.88200003
-0.3175 -0.075999998 0.88200003
-0.31560001 -0.075999998 0.88099998
-0.3134 -0.075800002 0.87900001
-0.31119999 -0.075599998 0.87699997
-0.30860001 -0.075300001 0.87400001
-0.30669999 -0.075300001 0.87300003
-0.30450001 -0.075099997 0.87099999
-0.30109999 -0.075000003 0.87
-0.29879999 -0.075199999 0.87199998
-0.2976 -0.075300001 0.87300003
-0.29710001 -0.075499997 0.87599999
-0.29629999 -0.0757 0.87800002
-0.29550001 -0.075900003 0.88
-0.29429999 -0.075999998 0.88099998
-0.29269999 -0.075999998 0.88099998
-0.2915 -0.075999998 0.88200003
-0.28999999 -0.075999998 0.88200003
-0.28850001 -0.075999998 0.88200003
-0.287 -0.075999998 0.88200003
-0.2836 -0.075999998 0.88099998
-0.28200001 -0.075999998 0.88099998
-0.28049999 -0.075999998 0.88099998
-0.27900001 -0.075999998 0.88099998
-0.27779999 -0.075999998 0.88200003
-0.27630001 -0.075999998 0.88200003
-0.27469999 -0.075999998 0.88200003
-0.2735 -0.076099999 0.88300002
-0.27200001 -0.076099999 0.88300002
-0.2701 -0.075999998 0.88200003
-0.26859999 -0.075999998 0.88200003
-0.26710001 -0.075999998 0.88200003
-0.26530001 -0.075999998 0.88099998
-0.26370001 -0.075999998 0.88099998
-0.26159999 -0.075800002 0.87900001
-0.26010001 -0.075800002 0.87900001
-0.2586 -0.075800002 0.87900001
-0.257 -0.075800002 0.87900001
-0.2552 -0.0757 0.87800002
-0.25369999 -0.0757 0.87800002
-0.2525 -0.075800002 0.87900001
-0.2518 -0.075999998 0.88200003
-0.25060001 -0.076099999 0.88300002
-0.2493 -0.076200001 0.884
-0.2462 -0.076200001 0.884
-0.2447 -0.076200001 0.884
-0.2314 -0.075900003 0.88
-0.2304 -0.075999998 0.88200003
-0.22939999 -0.076200001 0.884
-0.2279 -0.076200001 0.884
-0.2263 -0.076200001 0.884
-0.2149 -0.075400002 0.875
-0.21340001 -0.075400002 0.875
-0.2119 -0.075400002 0.875
-0.2111 -0.0757 0.87800002
-0.2103 -0.075999998 0.88099998
-0.20919999 -0.076099999 0.88300002
-0.20819999 -0.076300003 0.88499999
-0.2066 -0.076300003 0.88499999
-0.2053 -0.076399997 0.88599998
-0.204 -0.076499999 0.88700002
-0.20119999 -0.0766 0.88800001
-0.19239999 -0.076700002 0.88999999
-0.18430001 -0.0766 0.88800001
-0.1825 -0.076499999 0.88700002
-0.18080001 -0.076399997 0.88599998
-0.17900001 -0.076300003 0.88499999
-0.17730001 -0.076200001 0.884
-0.1758 -0.076200001 0.884
-0.17399999 -0.076099999 0.88300002
-0.1725 -0.076099999 0.88300002
-0.1708 -0.075999998 0.88200003
-0.1693 -0.075999998 0.88200003
-0.16769999 -0.075999998 0.88200003
-0.1662 -0.075999998 0.88200003
-0.1647 -0.075999998 0.88200003
-0.16159999 -0.075999998 0.88200003
-0.1601 -0.075999998 0.88200003
-0.1557 -0.076099999 0.88300002
-0.1541 -0.076099999 0.88300002
-0.15279999 -0.076200001 0.884
-0.1513 -0.076200001 0.884
-0.1499 -0.076300003 0.88499999
-0.14839999 -0.076300003 0.88499999
-0.1468 -0.076300003 0.88499999
-0.1453 -0.076300003 0.88499999
-0.14380001 -0.076300003 0.88499999
-0.14210001 -0.076200001 0.884
-0.14040001 -0.076099999 0.88300002
-0.13869999 -0.075999998 0.88200003
-0.1356 -0.075999998 0.88200003
-0.1344 -0.076200001 0.884
-0.1329 -0.076200001 0.884
-0.1313 -0.076200001 0.884
-0.1295 -0.075999998 0.88200003
-0.12800001 -0.075999998 0.88200003
-0.12630001 -0.075999998 0.88099998
-0.1244 -0.0757 0.87800002
-0.1226 -0.075499997 0.87599999
-0.1209 -0.075400002 0.875
-0.1194 -0.075400002 0.875
-0.1179 -0.075400002 0.875
-0.1163 -0.075400002 0.875
-0.115 -0.075499997 0.87599999
-0.1137 -0.0757 0.87800002
-0.1123 -0.075800002 0.87900001
-0.1109 -0.075900003 0.88
-0.1095 -0.075999998 0.88099998
-0.1081 -0.075999998 0.88200003
-0.1066 -0.075999998 0.88200003
-0.1051 -0.075999998 0.88200003
-0.1034 -0.075999998 0.88099998
-0.102 -0.075999998 0.88200003
-0.1004 -0.075999998 0.88099998
-0.098800004 -0.075999998 0.88099998
-0.0973 -0.075999998 0.88099998
-0.095700003 -0.075900003 0.88
-0.094099998 -0.075900003 0.88
-0.092600003 -0.075900003 0.88
-0.090999998 -0.075800002 0.87900001
-0.089599997 -0.075900003 0.88
-0.088 -0.075900003 0.88
-0.086499996 -0.075900003 0.88
-0.085000001 -0.075900003 0.88
-0.0836 -0.075999998 0.88099998
-0.082000002 -0.075999998 0.88099998
-0.080499999 -0.075999998 0.88099998
-0.077500001 -0.075999998 0.88200003
-0.076099999 -0.076099999 0.88300002
-0.074600004 -0.076200001 0.884
-0.073200002 -0.076300003 0.88499999
-0.071800001 -0.076499999 0.88700002
-0.0704 -0.0766 0.88800001
-0.068800002 -0.0766 0.88800001
-0.067299999 -0.0766 0.88800001
-0.065800004 -0.0766 0.88800001
-0.064199999 -0.0766 0.88800001
-0.062700003 -0.0766 0.88800001
-0.061099999 -0.0766 0.88800001
-0.059599999 -0.0766 0.88800001
-0.058200002 -0.076700002 0.88999999
-0.056600001 -0.076700002 0.88999999
-0.055199999 -0.076800004 0.89099997
-0.053599998 -0.076700002 0.88999999
-0.052000001 -0.0766 0.889
-0.0504 -0.0766 0.88800001
-0.048799999 -0.0766 0.88800001
-0.0473 -0.0766 0.88800001
-0.045699999 -0.0766 0.88800001
-0.044199999 -0.0766 0.88800001
-0.0427 -0.0766 0.88800001
-0.041099999 -0.0766 0.88800001
-0.0396 -0.0766 0.88800001
-0.037999999 -0.076499999 0.88700002
-0.036400001 -0.076399997 0.88599998
-0.034899998 -0.076499999 0.88700002
-0.033399999 -0.076499999 0.88700002
-0.031800002 -0.076399997 0.88599998
-0.030300001 -0.076300003 0.88499999
-0.0287 -0.076300003 0.88499999
-0.0272 -0.076300003 0.88499999
-0.025599999 -0.076300003 0.88499999
-0.0241 -0.076200001 0.884
-0.0196 -0.076499999 0.88700002
-0.018100001 -0.076700002 0.88999999
-0.0166 -0.076800004 0.89099997
-0.015 -0.077 0.89300001
-0.0135 -0.077100001 0.89399999
-0.012 -0.077200003 0.89499998
-0.0104 -0.077200003 0.89499998
-0.0088999998 -0.077200003 0.89499998
-0.0073000002 -0.077 0.89300001
-0.0057999999 -0.077 0.89300001
-0.0041999999 -0.077 0.89300001
-0.0027000001 -0.077100001 0.89399999
-0.0011 -0.077100001 0.89399999
0.00039999999 -0.077 0.89300001
0.0020000001 -0.076899998 0.89200002
0.0035000001 -0.076899998 0.89200002
0.0051000002 -0.076800004 0.89099997
0.0066 -0.076800004 0.89099997
0.0081000002 -0.076800004 0.89099997
0.0097000003 -0.076700002 0.88999999
0.0112 -0.076700002 0.88999999
0.0128 -0.076700002 0.88999999
0.0143 -0.0766 0.889
0.015799999 -0.0766 0.889
0.0174 -0.0766 0.88800001
0.0189 -0.076499999 0.88700002
0.020400001 -0.0766 0.88800001
0.0219 -0.076499999 0.88700002
0.023499999 -0.076499999 0.88700002
0.025 -0.076499999 0.88700002
0.0266 -0.076499999 0.88700002
0.028100001 -0.076499999 0.88700002
0.0296 -0.076499999 0.88700002
0.031199999 -0.076499999 0.88700002
0.032699998 -0.0766 0.88800001
0.034299999 -0.0766 0.88800001
0.0359 -0.076700002 0.88999999
0.037500001 -0.076800004 0.89099997
0.039000001 -0.076800004 0.89099997
0.040600002 -0.076800004 0.89099997
0.042100001 -0.076800004 0.89099997
0.043699998 -0.076800004 0.89099997
0.045200001 -0.076800004 0.89099997
0.046700001 -0.076700002 0.88999999
0.0482 -0.0766 0.889
0.049699999 -0.0766 0.889
0.0528 -0.0766 0.88800001
0.054200001 -0.076499999 0.88700002
0.0557 -0.076399997 0.88599998
0.058800001 -0.076499999 0.88700002
0.060400002 -0.076499999 0.88700002
0.061999999 -0.0766 0.88800001
0.063500002 -0.0766 0.88800001
0.065099999 -0.0766 0.88800001
0.066600002 -0.0766 0.88800001
0.068099998 -0.076499999 0.88700002
0.069600001 -0.076499999 0.88700002
0.071099997 -0.076499999 0.88700002
0.072700001 -0.076499999 0.88700002
0.074199997 -0.076499999 0.88700002
0.075800002 -0.0766 0.88800001
0.077399999 -0.0766 0.88800001
0.078900002 -0.0766 0.88800001
0.080499999 -0.0766 0.889
0.082000002 -0.0766 0.88800001
0.083499998 -0.0766 0.88800001
0.085100003 -0.0766 0.88800001
0.086599998 -0.0766 0.88800001
0.088200003 -0.0766 0.889
0.090000004 -0.076800004 0.89099997
0.091499999 -0.076800004 0.89099997
0.094800003 -0.077 0.89300001
0.0964 -0.077 0.89300001
0.097900003 -0.077 0.89300001
0.0995 -0.077 0.89300001
0.1008 -0.076800004 0.89099997
0.1022 -0.076700002 0.88999999
0.1038 -0.076700002 0.88999999
0.1053 -0.076700002 0.88999999
0.1069 -0.076700002 0.88999999
0.1085 -0.076800004 0.89099997
0.1102 -0.076899998 0.89200002
0.1119 -0.077 0.89300001
0.1134 -0.077 0.89300001
0.1151 -0.077100001 0.89399999
0.1166 -0.077100001 0.89399999
0.1183 -0.077200003 0.89499998
0.1199 -0.077200003 0.89499998
0.1214 -0.077200003 0.89499998
0.1231 -0.077200003 0.89600003
0.1247 -0.077200003 0.89600003
0.12620001 -0.077200003 0.89600003
0.12809999 -0.077399999 0.898
0.1296 -0.077399999 0.898
0.1312 -0.077399999 0.898
0.1327 -0.077399999 0.898
0.134 -0.077200003 0.89600003
0.1355 -0.077200003 0.89600003
0.1371 -0.077200003 0.89600003
0.13850001 -0.077200003 0.89499998
0.1397 -0.077 0.89300001
0.14129999 -0.077 0.89300001
0.1428 -0.077 0.89300001
0.1444 -0.077 0.89300001
0.14569999 -0.076899998 0.89200002
0.1471 -0.076800004 0.89099997
0.1487 -0.076800004 0.89099997
0.15019999 -0.076800004 0.89099997
0.15180001 -0.076800004 0.89099997
0.1533 -0.076800004 0.89099997
0.1564 -0.076800004 0.89099997
0.1593 -0.076700002 0.88999999
0.1665 -0.076499999 0.88700002
0.1682 -0.0766 0.88800001
0.1699 -0.0766 0.889
0.1732 -0.076700002 0.88999999
0.1745 -0.0766 0.889
0.1763 -0.076700002 0.88999999
0.1776 -0.0766 0.889
0.1807 -0.0766 0.889
-0.39879999 -0.073200002 0.866
-0.38499999 -0.073700003 0.87199998
-0.38299999 -0.073600002 0.87099999
-0.38150001 -0.073600002 0.87099999
-0.37959999 -0.0735 0.87
-0.37799999 -0.0735 0.87
-0.3761 -0.073399998 0.86900002
-0.3624 -0.074000001 0.87599999
-0.35820001 -0.073700003 0.87300003
-0.35620001 -0.073700003 0.87199998
-0.34940001 -0.0735 0.87
-0.3256 -0.074299999 0.87900001
-0.32170001 -0.0744 0.88099998
-0.31560001 -0.0744 0.88099998
-0.3134 -0.074299999 0.87900001
-0.31119999 -0.074100003 0.87699997
-0.3082 -0.073700003 0.87300003
-0.3064 -0.073700003 0.87199998
-0.30230001 -0.073399998 0.86900002
-0.3008 -0.073399998 0.86900002
-0.2965 -0.073799998 0.87400001
-0.2956 -0.074000001 0.87599999
-0.29480001 -0.074199997 0.87800002
-0.29210001 -0.074299999 0.87900001
-0.28049999 -0.0744 0.88099998
-0.27900001 -0.0744 0.88099998
-0.27779999 -0.074500002 0.88200003
-0.2766 -0.074600004 0.88300002
-0.27500001 -0.074600004 0.88300002
-0.2735 -0.074600004 0.88300002
-0.2723 -0.074699998 0.884
-0.27079999 -0.074699998 0.884
-0.2692 -0.074699998 0.884
-0.26769999 -0.074699998 0.884
-0.2656 -0.074500002 0.88200003
-0.264 -0.074500002 0.88200003
-0.26190001 -0.074299999 0.88
-0.2604 -0.074299999 0.88
-0.25889999 -0.074299999 0.88
-0.257 -0.074299999 0.87900001
-0.25549999 -0.074299999 0.87900001
-0.25400001 -0.074299999 0.87900001
-0.25299999 -0.0744 0.88099998
-0.25209999 -0.074600004 0.88300002
-0.25080001 -0.074699998 0.884
-0.2493 -0.074699998 0.884
-0.2481 -0.0748 0.88499999
-0.2465 -0.0748 0.88499999
-0.2447 -0.074699998 0.884
-0.2414 -0.074600004 0.88300002
-0.2393 -0.0744 0.88099998
-0.2378 -0.0744 0.88099998
-0.2362 -0.0744 0.88099998
-0.2332 -0.0744 0.88099998
-0.2307 -0.074600004 0.88300002
-0.2296 -0.0748 0.88499999
-0.2281 -0.0748 0.88499999
-0.22660001 -0.0748 0.88499999
-0.22480001 -0.074699998 0.884
-0.2233 -0.074699998 0.884
-0.2154 -0.074100003 0.87699997
-0.2139 -0.074100003 0.87699997
-0.21259999 -0.074199997 0.87800002
-0.21179999 -0.0744 0.88099998
-0.2105 -0.074500002 0.88200003
-0.2095 -0.074699998 0.884
-0.20819999 -0.0748 0.88499999
-0.2066 -0.0748 0.88499999
-0.2051 -0.0748 0.88499999
-0.2025 -0.074900001 0.88700002
-0.1893 -0.075199999 0.88999999
-0.18780001 -0.075199999 0.88999999
-0.18430001 -0.075000003 0.88800001
-0.1825 -0.074900001 0.88700002
-0.18080001 -0.0748 0.88599998
-0.17900001 -0.0748 0.88499999
-0.17730001 -0.074699998 0.884
-0.1758 -0.074699998 0.884
-0.17399999 -0.074600004 0.88300002
-0.1725 -0.074600004 0.88300002
-0.171 -0.074600004 0.88300002
-0.1693 -0.074500002 0.88200003
-0.16769999 -0.074500002 0.88200003
-0.1662 -0.074500002 0.88200003
-0.1647 -0.074500002 0.88200003
-0.16329999 -0.074600004 0.88300002
-0.1618 -0.074600004 0.88300002
-0.1603 -0.074600004 0.88300002
-0.1591 -0.0748 0.88499999
-0.156 -0.0748 0.88499999
-0.1543 -0.074699998 0.884
-0.1514 -0.0748 0.88499999
-0.1499 -0.0748 0.88499999
-0.14839999 -0.0748 0.88499999
-0.1468 -0.0748 0.88499999
-0.1453 -0.0748 0.88499999
-0.14380001 -0.0748 0.88499999
-0.14210001 -0.074699998 0.884
-0.1402 -0.074500002 0.88200003
-0.13850001 -0.0744 0.88099998
-0.13680001 -0.074299999 0.88
-0.13410001 -0.074500002 0.88200003
-0.1327 -0.074600004 0.88300002
-0.1312 -0.074600004 0.88300002
-0.1295 -0.074500002 0.88200003
-0.12800001 -0.074500002 0.88200003
-0.1245 -0.074299999 0.87900001
-0.1227 -0.074100003 0.87699997
-0.1209 -0.073899999 0.875
-0.1194 -0.073899999 0.875
-0.118 -0.074000001 0.87599999
-0.1166 -0.074100003 0.87699997
-0.1152 -0.074199997 0.87800002
-0.1138 -0.074299999 0.87900001
-0.1123 -0.074299999 0.87900001
-0.1096 -0.074500002 0.88200003
-0.1066 -0.074500002 0.88200003
-0.1051 -0.074500002 0.88200003
-0.1034 -0.0744 0.88099998
-0.102 -0.074500002 0.88200003
-0.1004 -0.0744 0.88099998
-0.098700002 -0.074299999 0.88
-0.097099997 -0.074299999 0.87900001
-0.095600002 -0.074299999 0.87900001
-0.093999997 -0.074299999 0.87900001
-0.092500001 -0.074299999 0.87900001
-0.0911 -0.074299999 0.88
-0.089699998 -0.0744 0.88099998
-0.088100001 -0.0744 0.88099998
-0.086599998 -0.0744 0.88099998
-0.085199997 -0.074500002 0.88200003
-0.0836 -0.074500002 0.88200003
-0.082099997 -0.074500002 0.88200003
-0.077399999 -0.0744 0.88099998
-0.075999998 -0.074500002 0.88200003
-0.074500002 -0.074500002 0.88200003
-0.073100001 -0.074699998 0.884
-0.071699999 -0.0748 0.88599998
-0.070299998 -0.074900001 0.88700002
-0.068800002 -0.074900001 0.88700002
-0.067199998 -0.074900001 0.88700002
-0.065700002 -0.074900001 0.88700002
-0.064199999 -0.075000003 0.88800001
-0.062700003 -0.075000003 0.88800001
-0.061099999 -0.075000003 0.88800001
-0.059599999 -0.075000003 0.88800001
-0.0581 -0.075099997 0.889
-0.056600001 -0.075199999 0.88999999
-0.055199999 -0.075300001 0.89099997
-0.053599998 -0.075199999 0.88999999
-0.052000001 -0.075199999 0.88999999
-0.0504 -0.075099997 0.889
-0.048799999 -0.075000003 0.88800001
-0.0473 -0.075000003 0.88800001
-0.045699999 -0.074900001 0.88700002
-0.044199999 -0.074900001 0.88700002
-0.0427 -0.075000003 0.88800001
-0.041099999 -0.075000003 0.88800001
-0.039500002 -0.074900001 0.88700002
-0.037999999 -0.074900001 0.88700002
-0.036400001 -0.0748 0.88599998
-0.034899998 -0.074900001 0.88700002
-0.033399999 -0.0748 0.88599998
-0.031800002 -0.0748 0.88499999
-0.030300001 -0.0748 0.88499999
-0.0287 -0.074699998 0.884
-0.0272 -0.074699998 0.884
-0.025599999 -0.074699998 0.884
-0.0241 -0.074699998 0.884
-0.022600001 -0.074699998 0.884
-0.021 -0.074699998 0.884
-0.0195 -0.0748 0.88599998
-0.017999999 -0.075000003 0.88800001
-0.0166 -0.075300001 0.89099997
-0.015 -0.075400002 0.89300001
-0.0135 -0.075499997 0.89399999
-0.012 -0.075599998 0.89499998
-0.0104 -0.0757 0.89600003
-0.0088999998 -0.075599998 0.89499998
-0.0073000002 -0.075599998 0.89499998
-0.0057999999 -0.075599998 0.89499998
-0.0041999999 -0.075599998 0.89499998
-0.0027000001 -0.075599998 0.89499998
-0.0011 -0.075499997 0.89399999
0.00039999999 -0.075400002 0.89200002
0.0035000001 -0.075300001 0.89099997
0.0051000002 -0.075300001 0.89099997
0.0066 -0.075300001 0.89099997
0.0081000002 -0.075300001 0.89099997
0.0097000003 -0.075199999 0.88999999
0.0112 -0.075199999 0.88999999
0.0128 -0.075199999 0.88999999
0.0143 -0.075099997 0.889
0.015799999 -0.075099997 0.889
0.0174 -0.075000003 0.88800001
0.0189 -0.074900001 0.88700002
0.020400001 -0.074900001 0.88700002
0.0219 -0.074900001 0.88700002
0.023499999 -0.074900001 0.88700002
0.025 -0.074900001 0.88700002
0.0266 -0.074900001 0.88700002
0.028100001 -0.074900001 0.88700002
0.0296 -0.074900001 0.88700002
0.031199999 -0.074900001 0.88700002
0.032699998 -0.075000003 0.88800001
0.034299999 -0.075099997 0.889
0.0359 -0.075199999 0.88999999
0.037500001 -0.075300001 0.89099997
0.039000001 -0.075199999 0.88999999
0.040600002 -0.075300001 0.89099997
0.042100001 -0.075300001 0.89099997
0.043699998 -0.075300001 0.89099997
0.045200001 -0.075300001 0.89099997
0.046799999 -0.075300001 0.89099997
0.0482 -0.075199999 0.88999999
0.049800001 -0.075199999 0.88999999
0.0513 -0.075099997 0.889
0.0528 -0.075099997 0.889
0.054299999 -0.075000003 0.88800001
0.055799998 -0.074900001 0.88700002
0.057399999 -0.075000003 0.88800001
0.058899999 -0.075000003 0.88800001
0.060400002 -0.075000003 0.88800001
0.062100001 -0.075099997 0.889
0.063600004 -0.075099997 0.889
0.065099999 -0.075099997 0.889
0.066699997 -0.075099997 0.889
0.068099998 -0.075000003 0.88800001
0.069600001 -0.074900001 0.88700002
0.071099997 -0.074900001 0.88700002
0.0726 -0.0748 0.88599998
0.074199997 -0.074900001 0.88700002
0.075800002 -0.074900001 0.88700002
0.077399999 -0.075000003 0.88800001
0.078900002 -0.075000003 0.88800001
0.080499999 -0.075000003 0.88800001
0.082000002 -0.075000003 0.88800001
0.083499998 -0.075000003 0.88800001
0.085100003 -0.075000003 0.88800001
0.086599998 -0.075000003 0.88800001
0.088200003 -0.075000003 0.88800001
0.089900002 -0.075199999 0.88999999
0.091499999 -0.075300001 0.89099997
0.093099996 -0.075300001 0.89099997
0.094700001 -0.075400002 0.89200002
0.0964 -0.075400002 0.89300001
0.097900003 -0.075400002 0.89300001
0.0995 -0.075400002 0.89300001
0.1009 -0.075400002 0.89200002
0.1023 -0.075300001 0.89099997
0.1039 -0.075300001 0.89099997
0.1054 -0.075300001 0.89099997
0.107 -0.075300001 0.89099997
0.1085 -0.075300001 0.89099997
0.1102 -0.075400002 0.89200002
0.1119 -0.075400002 0.89300001
0.1134 -0.075400002 0.89300001
0.1152 -0.075599998 0.89499998
0.1168 -0.075599998 0.89499998
0.1183 -0.075599998 0.89499998
0.1199 -0.075599998 0.89499998
0.1214 -0.075599998 0.89499998
0.1231 -0.0757 0.89600003
0.1247 -0.0757 0.89600003
0.12620001 -0.0757 0.89600003
0.1279 -0.075800002 0.89700001
0.1296 -0.075900003 0.898
0.131 -0.075800002 0.89700001
0.13240001 -0.0757 0.89600003
0.1338 -0.075599998 0.89499998
0.1354 -0.075599998 0.89499998
0.13689999 -0.075599998 0.89499998
0.1383 -0.075499997 0.89399999
0.1397 -0.075400002 0.89300001
0.14129999 -0.075400002 0.89300001
0.1427 -0.075400002 0.89200002
0.14399999 -0.075300001 0.89099997
0.14560001 -0.075300001 0.89099997
0.1468 -0.075099997 0.889
0.14820001 -0.075000003 0.88800001
0.1499 -0.075099997 0.889
0.1513 -0.075000003 0.88800001
0.15279999 -0.075000003 0.88800001
0.15449999 -0.075099997 0.889
0.15620001 -0.075199999 0.88999999
0.1578 -0.075199999 0.88999999
0.1593 -0.075199999 0.88999999
0.1622 -0.075099997 0.889
0.1665 -0.074900001 0.88700002
0.1697 -0.075000003 0.88800001
0.17129999 -0.075000003 0.88800001
0.1728 -0.075000003 0.88800001
0.1743 -0.075000003 0.88800001
0.1763 -0.075199999 0.88999999
0.1776 -0.075099997 0.889
-0.3987 -0.071900003 0.86900002
-0.38499999 -0.0722 0.87199998
-0.38299999 -0.072099999 0.87099999
-0.38190001 -0.0722 0.87199998
-0.37959999 -0.071999997 0.87
-0.37760001 -0.071900003 0.86900002
-0.3757 -0.071800001 0.86799997
-0.31560001 -0.072899997 0.88099998
-0.3134 -0.072700001 0.87900001
-0.31079999 -0.072499998 0.87599999
-0.30860001 -0.072300002 0.87400001
-0.3064 -0.0722 0.87199998
-0.2775 -0.072899997 0.88099998
-0.2726 -0.073200002 0.88499999
-0.27169999 -0.073399998 0.88700002
-0.27039999 -0.0735 0.88800001
-0.26859999 -0.073399998 0.88700002
-0.2665 -0.073200002 0.88499999
-0.26460001 -0.073100001 0.884
-0.26249999 -0.072999999 0.88200003
-0.26069999 -0.072899997 0.88099998
-0.25909999 -0.072899997 0.88099998
-0.25729999 -0.072800003 0.88
-0.25549999 -0.072700001 0.87900001
-0.2543 -0.072800003 0.88
-0.25209999 -0.073100001 0.88300002
-0.25080001 -0.073100001 0.884
-0.2493 -0.073100001 0.884
-0.24779999 -0.073100001 0.884
-0.2462 -0.073100001 0.884
-0.2447 -0.073100001 0.884
-0.2432 -0.073100001 0.884
-0.2414 -0.073100001 0.88300002
-0.2396 -0.072999999 0.88200003
-0.23800001 -0.072999999 0.88200003
-0.2368 -0.073100001 0.88300002
-0.2352 -0.073100001 0.88300002
-0.234 -0.073100001 0.884
-0.2325 -0.073100001 0.884
-0.23119999 -0.073200002 0.88499999
-0.2296 -0.073200002 0.88499999
-0.2281 -0.073200002 0.88499999
-0.22660001 -0.073200002 0.88499999
-0.22480001 -0.073100001 0.884
-0.2157 -0.0726 0.87800002
-0.21439999 -0.072700001 0.87900001
-0.2131 -0.072800003 0.88
-0.2121 -0.072999999 0.88200003
-0.211 -0.073100001 0.884
-0.2097 -0.073200002 0.88499999
-0.20819999 -0.073200002 0.88499999
-0.2066 -0.073200002 0.88499999
-0.2051 -0.073200002 0.88499999
-0.2023 -0.073299997 0.88599998
-0.2005 -0.073200002 0.88499999
-0.199 -0.073200002 0.88499999
-0.1972 -0.073100001 0.884
-0.1891 -0.073600002 0.889
-0.1875 -0.073600002 0.889
-0.18619999 -0.073600002 0.88999999
-0.18430001 -0.0735 0.88800001
-0.1825 -0.073399998 0.88700002
-0.1806 -0.073200002 0.88499999
-0.1788 -0.073100001 0.884
-0.17730001 -0.073100001 0.884
-0.17560001 -0.073100001 0.88300002
-0.17380001 -0.072999999 0.88200003
-0.1723 -0.072999999 0.88200003
-0.1708 -0.072999999 0.88200003
-0.1693 -0.072999999 0.88200003
-0.1675 -0.072899997 0.88099998
-0.16599999 -0.072899997 0.88099998
-0.1645 -0.072899997 0.88099998
-0.1631 -0.072999999 0.88200003
-0.16159999 -0.072999999 0.88200003
-0.1603 -0.073100001 0.88300002
-0.1591 -0.073200002 0.88499999
-0.1577 -0.073299997 0.88599998
-0.15620001 -0.073299997 0.88599998
-0.1547 -0.073299997 0.88599998
-0.1514 -0.073200002 0.88499999
-0.1499 -0.073200002 0.88499999
-0.14820001 -0.073100001 0.884
-0.14669999 -0.073100001 0.884
-0.1451 -0.073100001 0.884
-0.1436 -0.073100001 0.884
-0.1419 -0.073100001 0.88300002
-0.1402 -0.072999999 0.88200003
-0.1356 -0.072999999 0.88200003
-0.1344 -0.073100001 0.884
-0.1329 -0.073100001 0.884
-0.1313 -0.073100001 0.884
-0.12970001 -0.073100001 0.88300002
-0.12809999 -0.073100001 0.88300002
-0.1265 -0.072999999 0.88200003
-0.1246 -0.072800003 0.88
-0.1228 -0.0726 0.87800002
-0.121 -0.072499998 0.87599999
-0.1195 -0.072499998 0.87599999
-0.1181 -0.0726 0.87699997
-0.1167 -0.0726 0.87800002
-0.1154 -0.072700001 0.87900001
-0.1138 -0.072700001 0.87900001
-0.1109 -0.072800003 0.88
-0.1081 -0.072999999 0.88200003
-0.1066 -0.072999999 0.88200003
-0.1051 -0.072999999 0.88200003
-0.1035 -0.072999999 0.88200003
-0.102 -0.072999999 0.88200003
-0.1005 -0.072999999 0.88200003
-0.098800004 -0.072899997 0.88099998
-0.097199999 -0.072800003 0.88
-0.095700003 -0.072800003 0.88
-0.094099998 -0.072800003 0.88
-0.092699997 -0.072899997 0.88099998
-0.091200002 -0.072899997 0.88099998
-0.0898 -0.072999999 0.88200003
-0.088200003 -0.072999999 0.88200003
-0.086800002 -0.073100001 0.88300002
-0.085299999 -0.073100001 0.88300002
-0.083700001 -0.073100001 0.88300002
-0.079000004 -0.072899997 0.88099998
-0.077500001 -0.072999999 0.88200003
-0.075999998 -0.072999999 0.88200003
-0.073100001 -0.073100001 0.884
-0.071699999 -0.073200002 0.88499999
-0.070200004 -0.073299997 0.88599998
-0.068700001 -0.073299997 0.88599998
-0.067100003 -0.073299997 0.88599998
-0.065700002 -0.073399998 0.88700002
-0.064199999 -0.0735 0.88800001
-0.062700003 -0.0735 0.88800001
-0.061099999 -0.0735 0.88800001
-0.059599999 -0.0735 0.88800001
-0.058200002 -0.073600002 0.88999999
-0.056699999 -0.073700003 0.89099997
-0.055199999 -0.073799998 0.89200002
-0.053599998 -0.073700003 0.89099997
-0.052000001 -0.073600002 0.88999999
-0.050500002 -0.073600002 0.88999999
-0.048799999 -0.0735 0.88800001
-0.0473 -0.0735 0.88800001
-0.045699999 -0.073399998 0.88700002
-0.044100001 -0.073299997 0.88599998
-0.042599998 -0.073399998 0.88700002
-0.041099999 -0.073399998 0.88700002
-0.039500002 -0.073399998 0.88700002
-0.037999999 -0.073299997 0.88599998
-0.036400001 -0.073299997 0.88599998
-0.034899998 -0.073399998 0.88700002
-0.033399999 -0.073399998 0.88700002
-0.031800002 -0.073299997 0.88599998
-0.030300001 -0.073200002 0.88499999
-0.0287 -0.073100001 0.884
-0.0272 -0.073100001 0.884
-0.025599999 -0.073100001 0.884
-0.0241 -0.073100001 0.88300002
-0.022600001 -0.073100001 0.884
-0.021 -0.073100001 0.884
-0.017999999 -0.0735 0.88800001
-0.0165 -0.073600002 0.88999999
-0.015 -0.073799998 0.89200002
-0.0135 -0.073899999 0.89300001
-0.012 -0.074100003 0.89499998
-0.0104 -0.074100003 0.89600003
-0.0088999998 -0.074100003 0.89600003
-0.0073000002 -0.074100003 0.89600003
-0.0057999999 -0.074199997 0.89700001
-0.0041999999 -0.074199997 0.89700001
-0.0027000001 -0.074100003 0.89600003
-0.0011 -0.074000001 0.89399999
0.00039999999 -0.073799998 0.89200002
0.0020000001 -0.073700003 0.89099997
0.0035000001 -0.073600002 0.88999999
0.0066 -0.073600002 0.88999999
0.0081000002 -0.073600002 0.88999999
0.0097000003 -0.073600002 0.88999999
0.0112 -0.073600002 0.88999999
0.0128 -0.073600002 0.88999999
0.0143 -0.073600002 0.889
0.015799999 -0.0735 0.88800001
0.0174 -0.0735 0.88800001
0.0189 -0.073399998 0.88700002
0.020400001 -0.073399998 0.88700002
0.0219 -0.073399998 0.88700002
0.023499999 -0.073399998 0.88700002
0.025 -0.073399998 0.88700002
0.0266 -0.073399998 0.88700002
0.028100001 -0.0735 0.88800001
0.0297 -0.0735 0.88800001
0.031199999 -0.073399998 0.88700002
0.032699998 -0.0735 0.88800001
0.034299999 -0.0735 0.88800001
0.0359 -0.073600002 0.88999999
0.0374 -0.073600002 0.88999999
0.039000001 -0.073600002 0.88999999
0.040600002 -0.073700003 0.89099997
0.042100001 -0.073700003 0.89099997
0.043699998 -0.073700003 0.89099997
0.045299999 -0.073899999 0.89300001
0.0469 -0.073899999 0.89300001
0.0484 -0.073799998 0.89200002
0.051399998 -0.073700003 0.89099997
0.052900001 -0.073700003 0.89099997
0.054400001 -0.073600002 0.88999999
0.0559 -0.073600002 0.889
0.057500001 -0.073600002 0.88999999
0.059 -0.073600002 0.88999999
0.060600001 -0.073600002 0.88999999
0.062100001 -0.073600002 0.88999999
0.063699998 -0.073600002 0.88999999
0.065200001 -0.073600002 0.88999999
0.066699997 -0.073600002 0.889
0.068099998 -0.0735 0.88800001
0.069600001 -0.073399998 0.88700002
0.071099997 -0.073399998 0.88700002
0.072499998 -0.073200002 0.88499999
0.074100003 -0.073299997 0.88599998
0.075800002 -0.073399998 0.88700002
0.077299997 -0.073399998 0.88700002
0.078900002 -0.0735 0.88800001
0.080499999 -0.0735 0.88800001
0.082000002 -0.0735 0.88800001
0.083499998 -0.0735 0.88800001
0.085100003 -0.0735 0.88800001
0.086599998 -0.0735 0.88800001
0.088200003 -0.0735 0.88800001
0.0898 -0.073600002 0.889
0.091399997 -0.073600002 0.88999999
0.093000002 -0.073600002 0.88999999
0.094700001 -0.073799998 0.89200002
0.0964 -0.073899999 0.89300001
0.097999997 -0.074000001 0.89399999
0.099600002 -0.074000001 0.89399999
0.1011 -0.074000001 0.89399999
0.1026 -0.073899999 0.89300001
0.1041 -0.073899999 0.89300001
0.1057 -0.073899999 0.89300001
0.1071 -0.073799998 0.89200002
0.1086 -0.073799998 0.89200002
0.1103 -0.073899999 0.89300001
0.1119 -0.073899999 0.89300001
0.1135 -0.074000001 0.89399999
0.1152 -0.074100003 0.89499998
0.1168 -0.074100003 0.89499998
0.1184 -0.074100003 0.89600003
0.12 -0.074100003 0.89600003
0.1216 -0.074100003 0.89600003
0.1231 -0.074100003 0.89600003
0.1247 -0.074100003 0.89600003
0.12620001 -0.074100003 0.89600003
0.1276 -0.074100003 0.89499998
0.1293 -0.074100003 0.89600003
0.13070001 -0.074100003 0.89499998
0.1323 -0.074100003 0.89499998
0.1337 -0.074000001 0.89399999
0.13689999 -0.074100003 0.89499998
0.1382 -0.073899999 0.89300001
0.1397 -0.073899999 0.89300001
0.1411 -0.073799998 0.89200002
0.1425 -0.073700003 0.89099997
0.14390001 -0.073600002 0.88999999
0.1454 -0.073600002 0.88999999
0.14659999 -0.0735 0.88800001
0.148 -0.073399998 0.88700002
0.1497 -0.0735 0.88800001
0.1513 -0.0735 0.88800001
0.15279999 -0.0735 0.88800001
0.15449999 -0.073600002 0.889
0.15620001 -0.073600002 0.88999999
0.15790001 -0.073700003 0.89099997
0.1595 -0.073700003 0.89099997
0.16240001 -0.073600002 0.88999999
0.1666 -0.0735 0.88800001
0.1682 -0.0735 0.88800001
0.1697 -0.0735 0.88800001
0.17129999 -0.0735 0.88800001
0.17299999 -0.073600002 0.889
0.1745 -0.073600002 0.889
0.1763 -0.073600002 0.88999999
0.1776 -0.073600002 0.889
0.1851 -0.0735 0.88800001
-0.40009999 -0.070600003 0.87199998
-0.38339999 -0.070600003 0.87199998
-0.38240001 -0.070699997 0.87300003
-0.3804 -0.070600003 0.87199998
-0.37799999 -0.070500001 0.87
-0.3757 -0.070299998 0.86799997
-0.36039999 -0.070600003 0.87099999
-0.3202 -0.071400002 0.88099998
-0.31490001 -0.071199998 0.87900001
-0.31299999 -0.071099997 0.87800002
-0.31079999 -0.071000002 0.87599999
-0.3082 -0.070699997 0.87300003
-0.2744 -0.0726 0.89600003
-0.27070001 -0.072400004 0.89399999
-0.26800001 -0.072099999 0.88999999
-0.26550001 -0.071900003 0.88700002
-0.2631 -0.071599998 0.884
-0.257 -0.071199998 0.87900001
-0.249 -0.071500003 0.88300002
-0.2475 -0.071500003 0.88300002
-0.2462 -0.071599998 0.884
-0.24439999 -0.071500003 0.88300002
-0.2429 -0.071500003 0.88300002
-0.2414 -0.071500003 0.88300002
-0.2396 -0.071500003 0.88200003
-0.2383 -0.071500003 0.88300002
-0.237 -0.071599998 0.884
-0.23549999 -0.071599998 0.884
-0.234 -0.071599998 0.884
-0.23270001 -0.071699999 0.88499999
-0.23119999 -0.071699999 0.88499999
-0.23019999 -0.071900003 0.88700002
-0.22840001 -0.071800001 0.88599998
-0.22660001 -0.071699999 0.88499999
-0.22499999 -0.071699999 0.88499999
-0.223 -0.071500003 0.88300002
-0.221 -0.071400002 0.88099998
-0.2194 -0.071400002 0.88099998
-0.2177 -0.0713 0.88
-0.2159 -0.071199998 0.87900001
-0.2146 -0.0713 0.88
-0.21359999 -0.071500003 0.88200003
-0.21250001 -0.071599998 0.884
-0.2084 -0.071800001 0.88599998
-0.2069 -0.071800001 0.88599998
-0.2053 -0.071800001 0.88599998
-0.204 -0.071900003 0.88700002
-0.2023 -0.071800001 0.88599998
-0.2005 -0.071699999 0.88499999
-0.1987 -0.071599998 0.884
-0.197 -0.071500003 0.88300002
-0.1913 -0.071699999 0.88499999
-0.18889999 -0.071900003 0.88800001
-0.1873 -0.071900003 0.88800001
-0.1858 -0.071900003 0.88800001
-0.184 -0.071900003 0.88700002
-0.1823 -0.071800001 0.88599998
-0.1806 -0.071699999 0.88499999
-0.1769 -0.071500003 0.88200003
-0.1754 -0.071500003 0.88200003
-0.1736 -0.071400002 0.88099998
-0.1723 -0.071500003 0.88200003
-0.1706 -0.071400002 0.88099998
-0.1691 -0.071400002 0.88099998
-0.1673 -0.0713 0.88
-0.16580001 -0.0713 0.88
-0.16429999 -0.0713 0.88
-0.163 -0.071400002 0.88099998
-0.148 -0.071500003 0.88300002
-0.14650001 -0.071500003 0.88300002
-0.145 -0.071500003 0.88300002
-0.1433 -0.071500003 0.88200003
-0.1416 -0.071400002 0.88099998
-0.1397 -0.071199998 0.87900001
-0.1382 -0.071199998 0.87900001
-0.1365 -0.071099997 0.87800002
-0.13420001 -0.071500003 0.88300002
-0.1329 -0.071599998 0.884
-0.1313 -0.071599998 0.884
-0.12980001 -0.071599998 0.884
-0.1283 -0.071599998 0.884
-0.1265 -0.071500003 0.88200003
-0.1248 -0.071400002 0.88099998
-0.1228 -0.071099997 0.87800002
-0.121 -0.071000002 0.87599999
-0.1195 -0.071000002 0.87599999
-0.1181 -0.071000002 0.87699997
-0.1169 -0.071199998 0.87900001
-0.1154 -0.071199998 0.87900001
-0.1138 -0.071199998 0.87900001
-0.111 -0.071400002 0.88099998
-0.1096 -0.071500003 0.88200003
-0.1081 -0.071500003 0.88200003
-0.1066 -0.071500003 0.88200003
-0.1051 -0.071500003 0.88200003
-0.1035 -0.071500003 0.88200003
-0.102 -0.071500003 0.88200003
-0.1005 -0.071500003 0.88200003
-0.098899998 -0.071500003 0.88200003
-0.0973 -0.071400002 0.88099998
-0.095799997 -0.071400002 0.88099998
-0.0942 -0.071400002 0.88099998
-0.092799999 -0.071500003 0.88200003
-0.091300003 -0.071500003 0.88200003
-0.089900002 -0.071500003 0.88300002
-0.088299997 -0.071500003 0.88300002
-0.0854 -0.071599998 0.884
-0.080600001 -0.071500003 0.88200003
-0.079099998 -0.071500003 0.88200003
-0.077600002 -0.071500003 0.88300002
-0.075999998 -0.071500003 0.88200003
-0.074500002 -0.071500003 0.88200003
-0.073100001 -0.071599998 0.884
-0.071699999 -0.071699999 0.88499999
-0.070100002 -0.071699999 0.88499999
-0.067100003 -0.071800001 0.88599998
-0.064199999 -0.071900003 0.88800001
-0.0612 -0.071999997 0.889
-0.059700001 -0.072099999 0.88999999
-0.0583 -0.0722 0.89099997
-0.056699999 -0.0722 0.89099997
-0.055300001 -0.072300002 0.89300001
-0.0537 -0.072300002 0.89300001
-0.052099999 -0.072300002 0.89200002
-0.050500002 -0.0722 0.89099997
-0.048900001 -0.072099999 0.88999999
-0.0473 -0.071900003 0.88800001
-0.045699999 -0.071900003 0.88700002
-0.044199999 -0.071900003 0.88700002
-0.042599998 -0.071900003 0.88700002
-0.041099999 -0.071900003 0.88700002
-0.039500002 -0.071900003 0.88700002
-0.037999999 -0.071900003 0.88700002
-0.036499999 -0.071900003 0.88700002
-0.035 -0.071900003 0.88800001
-0.033399999 -0.071900003 0.88700002
-0.0319 -0.071900003 0.88700002
-0.030300001 -0.071800001 0.88599998
-0.0287 -0.071699999 0.88499999
-0.0272 -0.071599998 0.884
-0.025599999 -0.071699999 0.88499999
-0.0241 -0.071699999 0.88499999
-0.022600001 -0.071599998 0.884
-0.021 -0.071699999 0.88499999
-0.0196 -0.071900003 0.88700002
-0.018100001 -0.072099999 0.88999999
-0.0166 -0.072300002 0.89200002
-0.015 -0.072300002 0.89200002
-0.0135 -0.072300002 0.89300001
-0.012 -0.072499998 0.89499998
-0.0104 -0.072499998 0.89499998
-0.0088999998 -0.072499998 0.89499998
-0.0073000002 -0.0726 0.89600003
-0.0057999999 -0.0726 0.89600003
-0.0041999999 -0.0726 0.89600003
-0.0027000001 -0.072499998 0.89499998
-0.0011 -0.072300002 0.89300001
0.00039999999 -0.072300002 0.89200002
0.0020000001 -0.0722 0.89099997
0.0035000001 -0.072099999 0.88999999
0.0051000002 -0.072099999 0.88999999
0.0066 -0.072099999 0.88999999
0.0081000002 -0.072099999 0.88999999
0.0097000003 -0.072099999 0.88999999
0.0112 -0.072099999 0.88999999
0.0128 -0.072099999 0.88999999
0.0143 -0.071999997 0.889
0.015799999 -0.071900003 0.88800001
0.0173 -0.071900003 0.88700002
0.0189 -0.071900003 0.88700002
0.020400001 -0.071900003 0.88700002
0.0219 -0.071900003 0.88700002
0.023499999 -0.071900003 0.88800001
0.0251 -0.071900003 0.88800001
0.0266 -0.071900003 0.88800001
0.028200001 -0.071999997 0.889
0.0297 -0.071999997 0.889
0.031199999 -0.071900003 0.88800001
0.032699998 -0.071900003 0.88800001
0.034299999 -0.071900003 0.88800001
0.035799999 -0.071900003 0.88800001
0.0374 -0.071900003 0.88800001
0.039000001 -0.072099999 0.88999999
0.0405 -0.072099999 0.88999999
0.042100001 -0.0722 0.89099997
0.0438 -0.072300002 0.89300001
0.045400001 -0.072499998 0.89499998
0.046999998 -0.072499998 0.89499998
0.048500001 -0.072499998 0.89499998
0.050000001 -0.072400004 0.89399999
0.0515 -0.072300002 0.89300001
0.053100001 -0.072400004 0.89399999
0.0546 -0.072300002 0.89300001
0.056000002 -0.0722 0.89099997
0.057599999 -0.0722 0.89099997
0.059099998 -0.0722 0.89099997
0.060699999 -0.0722 0.89099997
0.062199999 -0.0722 0.89099997
0.063699998 -0.072099999 0.88999999
0.065099999 -0.071900003 0.88800001
0.066600002 -0.071900003 0.88800001
0.068099998 -0.071900003 0.88700002
0.069600001 -0.071900003 0.88700002
0.071000002 -0.071699999 0.88499999
0.072499998 -0.071699999 0.88499999
0.074000001 -0.071699999 0.88499999
0.0757 -0.071800001 0.88599998
0.077299997 -0.071900003 0.88700002
0.078900002 -0.071900003 0.88800001
0.080499999 -0.071900003 0.88800001
0.082000002 -0.071900003 0.88800001
0.083499998 -0.071900003 0.88800001
0.085100003 -0.071900003 0.88800001
0.086599998 -0.071900003 0.88800001
0.088200003 -0.071900003 0.88800001
0.0898 -0.071999997 0.889
0.091399997 -0.072099999 0.88999999
0.093099996 -0.0722 0.89099997
0.094700001 -0.072300002 0.89200002
0.0964 -0.072300002 0.89300001
0.098200001 -0.072499998 0.89499998
0.099699996 -0.072499998 0.89499998
0.1011 -0.072400004 0.89399999
0.1027 -0.072400004 0.89399999
0.1041 -0.072300002 0.89300001
0.1058 -0.072400004 0.89399999
0.1072 -0.072300002 0.89300001
0.1086 -0.072300002 0.89200002
0.1103 -0.072300002 0.89300001
0.1119 -0.072300002 0.89300001
0.1135 -0.072400004 0.89399999
0.1152 -0.072499998 0.89499998
0.1168 -0.072499998 0.89499998
0.1183 -0.072499998 0.89499998
0.12 -0.0726 0.89600003
0.1216 -0.0726 0.89600003
0.1231 -0.0726 0.89600003
0.1247 -0.0726 0.89600003
0.1261 -0.072499998 0.89499998
0.1276 -0.072499998 0.89499998
0.1292 -0.072499998 0.89499998
0.13070001 -0.072499998 0.89499998
0.1323 -0.072499998 0.89499998
0.1337 -0.072400004 0.89399999
0.13510001 -0.072300002 0.89300001
0.13680001 -0.072400004 0.89399999
