ply
format ascii 1.0
comment PCL generated
element vertex 1502
property float x
property float y
property float z
element camera 0
property float view_px
property float view_py
property float view_pz
property float x_axisx
property float x_axisy
property float x_axisz
property float y_axisx
property float y_axisy
property float y_axisz
property float z_axisx
property float z_axisy
property float z_axisz
property float focal
property float scalex
property float scaley
property float centerx
property float centery
property int viewportx
property int viewporty
property float k1
property float k2
end_header
0.18799999 0.087899998 0.90200001
-0.40970001 0.0876 0.88300002
-0.40700001 0.088 0.88700002
-0.4059 0.088100001 0.88800001
-0.34740001 0.088500001 0.89200002
-0.34509999 0.088299997 0.88999999
-0.3432 0.088200003 0.889
-0.34119999 0.088100001 0.88800001
-0.33970001 0.088100001 0.88800001
-0.3382 0.088100001 0.88800001
-0.33660001 0.088100001 0.88800001
-0.33000001 0.088399999 0.89099997
-0.31779999 0.088 0.88700002
-0.31349999 0.088100001 0.88800001
-0.31200001 0.088100001 0.88800001
-0.31 0.088399999 0.89099997
-0.30809999 0.088299997 0.88999999
-0.30379999 0.088399999 0.89099997
-0.301 0.088500001 0.89200002
-0.29859999 0.088699996 0.89399999
-0.29620001 0.0889 0.89600003
-0.29530001 0.089100003 0.898
-0.29440001 0.089299999 0.89999998
-0.2922 0.089100003 0.898
-0.289 0.088600002 0.89300001
-0.2868 0.088399999 0.89099997
-0.27810001 0.088100001 0.88800001
-0.27720001 0.088299997 0.88999999
-0.27630001 0.088500001 0.89200002
-0.27509999 0.088600002 0.89300001
-0.27410001 0.088799998 0.89499998
-0.27289999 0.0889 0.89600003
-0.27129999 0.0889 0.89600003
-0.27039999 0.089100003 0.898
-0.26879999 0.089100003 0.898
-0.26730001 0.089100003 0.898
-0.26570001 0.089100003 0.898
-0.2572 0.088299997 0.88999999
-0.255 0.088100001 0.88800001
-0.25350001 0.088100001 0.88800001
-0.252 0.088100001 0.88800001
-0.2502 0.088 0.88700002
-0.24860001 0.088 0.88700002
-0.2471 0.088 0.88700002
-0.2458 0.088100001 0.88800001
-0.2446 0.088200003 0.889
-0.243 0.088200003 0.889
-0.24169999 0.088299997 0.88999999
-0.2402 0.088299997 0.88999999
-0.2387 0.088299997 0.88999999
-0.23710001 0.088299997 0.88999999
-0.23559999 0.088299997 0.88999999
-0.23379999 0.088200003 0.889
-0.23199999 0.088100001 0.88800001
-0.2304 0.088100001 0.88800001
-0.2256 0.088 0.88700002
-0.1969 0.082500003 0.83099997
-0.1955 0.082500003 0.83099997
-0.19400001 0.082500003 0.83099997
-0.1767 0.082500003 0.83099997
-0.1751 0.082400002 0.82999998
-0.1737 0.082400002 0.82999998
-0.17200001 0.0823 0.829
-0.1706 0.0823 0.829
-0.1693 0.082400002 0.82999998
-0.1679 0.082400002 0.82999998
-0.1665 0.082400002 0.82999998
-0.1648 0.0823 0.829
-0.16339999 0.0823 0.829
-0.16159999 0.082099997 0.82700002
-0.1603 0.082199998 0.82800001
-0.15889999 0.082199998 0.82800001
-0.1576 0.0823 0.829
-0.15620001 0.0823 0.829
-0.155 0.082400002 0.82999998
-0.15369999 0.082500003 0.83099997
-0.1523 0.082500003 0.83099997
-0.1505 0.0823 0.829
-0.1488 0.082199998 0.82800001
-0.1472 0.082099997 0.82700002
-0.14579999 0.082099997 0.82700002
-0.1444 0.082099997 0.82700002
-0.1429 0.082099997 0.82700002
-0.1417 0.082199998 0.82800001
-0.1406 0.082400002 0.82999998
-0.1391 0.082400002 0.82999998
-0.1364 0.082500003 0.83099997
-0.13349999 0.082500003 0.83099997
-0.1323 0.082599998 0.83200002
-0.131 0.082699999 0.833
-0.12980001 0.082900003 0.83499998
-0.1287 0.083099999 0.83700001
-0.1276 0.083300002 0.83899999
-0.1266 0.0836 0.84200001
-0.1249 0.083499998 0.84100002
-0.1238 0.083700001 0.84299999
-0.1225 0.083800003 0.84399998
-0.1191 0.083499998 0.84100002
-0.1171 0.083099999 0.83700001
-0.1152 0.082800001 0.83399999
-0.1135 0.082599998 0.83200002
-0.1119 0.082500003 0.83099997
-0.1104 0.082400002 0.82999998
-0.1089 0.082400002 0.82999998
-0.1075 0.082400002 0.82999998
-0.106 0.082400002 0.82999998
-0.1045 0.0823 0.829
-0.1032 0.082400002 0.82999998
-0.1017 0.082400002 0.82999998
-0.1004 0.082500003 0.83099997
-0.098899998 0.082400002 0.82999998
-0.097499996 0.082500003 0.83099997
-0.092100002 0.082800001 0.83399999
-0.090800002 0.082900003 0.83499998
-0.089299999 0.082900003 0.83499998
-0.087899998 0.082900003 0.83499998
-0.086400002 0.082900003 0.83499998
-0.084799998 0.082699999 0.833
-0.0832 0.082599998 0.83200002
-0.081699997 0.082500003 0.83099997
-0.080200002 0.082400002 0.82999998
-0.0788 0.082500003 0.83099997
-0.077399999 0.082500003 0.83099997
-0.075999998 0.082599998 0.83200002
-0.074699998 0.082699999 0.833
-0.073299997 0.082800001 0.83399999
-0.071999997 0.082900003 0.83499998
-0.070500001 0.082900003 0.83499998
-0.0691 0.082999997 0.83600003
-0.067599997 0.082900003 0.83499998
-0.066200003 0.082900003 0.83499998
-0.0647 0.082900003 0.83499998
-0.061799999 0.082900003 0.83499998
-0.0603 0.082800001 0.83399999
-0.058899999 0.082800001 0.83399999
-0.057399999 0.082800001 0.83399999
-0.056000002 0.082800001 0.83399999
-0.054499999 0.082800001 0.83399999
-0.053100001 0.082800001 0.83399999
-0.051600002 0.082800001 0.83399999
-0.0502 0.082900003 0.83499998
-0.048799999 0.082900003 0.83499998
-0.047400001 0.082999997 0.83600003
-0.046 0.082999997 0.83600003
-0.044599999 0.083099999 0.83700001
-0.043099999 0.083099999 0.83700001
-0.041700002 0.083099999 0.83700001
-0.0403 0.0832 0.838
-0.038800001 0.0832 0.838
-0.037300002 0.083099999 0.83700001
-0.035799999 0.082999997 0.83600003
-0.034200002 0.082699999 0.833
-0.030999999 0.089900002 0.90600002
-0.0294 0.0898 0.90499997
-0.027799999 0.0898 0.90499997
-0.0262 0.089599997 0.903
-0.024599999 0.089599997 0.903
-0.023 0.089599997 0.903
-0.021500001 0.089599997 0.903
-0.0088999998 0.0889 0.89600003
-0.0073000002 0.088799998 0.89499998
-0.0057999999 0.088799998 0.89499998
-0.0041999999 0.089100003 0.898
-0.0027000001 0.089199997 0.89899999
-0.0011 0.089299999 0.89999998
0.00039999999 0.089299999 0.89999998
0.0020000001 0.089199997 0.89899999
0.0035999999 0.089299999 0.89999998
0.0051000002 0.089299999 0.89999998
0.0066999998 0.089299999 0.89999998
0.0082 0.089400001 0.90100002
0.0098000001 0.089400001 0.90100002
0.0114 0.089599997 0.903
0.013 0.089699998 0.90399998
0.0145 0.089699998 0.90399998
0.016100001 0.089699998 0.90399998
0.0177 0.0898 0.90499997
0.019200001 0.089699998 0.90399998
0.0208 0.089599997 0.903
0.022299999 0.089599997 0.903
0.0239 0.089599997 0.903
0.0255 0.089599997 0.903
0.027000001 0.089599997 0.903
0.0286 0.089500003 0.90200001
0.030099999 0.089500003 0.90200001
0.0317 0.089400001 0.90100002
0.033199999 0.089400001 0.90100002
0.0348 0.089400001 0.90100002
0.0363 0.089299999 0.89999998
0.037900001 0.089299999 0.89999998
0.0394 0.089199997 0.89899999
0.041000001 0.089299999 0.89999998
0.042599998 0.089500003 0.90200001
0.044300001 0.089599997 0.903
0.045899998 0.089699998 0.90399998
0.047400001 0.089699998 0.90399998
0.048999999 0.089699998 0.90399998
0.050500002 0.089599997 0.903
0.052000001 0.089400001 0.90100002
0.053300001 0.089100003 0.898
0.0546 0.088600002 0.89300001
0.056000002 0.088299997 0.88999999
0.057500001 0.088299997 0.88999999
0.059 0.088299997 0.88999999
0.060600001 0.088299997 0.88999999
0.062399998 0.088699996 0.89399999
0.064199999 0.089100003 0.898
0.065899998 0.089299999 0.89999998
0.067599997 0.089400001 0.90100002
0.0691 0.089400001 0.90100002
0.070900001 0.089599997 0.903
0.072499998 0.089699998 0.90399998
0.074100003 0.089699998 0.90399998
0.0757 0.0898 0.90499997
0.077399999 0.089900002 0.90600002
0.079000004 0.090000004 0.90700001
0.080700003 0.090099998 0.90799999
0.082099997 0.089900002 0.90600002
0.083700001 0.089900002 0.90600002
0.085199997 0.089900002 0.90600002
0.086900003 0.090000004 0.90700001
0.088500001 0.090000004 0.90700001
0.089900002 0.089900002 0.90600002
0.091399997 0.0898 0.90499997
0.093000002 0.0898 0.90499997
0.094499998 0.0898 0.90499997
0.096100003 0.0898 0.90499997
0.0977 0.0898 0.90499997
0.098999999 0.089599997 0.903
0.1007 0.089699998 0.90399998
0.1024 0.0898 0.90499997
0.1038 0.089699998 0.90399998
0.1054 0.089699998 0.90399998
0.1071 0.0898 0.90499997
0.1083 0.089500003 0.90200001
0.1097 0.089400001 0.90100002
0.1112 0.089299999 0.89999998
0.1121 0.088799998 0.89499998
0.1137 0.088799998 0.89499998
0.1152 0.088799998 0.89499998
0.1172 0.089100003 0.898
0.1191 0.089400001 0.90100002
0.1207 0.089400001 0.90100002
0.1221 0.089299999 0.89999998
0.1234 0.089100003 0.898
0.1245 0.088799998 0.89499998
0.1258 0.088600002 0.89300001
0.12710001 0.088399999 0.89099997
0.1285 0.088299997 0.88999999
0.13 0.088299997 0.88999999
0.132 0.088600002 0.89300001
0.1344 0.089199997 0.89899999
0.1363 0.089400001 0.90100002
0.138 0.089500003 0.90200001
0.1397 0.089599997 0.903
0.14129999 0.089599997 0.903
0.1428 0.089599997 0.903
0.1444 0.089599997 0.903
0.1461 0.089699998 0.90399998
0.14740001 0.089500003 0.90200001
0.1488 0.089400001 0.90100002
0.1503 0.089400001 0.90100002
0.15189999 0.089400001 0.90100002
0.1538 0.089599997 0.903
0.1552 0.089500003 0.90200001
0.1566 0.089400001 0.90100002
0.15809999 0.089400001 0.90100002
0.1595 0.089299999 0.89999998
0.1611 0.089299999 0.89999998
0.16230001 0.089100003 0.898
0.1635 0.0889 0.89600003
0.16500001 0.0889 0.89600003
0.1673 0.089299999 0.89999998
0.16949999 0.089599997 0.903
0.1714 0.0898 0.90499997
0.17299999 0.0898 0.90499997
0.1749 0.090000004 0.90700001
0.1794 0.089900002 0.90600002
0.1804 0.089599997 0.903
0.18179999 0.089500003 0.90200001
0.18350001 0.089599997 0.903
0.1851 0.089599997 0.903
0.1867 0.089599997 0.903
0.1882 0.089599997 0.903
-0.41 0.088500001 0.87699997
-0.40650001 0.089500003 0.88599998
-0.4059 0.089699998 0.88800001
-0.36880001 0.089299999 0.884
-0.366 0.089000002 0.88099998
-0.35049999 0.090099998 0.89200002
-0.34740001 0.090099998 0.89200002
-0.34509999 0.089900002 0.88999999
-0.3432 0.0898 0.889
-0.34119999 0.089699998 0.88800001
-0.33970001 0.089699998 0.88800001
-0.3382 0.089699998 0.88800001
-0.3231 0.0898 0.889
-0.3193 0.089599997 0.88700002
-0.31779999 0.089599997 0.88700002
-0.31 0.090000004 0.89099997
-0.30840001 0.090000004 0.89099997
-0.30649999 0.089900002 0.88999999
-0.30500001 0.089900002 0.88999999
-0.30019999 0.090300001 0.89399999
-0.29750001 0.090899996 0.89999998
-0.29629999 0.090999998 0.90100002
-0.2947 0.090999998 0.90100002
-0.28830001 0.090000004 0.89099997
-0.28549999 0.089599997 0.88700002
-0.28330001 0.089400001 0.88499999
-0.27959999 0.089199997 0.88300002
-0.27869999 0.089400001 0.88499999
-0.27720001 0.089400001 0.88499999
-0.27630001 0.089599997 0.88700002
-0.27509999 0.089699998 0.88800001
-0.27410001 0.089900002 0.88999999
-0.27289999 0.090000004 0.89099997
-0.27200001 0.0902 0.89300001
-0.27070001 0.090300001 0.89399999
-0.2701 0.090599999 0.89700001
-0.26879999 0.090700001 0.898
-0.26730001 0.090700001 0.898
-0.26570001 0.090700001 0.898
-0.259 0.090000004 0.89099997
-0.25690001 0.0898 0.889
-0.25350001 0.089699998 0.88800001
-0.25170001 0.089599997 0.88700002
-0.2499 0.089500003 0.88599998
-0.24860001 0.089599997 0.88700002
-0.2471 0.089599997 0.88700002
-0.2455 0.089599997 0.88700002
-0.2427 0.089699998 0.88800001
-0.24150001 0.0898 0.889
-0.2402 0.089900002 0.88999999
-0.2387 0.089900002 0.88999999
-0.23710001 0.089900002 0.88999999
-0.23559999 0.089900002 0.88999999
-0.23379999 0.0898 0.889
-0.23199999 0.089699998 0.88800001
-0.2304 0.089699998 0.88800001
-0.2289 0.089699998 0.88800001
-0.2273 0.089699998 0.88800001
-0.2256 0.089599997 0.88700002
-0.1969 0.083899997 0.83099997
-0.1957 0.083999999 0.83200002
-0.17839999 0.083999999 0.83200002
-0.1751 0.083800003 0.82999998
-0.1737 0.083800003 0.82999998
-0.17219999 0.083800003 0.82999998
-0.1708 0.083800003 0.82999998
-0.1693 0.083800003 0.82999998
-0.1679 0.083800003 0.82999998
-0.1665 0.083800003 0.82999998
-0.16500001 0.083800003 0.82999998
-0.1636 0.083800003 0.82999998
-0.1618 0.0836 0.82800001
-0.1603 0.0836 0.82800001
-0.1576 0.083700001 0.829
-0.156 0.0836 0.82800001
-0.1533 0.083700001 0.829
-0.15189999 0.083700001 0.829
-0.15009999 0.083499998 0.82700002
-0.1485 0.083400004 0.82599998
-0.1471 0.083400004 0.82599998
-0.14560001 0.083400004 0.82599998
-0.1442 0.083400004 0.82599998
-0.1429 0.083499998 0.82700002
-0.1415 0.083499998 0.82700002
-0.14040001 0.083700001 0.829
-0.1391 0.083800003 0.82999998
-0.1366 0.083999999 0.83200002
-0.13510001 0.083999999 0.83200002
-0.1337 0.083999999 0.83200002
-0.13240001 0.084100001 0.833
-0.1311 0.084200002 0.83399999
-0.12980001 0.084299996 0.83499998
-0.1284 0.084299996 0.83499998
-0.1245 0.084600002 0.838
-0.123 0.084600002 0.838
-0.122 0.084899999 0.84100002
-0.1206 0.084899999 0.84100002
-0.1188 0.084700003 0.83899999
-0.1168 0.084299996 0.83499998
-0.1151 0.084100001 0.833
-0.1135 0.083999999 0.83200002
-0.1119 0.083899997 0.83099997
-0.1105 0.083899997 0.83099997
-0.1089 0.083800003 0.82999998
-0.1075 0.083800003 0.82999998
-0.106 0.083800003 0.82999998
-0.1045 0.083700001 0.829
-0.103 0.083700001 0.829
-0.1017 0.083800003 0.82999998
-0.1003 0.083800003 0.82999998
-0.098899998 0.083800003 0.82999998
-0.097400002 0.083800003 0.82999998
-0.096000001 0.083800003 0.82999998
-0.092100002 0.084200002 0.83399999
-0.090800002 0.084299996 0.83499998
-0.089199997 0.084200002 0.83399999
-0.087899998 0.084299996 0.83499998
-0.086400002 0.084299996 0.83499998
-0.084899999 0.084200002 0.83399999
-0.083300002 0.084100001 0.833
-0.081799999 0.083999999 0.83200002
-0.080300003 0.083899997 0.83099997
-0.078900002 0.083999999 0.83200002
-0.077500001 0.083999999 0.83200002
-0.076099999 0.084100001 0.833
-0.074699998 0.084100001 0.833
-0.073299997 0.084200002 0.83399999
-0.071999997 0.084299996 0.83499998
-0.070500001 0.084299996 0.83499998
-0.0691 0.084299996 0.83499998
-0.067599997 0.084299996 0.83499998
-0.066200003 0.084299996 0.83499998
-0.0647 0.084299996 0.83499998
-0.063299999 0.084299996 0.83499998
-0.061799999 0.084299996 0.83499998
-0.0603 0.084200002 0.83399999
-0.058899999 0.084200002 0.83399999
-0.057399999 0.084200002 0.83399999
-0.056000002 0.084200002 0.83399999
-0.054499999 0.084200002 0.83399999
-0.053100001 0.084200002 0.83399999
-0.0517 0.084299996 0.83499998
-0.0502 0.084299996 0.83499998
-0.048900001 0.084399998 0.83600003
-0.047499999 0.0845 0.83700001
-0.046 0.0845 0.83700001
-0.044500001 0.084399998 0.83600003
-0.043099999 0.084399998 0.83600003
-0.0416 0.084399998 0.83600003
-0.040199999 0.0845 0.83700001
-0.038800001 0.0845 0.83700001
-0.037300002 0.0845 0.83700001
-0.035799999 0.084299996 0.83499998
-0.032400001 0.091200002 0.903
-0.0309 0.091399997 0.90499997
-0.029300001 0.091200002 0.903
-0.027799999 0.091300003 0.90399998
-0.0262 0.091200002 0.903
-0.024599999 0.091200002 0.903
-0.023 0.0911 0.90200001
-0.0088999998 0.0902 0.89300001
-0.0073000002 0.0902 0.89300001
-0.0057999999 0.090300001 0.89399999
-0.0041999999 0.090499997 0.89600003
-0.0027000001 0.090700001 0.898
-0.0011 0.090899996 0.89999998
0.00039999999 0.090899996 0.89999998
0.0020000001 0.090899996 0.89999998
0.0035000001 0.090800002 0.89899999
0.0051000002 0.090899996 0.89999998
0.0066999998 0.090899996 0.89999998
0.0082 0.090999998 0.90100002
0.0098000001 0.090999998 0.90100002
0.0114 0.090999998 0.90100002
0.013 0.091200002 0.903
0.0145 0.091300003 0.90399998
0.0177 0.091399997 0.90499997
0.019300001 0.091399997 0.90499997
0.0208 0.091300003 0.90399998
0.022399999 0.091399997 0.90499997
0.0239 0.091200002 0.903
0.0255 0.091200002 0.903
0.027000001 0.091200002 0.903
0.0286 0.091200002 0.903
0.030200001 0.091200002 0.903
0.0317 0.091200002 0.903
0.033300001 0.0911 0.90200001
0.0348 0.0911 0.90200001
0.0363 0.090999998 0.90100002
0.037900001 0.090999998 0.90100002
0.039500002 0.090999998 0.90100002
0.041099999 0.0911 0.90200001
0.0427 0.091200002 0.903
0.044300001 0.091300003 0.90399998
0.045899998 0.091399997 0.90499997
0.047499999 0.091399997 0.90499997
0.0491 0.091399997 0.90499997
0.0506 0.091300003 0.90399998
0.052000001 0.0911 0.90200001
0.0535 0.090899996 0.89999998
0.054900002 0.090700001 0.898
0.056299999 0.090400003 0.89499998
0.057799999 0.090300001 0.89399999
0.059300002 0.090300001 0.89399999
0.061000001 0.090499997 0.89600003
0.062799998 0.090800002 0.89899999
0.064499997 0.090999998 0.90100002
0.066 0.090999998 0.90100002
0.067599997 0.090999998 0.90100002
0.069200002 0.0911 0.90200001
0.070900001 0.091200002 0.903
0.072499998 0.091300003 0.90399998
0.074100003 0.091300003 0.90399998
0.0757 0.091399997 0.90499997
0.077299997 0.091399997 0.90499997
0.079000004 0.091600001 0.90700001
0.080600001 0.091600001 0.90700001
0.082000002 0.091399997 0.90499997
0.0836 0.091399997 0.90499997
0.085100003 0.091399997 0.90499997
0.0867 0.091399997 0.90499997
0.088299997 0.091399997 0.90499997
0.0898 0.091399997 0.90499997
0.091300003 0.091300003 0.90399998
0.092900001 0.091300003 0.90399998
0.094499998 0.091399997 0.90499997
0.096100003 0.091399997 0.90499997
0.0977 0.091399997 0.90499997
0.099100001 0.091300003 0.90399998
0.1006 0.091200002 0.903
0.1024 0.091399997 0.90499997
0.104 0.091399997 0.90499997
0.1055 0.091399997 0.90499997
0.1071 0.091399997 0.90499997
0.1087 0.091399997 0.90499997
0.1102 0.091399997 0.90499997
0.1115 0.091200002 0.903
0.1127 0.090899996 0.89999998
0.1147 0.091200002 0.903
0.1165 0.091399997 0.90499997
0.1181 0.091399997 0.90499997
0.1198 0.091499999 0.90600002
0.1212 0.091399997 0.90499997
0.1225 0.091200002 0.903
0.1241 0.091200002 0.903
0.1252 0.090899996 0.89999998
0.12639999 0.090599999 0.89700001
0.12729999 0.0902 0.89300001
0.1287 0.090099998 0.89200002
0.1303 0.090099998 0.89200002
0.1323 0.090400003 0.89499998
0.1346 0.090899996 0.89999998
0.1363 0.090999998 0.90100002
0.1382 0.091200002 0.903
0.1399 0.091300003 0.90399998
0.1416 0.091399997 0.90499997
0.1432 0.091399997 0.90499997
0.14470001 0.091399997 0.90499997
0.14650001 0.091499999 0.90600002
0.1479 0.091399997 0.90499997
0.14929999 0.091300003 0.90399998
0.1507 0.091200002 0.903
0.1521 0.0911 0.90200001
0.1538 0.091200002 0.903
0.1552 0.0911 0.90200001
0.1566 0.090999998 0.90100002
0.15800001 0.090899996 0.89999998
0.1595 0.090899996 0.89999998
0.1609 0.090800002 0.89899999
0.16230001 0.090700001 0.898
0.1635 0.090499997 0.89600003
0.16500001 0.090499997 0.89600003
0.1673 0.090899996 0.89999998
0.16949999 0.091200002 0.903
0.1714 0.091399997 0.90499997
0.17299999 0.091399997 0.90499997
0.1749 0.091600001 0.90700001
0.1763 0.091499999 0.90600002
0.1779 0.091499999 0.90600002
0.17919999 0.091399997 0.90499997
0.1804 0.091200002 0.903
0.1831 0.090999998 0.90100002
0.1849 0.0911 0.90200001
0.1865 0.0911 0.90200001
-0.4086 0.090800002 0.884
-0.40700001 0.0911 0.88700002
-0.40540001 0.0911 0.88700002
-0.36629999 0.0902 0.87800002
-0.36269999 0.089699998 0.87300003
-0.3608 0.089599997 0.87199998
-0.36050001 0.089900002 0.875
-0.3626 0.092299998 0.89899999
-0.3583 0.092 0.89600003
-0.3497 0.091399997 0.88999999
-0.3466 0.091399997 0.88999999
-0.3443 0.091200002 0.88800001
-0.34240001 0.0911 0.88700002
-0.34079999 0.0911 0.88700002
-0.33930001 0.0911 0.88700002
-0.3382 0.091200002 0.88800001
-0.33700001 0.091300003 0.889
-0.33579999 0.091399997 0.88999999
-0.33649999 0.092 0.89600003
-0.33140001 0.092299998 0.89899999
-0.3197 0.091200002 0.88800001
-0.30840001 0.091499999 0.89099997
-0.3062 0.091300003 0.889
-0.30430001 0.091200002 0.88800001
-0.2974 0.091899998 0.89499998
-0.2965 0.092100002 0.89700001
-0.29589999 0.092399999 0.89999998
-0.29440001 0.092399999 0.89999998
-0.28580001 0.091200002 0.88800001
-0.28080001 0.090599999 0.88200003
-0.27959999 0.090700001 0.88300002
-0.2735 0.091200002 0.88800001
-0.2726 0.091399997 0.88999999
-0.2714 0.091499999 0.89099997
-0.27039999 0.091700003 0.89300001
-0.26980001 0.092 0.89600003
-0.2685 0.092100002 0.89700001
-0.2667 0.092 0.89600003
-0.2651 0.092 0.89600003
-0.26300001 0.091799997 0.89399999
-0.25659999 0.091200002 0.88800001
-0.25479999 0.0911 0.88700002
-0.25319999 0.0911 0.88700002
-0.25139999 0.090999998 0.88599998
-0.24959999 0.090899996 0.88499999
-0.2483 0.090999998 0.88599998
-0.24680001 0.090999998 0.88599998
-0.2394 0.0911 0.88700002
-0.2376 0.090999998 0.88599998
-0.23630001 0.0911 0.88700002
-0.2348 0.0911 0.88700002
-0.2332 0.0911 0.88700002
-0.2317 0.0911 0.88700002
-0.23019999 0.0911 0.88700002
-0.2286 0.0911 0.88700002
-0.22679999 0.090999998 0.88599998
-0.22499999 0.090899996 0.88499999
-0.19670001 0.085199997 0.82999998
-0.1943 0.0854 0.83200002
-0.17839999 0.0854 0.83200002
-0.177 0.0854 0.83200002
-0.1753 0.085299999 0.83099997
-0.1708 0.085199997 0.82999998
-0.1693 0.085199997 0.82999998
-0.1679 0.085199997 0.82999998
-0.16670001 0.085299999 0.83099997
-0.1652 0.085299999 0.83099997
-0.1636 0.085199997 0.82999998
-0.162 0.085100003 0.829
-0.1605 0.085100003 0.829
-0.1576 0.085100003 0.829
-0.15440001 0.084899999 0.82700002
-0.153 0.084899999 0.82700002
-0.1515 0.084899999 0.82700002
-0.1499 0.084799998 0.82599998
-0.1485 0.084799998 0.82599998
-0.1469 0.084700003 0.82499999
-0.1454 0.084700003 0.82499999
-0.1442 0.084799998 0.82599998
-0.1429 0.084899999 0.82700002
-0.1417 0.085000001 0.82800001
-0.14040001 0.085100003 0.829
-0.1391 0.085199997 0.82999998
-0.1366 0.0854 0.83200002
-0.1353 0.085500002 0.833
-0.134 0.085699998 0.83399999
-0.1327 0.0858 0.83499998
-0.1313 0.0858 0.83499998
-0.12970001 0.085699998 0.83399999
-0.12819999 0.085699998 0.83399999
-0.1268 0.085699998 0.83399999
-0.12549999 0.0858 0.83499998
-0.1212 0.0858 0.83499998
-0.12 0.086000003 0.83700001
-0.1184 0.085900001 0.83600003
-0.1167 0.085699998 0.83399999
-0.1151 0.085500002 0.833
-0.1135 0.0854 0.83200002
-0.1119 0.085299999 0.83099997
-0.1105 0.085299999 0.83099997
-0.1089 0.085199997 0.82999998
-0.1075 0.085199997 0.82999998
-0.106 0.085199997 0.82999998
-0.1046 0.085199997 0.82999998
-0.1032 0.085199997 0.82999998
-0.1019 0.085299999 0.83099997
-0.1003 0.085199997 0.82999998
-0.098999999 0.085299999 0.83099997
-0.097499996 0.085299999 0.83099997
-0.092399999 0.086000003 0.83700001
-0.090999998 0.086000003 0.83700001
-0.089299999 0.0858 0.83499998
-0.087899998 0.0858 0.83499998
-0.086400002 0.0858 0.83499998
-0.084899999 0.085699998 0.83399999
-0.083300002 0.085500002 0.833
-0.081799999 0.0854 0.83200002
-0.080300003 0.0854 0.83200002
-0.078900002 0.0854 0.83200002
-0.077600002 0.085500002 0.833
-0.076099999 0.085500002 0.833
-0.074699998 0.085500002 0.833
-0.073299997 0.085699998 0.83399999
-0.071900003 0.085699998 0.83399999
-0.070500001 0.0858 0.83499998
-0.0691 0.0858 0.83499998
-0.067599997 0.0858 0.83499998
-0.066200003 0.0858 0.83499998
-0.064800002 0.085900001 0.83600003
-0.0634 0.086000003 0.83700001
-0.061999999 0.086000003 0.83700001
-0.0605 0.085900001 0.83600003
-0.058899999 0.0858 0.83499998
-0.057500001 0.0858 0.83499998
-0.056000002 0.085699998 0.83399999
-0.054499999 0.085699998 0.83399999
-0.053100001 0.085699998 0.83399999
-0.0517 0.0858 0.83499998
-0.0502 0.0858 0.83499998
-0.048900001 0.085900001 0.83600003
-0.047499999 0.086000003 0.83700001
-0.046 0.086000003 0.83700001
-0.044500001 0.085900001 0.83600003
-0.043099999 0.085900001 0.83600003
-0.041700002 0.086000003 0.83700001
-0.040199999 0.086000003 0.83700001
-0.038800001 0.086099997 0.838
-0.037300002 0.086000003 0.83700001
-0.0309 0.092699997 0.903
-0.029300001 0.092699997 0.903
-0.0277 0.092699997 0.903
-0.0261 0.092500001 0.90100002
-0.024499999 0.092399999 0.89999998
-0.023 0.092500001 0.90100002
-0.0088 0.091600001 0.89200002
-0.0073000002 0.091499999 0.89099997
-0.0057999999 0.091700003 0.89300001
-0.0041999999 0.091899998 0.89499998
-0.0027000001 0.092299998 0.89899999
-0.0011 0.092500001 0.90100002
0.00039999999 0.092500001 0.90100002
0.0020000001 0.092399999 0.89999998
0.0035999999 0.092500001 0.90100002
0.0051000002 0.092500001 0.90100002
0.0066999998 0.092399999 0.89999998
0.0082 0.092500001 0.90100002
0.0098000001 0.092399999 0.89999998
0.0114 0.092500001 0.90100002
0.013 0.092699997 0.903
0.0208 0.092799999 0.90399998
0.022399999 0.092799999 0.90399998
0.0239 0.092699997 0.903
0.0255 0.092699997 0.903
0.027000001 0.092699997 0.903
0.0286 0.092699997 0.903
0.030200001 0.092699997 0.903
0.031800002 0.092799999 0.90399998
0.033300001 0.092799999 0.90399998
0.034899998 0.092799999 0.90399998
0.036400001 0.092699997 0.903
0.037999999 0.092699997 0.903
0.0396 0.092699997 0.903
0.041099999 0.092699997 0.903
0.042800002 0.092900001 0.90499997
0.044399999 0.092900001 0.90499997
0.045899998 0.092900001 0.90499997
0.047499999 0.092900001 0.90499997
0.0491 0.092900001 0.90499997
0.0506 0.092799999 0.90399998
0.052099999 0.092699997 0.903
0.0535 0.092500001 0.90100002
0.055 0.092399999 0.89999998
0.056499999 0.092200004 0.898
0.057999998 0.092200004 0.898
0.059500001 0.092100002 0.89700001
0.0612 0.092299998 0.89899999
0.062799998 0.092399999 0.89999998
0.064499997 0.092600003 0.90200001
0.066100001 0.092600003 0.90200001
0.067699999 0.092600003 0.90200001
0.069300003 0.092699997 0.903
0.070900001 0.092799999 0.90399998
0.072499998 0.092799999 0.90399998
0.074100003 0.092799999 0.90399998
0.075599998 0.092799999 0.90399998
0.077200003 0.092799999 0.90399998
0.078900002 0.092900001 0.90499997
0.080399998 0.092900001 0.90499997
0.082000002 0.092900001 0.90499997
0.0836 0.092900001 0.90499997
0.085000001 0.092799999 0.90399998
0.086599998 0.092799999 0.90399998
0.088299997 0.092900001 0.90499997
0.0898 0.092900001 0.90499997
0.091399997 0.092900001 0.90499997
0.093000002 0.092900001 0.90499997
0.094499998 0.092900001 0.90499997
0.096100003 0.092900001 0.90499997
0.097800002 0.093000002 0.90600002
0.099200003 0.092900001 0.90499997
0.1008 0.092900001 0.90499997
0.1025 0.093000002 0.90600002
0.104 0.092900001 0.90499997
0.1055 0.092900001 0.90499997
0.1073 0.093099996 0.90700001
0.1088 0.093000002 0.90600002
0.1105 0.093099996 0.90700001
0.1118 0.092900001 0.90499997
0.1132 0.092799999 0.90399998
0.1152 0.093099996 0.90700001
0.1168 0.093099996 0.90700001
0.1182 0.093000002 0.90600002
0.1198 0.093000002 0.90600002
0.1212 0.092900001 0.90499997
0.1241 0.092699997 0.903
0.12540001 0.092500001 0.90100002
0.1266 0.092299998 0.89899999
0.1278 0.092 0.89600003
0.1292 0.091899998 0.89499998
0.13070001 0.091899998 0.89499998
0.13259999 0.092100002 0.89700001
0.1346 0.092399999 0.89999998
0.1363 0.092500001 0.90100002
0.1382 0.092699997 0.903
0.14 0.092900001 0.90499997
0.1416 0.092900001 0.90499997
0.1432 0.092900001 0.90499997
0.14470001 0.092900001 0.90499997
0.1463 0.092900001 0.90499997
0.1477 0.092799999 0.90399998
0.14929999 0.092799999 0.90399998
0.1508 0.092799999 0.90399998
0.1522 0.092699997 0.903
0.1538 0.092699997 0.903
0.15539999 0.092699997 0.903
0.1568 0.092600003 0.90200001
0.15809999 0.092500001 0.90100002
0.1595 0.092399999 0.89999998
0.1609 0.092299998 0.89899999
0.16230001 0.092200004 0.898
0.1635 0.092 0.89600003
0.16500001 0.092 0.89600003
0.1671 0.092299998 0.89899999
0.1693 0.092600003 0.90200001
0.17120001 0.092799999 0.90399998
0.17299999 0.092900001 0.90499997
0.1749 0.093099996 0.90700001
0.17649999 0.093099996 0.90700001
0.1779 0.093000002 0.90600002
0.17919999 0.092900001 0.90499997
0.1804 0.092699997 0.903
0.1816 0.092500001 0.90100002
0.1831 0.092500001 0.90100002
0.1847 0.092500001 0.90100002
0.1865 0.092600003 0.90200001
0.18780001 0.092500001 0.90100002
-0.4082 0.092200004 0.88300002
-0.40709999 0.092299998 0.884
-0.40650001 0.092500001 0.88599998
-0.405 0.092500001 0.88599998
-0.35910001 0.090599999 0.86799997
-0.3583 0.093599997 0.89600003
-0.3443 0.092699997 0.88800001
-0.34240001 0.092600003 0.88700002
-0.34079999 0.092600003 0.88700002
-0.33930001 0.092600003 0.88700002
-0.3382 0.092699997 0.88800001
-0.33739999 0.092900001 0.88999999
-0.3362 0.093099996 0.89099997
-0.3369 0.093699999 0.89700001
-0.33649999 0.093999997 0.89999998
-0.31850001 0.092799999 0.889
-0.31459999 0.093099996 0.89099997
-0.30649999 0.092900001 0.88999999
-0.29730001 0.092900001 0.88999999
-0.2958 0.093500003 0.89499998
-0.29370001 0.093800001 0.898
-0.2852 0.092500001 0.88599998
-0.27320001 0.092600003 0.88700002
-0.27169999 0.092600003 0.88700002
-0.27039999 0.092699997 0.88800001
-0.26890001 0.092699997 0.88800001
-0.2683 0.093099996 0.89099997
-0.26730001 0.0933 0.89300001
-0.2658 0.0933 0.89300001
-0.26390001 0.093199998 0.89200002
-0.26210001 0.093099996 0.89099997
-0.26030001 0.092900001 0.88999999
-0.25839999 0.092799999 0.889
-0.25659999 0.092699997 0.88800001
-0.24959999 0.092399999 0.88499999
-0.2481 0.092399999 0.88499999
-0.2465 0.092399999 0.88499999
-0.245 0.092399999 0.88499999
-0.2419 0.092399999 0.88499999
-0.23729999 0.092399999 0.88499999
-0.236 0.092500001 0.88599998
-0.2317 0.092600003 0.88700002
-0.2299 0.092500001 0.88599998
-0.2286 0.092600003 0.88700002
-0.22480001 0.092299998 0.884
-0.19840001 0.086800002 0.83099997
-0.1883 0.086800002 0.83099997
-0.1868 0.086800002 0.83099997
-0.177 0.086900003 0.83200002
-0.16949999 0.086800002 0.83099997
-0.1681 0.086800002 0.83099997
-0.15620001 0.086599998 0.829
-0.15440001 0.086400002 0.82700002
-0.15279999 0.086300001 0.82599998
-0.1512 0.086199999 0.82499999
-0.1497 0.086199999 0.82499999
-0.1481 0.086099997 0.824
-0.14650001 0.085900001 0.82300001
-0.1453 0.086099997 0.824
-0.14399999 0.086199999 0.82499999
-0.1428 0.086300001 0.82599998
-0.1415 0.086400002 0.82700002
-0.139 0.086599998 0.829
-0.13770001 0.0867 0.82999998
-0.1364 0.086800002 0.83099997
-0.13510001 0.086900003 0.83200002
-0.1339 0.086999997 0.833
-0.13240001 0.086999997 0.833
-0.131 0.086999997 0.833
-0.1294 0.086900003 0.83200002
-0.1279 0.086900003 0.83200002
-0.1265 0.086900003 0.83200002
-0.1251 0.086900003 0.83200002
-0.1222 0.086900003 0.83200002
-0.1207 0.086900003 0.83200002
-0.118 0.086999997 0.833
-0.1164 0.086900003 0.83200002
-0.1148 0.086800002 0.83099997
-0.1134 0.086800002 0.83099997
-0.1118 0.0867 0.82999998
-0.1104 0.0867 0.82999998
-0.1089 0.0867 0.82999998
-0.1075 0.0867 0.82999998
-0.106 0.0867 0.82999998
-0.1046 0.0867 0.82999998
-0.1032 0.0867 0.82999998
-0.1017 0.0867 0.82999998
-0.1004 0.086800002 0.83099997
-0.098899998 0.0867 0.82999998
-0.097499996 0.086800002 0.83099997
-0.096199997 0.086900003 0.83200002
-0.093900003 0.087399997 0.83700001
-0.092500001 0.087499999 0.838
-0.089400001 0.087300003 0.83600003
-0.088 0.087300003 0.83600003
-0.086400002 0.087200001 0.83499998
-0.085000001 0.087200001 0.83499998
-0.083300002 0.086999997 0.833
-0.081900001 0.086999997 0.833
-0.080399998 0.086999997 0.833
-0.079099998 0.087099999 0.83399999
-0.076200001 0.087099999 0.83399999
-0.074699998 0.086999997 0.833
-0.073299997 0.087099999 0.83399999
-0.071900003 0.087099999 0.83399999
-0.0704 0.087099999 0.83399999
-0.068999998 0.087099999 0.83399999
-0.067500003 0.087099999 0.83399999
-0.066100001 0.087099999 0.83399999
-0.064599998 0.087099999 0.83399999
-0.063299999 0.087200001 0.83499998
-0.061900001 0.087300003 0.83600003
-0.060400002 0.087200001 0.83499998
-0.058899999 0.087099999 0.83399999
-0.057399999 0.087099999 0.83399999
-0.056000002 0.087099999 0.83399999
-0.054499999 0.087099999 0.83399999
-0.053100001 0.087200001 0.83499998
-0.0517 0.087200001 0.83499998
-0.0502 0.087200001 0.83499998
-0.048900001 0.087300003 0.83600003
-0.047499999 0.087399997 0.83700001
-0.046100002 0.087499999 0.838
-0.044599999 0.087499999 0.838
-0.043200001 0.087499999 0.838
-0.041700002 0.087499999 0.838
-0.0403 0.087499999 0.838
-0.038899999 0.0876 0.83899999
-0.0374 0.087700002 0.83999997
-0.0308 0.094099998 0.90100002
-0.029200001 0.094099998 0.90100002
-0.0277 0.094099998 0.90100002
-0.0261 0.093900003 0.89899999
-0.0244 0.093599997 0.89600003
-0.0229 0.093800001 0.898
-0.0057000001 0.093099996 0.89099997
-0.0041999999 0.0933 0.89300001
-0.0027000001 0.093699999 0.89700001
-0.0011 0.094099998 0.90100002
0.00039999999 0.0942 0.90200001
0.0020000001 0.094099998 0.90100002
0.0035999999 0.094099998 0.90100002
0.0051000002 0.094099998 0.90100002
0.0066999998 0.094099998 0.90100002
0.0082 0.0942 0.90200001
0.0098000001 0.094099998 0.90100002
0.0114 0.094099998 0.90100002
0.0207 0.094099998 0.90100002
0.0239 0.094300002 0.903
0.0255 0.094300002 0.903
0.027100001 0.094400004 0.90399998
0.0286 0.094400004 0.90399998
0.030200001 0.094499998 0.90499997
0.031800002 0.094499998 0.90499997
0.033399999 0.094599999 0.90600002
0.035 0.094700001 0.90700001
0.036600001 0.094599999 0.90600002
0.0381 0.094499998 0.90499997
0.0396 0.094499998 0.90499997
0.041200001 0.094499998 0.90499997
0.042800002 0.094499998 0.90499997
0.044399999 0.094499998 0.90499997
0.045899998 0.094499998 0.90499997
0.047499999 0.094499998 0.90499997
0.0491 0.094499998 0.90499997
0.0506 0.094400004 0.90399998
0.052099999 0.094300002 0.903
0.053599998 0.0942 0.90200001
0.055100001 0.094099998 0.90100002
0.056600001 0.093999997 0.89999998
0.0581 0.093999997 0.89999998
0.059599999 0.093900003 0.89899999
0.061299998 0.093999997 0.89999998
0.062899999 0.094099998 0.90100002
0.064599998 0.094300002 0.903
0.066200003 0.094300002 0.903
0.067699999 0.094300002 0.903
0.069399998 0.094400004 0.90399998
0.071000002 0.094499998 0.90499997
0.0726 0.094499998 0.90499997
0.074199997 0.094499998 0.90499997
0.0757 0.094499998 0.90499997
0.077299997 0.094499998 0.90499997
0.078900002 0.094499998 0.90499997
0.080399998 0.094499998 0.90499997
0.082000002 0.094499998 0.90499997
0.083499998 0.094400004 0.90399998
0.084899999 0.094300002 0.903
0.086499996 0.094300002 0.903
0.088200003 0.094400004 0.90399998
0.0898 0.094499998 0.90499997
0.091399997 0.094499998 0.90499997
0.093000002 0.094499998 0.90499997
0.094599999 0.094599999 0.90600002
0.096199997 0.094599999 0.90600002
0.097800002 0.094599999 0.90600002
0.099200003 0.094499998 0.90499997
0.1008 0.094499998 0.90499997
0.1025 0.094599999 0.90600002
0.104 0.094499998 0.90499997
0.1056 0.094599999 0.90600002
0.1073 0.094700001 0.90700001
0.109 0.094800003 0.90799999
0.1105 0.094700001 0.90700001
0.1119 0.094599999 0.90600002
0.1134 0.094499998 0.90499997
0.1152 0.094700001 0.90700001
0.1166 0.094599999 0.90600002
0.1181 0.094499998 0.90499997
0.1196 0.094499998 0.90499997
0.1212 0.094499998 0.90499997
0.1226 0.094400004 0.90399998
0.1241 0.094300002 0.903
0.12540001 0.094099998 0.90100002
0.1268 0.093999997 0.89999998
0.12809999 0.093800001 0.898
0.1295 0.093699999 0.89700001
0.131 0.093699999 0.89700001
0.1327 0.093800001 0.898
0.1346 0.093999997 0.89999998
0.1363 0.094099998 0.90100002
0.1382 0.094300002 0.903
0.1397 0.094300002 0.903
0.14129999 0.094300002 0.903
0.1427 0.0942 0.90200001
0.1441 0.094099998 0.90100002
0.14569999 0.094099998 0.90100002
0.14740001 0.0942 0.90200001
0.1488 0.094099998 0.90100002
0.1503 0.094099998 0.90100002
0.1521 0.0942 0.90200001
0.1538 0.094300002 0.903
0.1552 0.0942 0.90200001
0.1566 0.094099998 0.90100002
0.15800001 0.093999997 0.89999998
0.1594 0.093900003 0.89899999
0.16069999 0.093800001 0.898
0.1619 0.093599997 0.89600003
0.1635 0.093599997 0.89600003
0.16500001 0.093599997 0.89600003
0.1671 0.093900003 0.89899999
0.1693 0.0942 0.90200001
0.1714 0.094499998 0.90499997
0.1732 0.094599999 0.90600002
0.1749 0.094700001 0.90700001
0.1763 0.094599999 0.90600002
0.1779 0.094599999 0.90600002
0.17919999 0.094499998 0.90499997
0.1804 0.094300002 0.903
0.1816 0.094099998 0.90100002
0.1829 0.093999997 0.89999998
0.1847 0.094099998 0.90100002
0.18610001 0.093999997 0.89999998
0.1874 0.093900003 0.89899999
0.189 0.093900003 0.89899999
-0.41690001 0.093599997 0.88200003
-0.41119999 0.093699999 0.88300002
-0.4102 0.093900003 0.884
-0.3594 0.091799997 0.86500001
-0.35789999 0.091799997 0.86500001
-0.34279999 0.094300002 0.88800001
-0.3416 0.094400004 0.889
-0.34009999 0.094400004 0.889
-0.3389 0.094499998 0.88999999
-0.33739999 0.094499998 0.88999999
-0.3362 0.094599999 0.89099997
-0.33649999 0.095100001 0.89600003
-0.33649999 0.095600002 0.89999998
-0.3353 0.095700003 0.90100002
-0.33410001 0.095799997 0.90200001
-0.33289999 0.095899999 0.903
-0.32800001 0.095299996 0.898
-0.32229999 0.094599999 0.89099997
-0.31529999 0.094800003 0.89300001
-0.31479999 0.095100001 0.89600003
-0.31240001 0.095299996 0.898
-0.30239999 0.0942 0.88700002
-0.29660001 0.094300002 0.88800001
-0.29339999 0.095200002 0.89700001
-0.29120001 0.094999999 0.89499998
-0.28490001 0.093999997 0.88499999
-0.28150001 0.093900003 0.884
-0.27689999 0.093900003 0.884
-0.2735 0.094300002 0.88800001
-0.27169999 0.0942 0.88700002
-0.27039999 0.094300002 0.88800001
-0.2692 0.094400004 0.889
-0.2683 0.094599999 0.89099997
-0.26730001 0.094800003 0.89300001
-0.2658 0.094800003 0.89300001
-0.26359999 0.094599999 0.89099997
-0.26210001 0.094599999 0.89099997
-0.25839999 0.094400004 0.889
-0.25659999 0.094300002 0.88800001
-0.24959999 0.093999997 0.88499999
-0.2481 0.093999997 0.88499999
-0.2462 0.093900003 0.884
-0.2447 0.093900003 0.884
-0.2432 0.093900003 0.884
-0.23119999 0.093999997 0.88499999
-0.2296 0.093999997 0.88499999
-0.22579999 0.093599997 0.88200003
-0.2017 0.088399999 0.833
-0.2 0.088299997 0.83200002
-0.19859999 0.088299997 0.83200002
-0.1971 0.088299997 0.83200002
-0.19159999 0.088399999 0.833
-0.1899 0.088299997 0.83200002
-0.1868 0.088200003 0.83099997
-0.18539999 0.088200003 0.83099997
-0.1698 0.088299997 0.83200002
-0.1683 0.088299997 0.83200002
-0.1512 0.0876 0.82499999
-0.1496 0.087499999 0.824
-0.1479 0.087399997 0.82300001
-0.14650001 0.087399997 0.82300001
-0.1451 0.087399997 0.82300001
-0.14380001 0.087499999 0.824
-0.1426 0.0876 0.82499999
-0.14129999 0.087700002 0.82599998
-0.139 0.088 0.829
-0.1364 0.088200003 0.83099997
-0.13510001 0.088299997 0.83200002
-0.134 0.088500001 0.83399999
-0.13259999 0.088500001 0.83399999
-0.131 0.088399999 0.833
-0.1294 0.088299997 0.83200002
-0.1278 0.088200003 0.83099997
-0.12630001 0.088200003 0.83099997
-0.1249 0.088200003 0.83099997
-0.1235 0.088200003 0.83099997
-0.1219 0.088100001 0.82999998
-0.1204 0.088100001 0.82999998
-0.1191 0.088200003 0.83099997
-0.1177 0.088200003 0.83099997
-0.1163 0.088200003 0.83099997
-0.1148 0.088200003 0.83099997
-0.1132 0.088100001 0.82999998
-0.1117 0.088 0.829
-0.1102 0.088 0.829
-0.1088 0.088 0.829
-0.1074 0.088 0.829
-0.1059 0.088 0.829
-0.1045 0.088 0.829
-0.1032 0.088100001 0.82999998
-0.1019 0.088200003 0.83099997
-0.1004 0.088200003 0.83099997
-0.098999999 0.088200003 0.83099997
-0.097800002 0.088399999 0.833
-0.096299998 0.088399999 0.833
-0.094099998 0.089100003 0.83899999
-0.092699997 0.089100003 0.83899999
-0.091200002 0.089100003 0.83899999
-0.089500003 0.0889 0.83700001
-0.088100001 0.0889 0.83700001
-0.086400002 0.088600002 0.83499998
-0.085000001 0.088600002 0.83499998
-0.083400004 0.088500001 0.83399999
-0.082000002 0.088500001 0.83399999
-0.080600001 0.088600002 0.83499998
-0.079300001 0.088799998 0.83600003
-0.077799998 0.088799998 0.83600003
-0.076399997 0.088799998 0.83600003
-0.074900001 0.088600002 0.83499998
-0.073399998 0.088600002 0.83499998
-0.071999997 0.088600002 0.83499998
-0.0704 0.088500001 0.83399999
-0.0691 0.088600002 0.83499998
-0.067500003 0.088500001 0.83399999
-0.066 0.088399999 0.833
-0.064599998 0.088399999 0.833
-0.063100003 0.088399999 0.833
-0.0603 0.088500001 0.83399999
-0.058899999 0.088500001 0.83399999
-0.057300001 0.088399999 0.833
-0.056000002 0.088500001 0.83399999
-0.054499999 0.088500001 0.83399999
-0.053100001 0.088500001 0.83399999
-0.051600002 0.088500001 0.83399999
-0.0502 0.088600002 0.83499998
-0.048900001 0.088799998 0.83600003
-0.047499999 0.0889 0.83700001
-0.046100002 0.089000002 0.838
-0.0447 0.089100003 0.83899999
-0.043200001 0.089100003 0.83899999
-0.0418 0.089100003 0.83899999
-0.040399998 0.089199997 0.83999997
-0.038899999 0.089299999 0.84100002
-0.029200001 0.095600002 0.89999998
-0.0276 0.095600002 0.89999998
-0.026000001 0.095299996 0.898
-0.0244 0.095100001 0.89600003
-0.0229 0.095299996 0.898
-0.0073000002 0.094499998 0.88999999
-0.0057000001 0.094599999 0.89099997
-0.0041999999 0.094700001 0.89200002
-0.0027000001 0.095100001 0.89600003
-0.0011 0.095399998 0.89899999
0.00039999999 0.095600002 0.89999998
0.0020000001 0.095600002 0.89999998
0.0035999999 0.095600002 0.89999998
0.0051000002 0.095700003 0.90100002
0.0066999998 0.095700003 0.90100002
0.0082 0.095799997 0.90200001
0.0098000001 0.095700003 0.90100002
0.0207 0.095399998 0.89899999
0.022299999 0.095600002 0.89999998
0.023800001 0.095600002 0.89999998
0.0254 0.095700003 0.90100002
0.027000001 0.095799997 0.90200001
0.0286 0.095899999 0.903
0.030200001 0.096000001 0.90399998
0.0319 0.096299998 0.90700001
0.033500001 0.0964 0.90799999
0.035100002 0.0964 0.90799999
0.036600001 0.096299998 0.90700001
0.0381 0.096199997 0.90600002
0.0396 0.096100003 0.90499997
0.041299999 0.096199997 0.90600002
0.042800002 0.096100003 0.90499997
0.044399999 0.096100003 0.90499997
0.045899998 0.096100003 0.90499997
0.047499999 0.096100003 0.90499997
0.0491 0.096199997 0.90600002
0.0506 0.096100003 0.90499997
0.052099999 0.096000001 0.90399998
0.053599998 0.095899999 0.903
0.055100001 0.095799997 0.90200001
0.056600001 0.095700003 0.90100002
0.058200002 0.095700003 0.90100002
0.059799999 0.095700003 0.90100002
0.061299998 0.095700003 0.90100002
0.062899999 0.095700003 0.90100002
0.064599998 0.095899999 0.903
0.066200003 0.095899999 0.903
0.067699999 0.095899999 0.903
0.069399998 0.096100003 0.90499997
0.071000002 0.096100003 0.90499997
0.0726 0.096100003 0.90499997
0.074199997 0.096100003 0.90499997
0.0757 0.096100003 0.90499997
0.077299997 0.096100003 0.90499997
0.078900002 0.096100003 0.90499997
0.080399998 0.096100003 0.90499997
0.081900001 0.096000001 0.90399998
0.083400004 0.095899999 0.903
0.084899999 0.095899999 0.903
0.086499996 0.095899999 0.903
0.088100001 0.095899999 0.903
0.089699998 0.096000001 0.90399998
0.091300003 0.096000001 0.90399998
0.093000002 0.096100003 0.90499997
0.094599999 0.096199997 0.90600002
0.096299998 0.096299998 0.90700001
0.097900003 0.096299998 0.90700001
0.0995 0.096299998 0.90700001
0.1009 0.096199997 0.90600002
0.1025 0.096199997 0.90600002
0.1041 0.096199997 0.90600002
0.1056 0.096199997 0.90600002
0.1073 0.096299998 0.90700001
0.1089 0.096299998 0.90700001
0.1104 0.096199997 0.90600002
0.1118 0.096100003 0.90499997
0.1134 0.096100003 0.90499997
0.1149 0.096100003 0.90499997
0.1165 0.096100003 0.90499997
0.1181 0.096100003 0.90499997
0.1195 0.096000001 0.90399998
0.1211 0.096000001 0.90399998
0.1226 0.096000001 0.90399998
0.1239 0.095799997 0.90200001
0.12540001 0.095700003 0.90100002
0.1268 0.095600002 0.89999998
0.12819999 0.095399998 0.89899999
0.1296 0.095299996 0.898
0.1312 0.095299996 0.898
0.1329 0.095399998 0.89899999
0.1346 0.095600002 0.89999998
0.1363 0.095700003 0.90100002
0.138 0.095799997 0.90200001
0.1397 0.095899999 0.903
0.1425 0.095700003 0.90100002
0.14390001 0.095600002 0.89999998
0.14569999 0.095700003 0.90100002
0.1472 0.095700003 0.90100002
0.1488 0.095700003 0.90100002
0.15000001 0.095399998 0.89899999
0.15189999 0.095700003 0.90100002
0.15350001 0.095700003 0.90100002
0.1549 0.095600002 0.89999998
0.15620001 0.095399998 0.89899999
0.1576 0.095299996 0.898
0.1592 0.095299996 0.898
0.16060001 0.095200002 0.89700001
0.1619 0.095100001 0.89600003
0.1635 0.095100001 0.89600003
0.1652 0.095200002 0.89700001
0.1671 0.095399998 0.89899999
0.1691 0.095700003 0.90100002
0.171 0.095899999 0.903
0.17299999 0.096100003 0.90499997
0.1745 0.096100003 0.90499997
0.1761 0.096100003 0.90499997
0.1777 0.096100003 0.90499997
0.1802 0.095799997 0.90200001
0.1814 0.095600002 0.89999998
0.1829 0.095600002 0.89999998
0.18430001 0.095399998 0.89899999
0.1856 0.095299996 0.898
0.1868 0.095100001 0.89600003
0.1883 0.095100001 0.89600003
-0.3594 0.0933 0.86500001
-0.35789999 0.0933 0.86500001
-0.35800001 0.093800001 0.86900002
-0.3594 0.096100003 0.89099997
-0.3574 0.096000001 0.88999999
-0.3439 0.095700003 0.88700002
-0.34279999 0.095799997 0.88800001
-0.3416 0.095899999 0.889
-0.3405 0.096000001 0.88999999
-0.3389 0.096000001 0.88999999
-0.3378 0.096100003 0.89099997
-0.33660001 0.096199997 0.89200002
-0.3362 0.096600004 0.89499998
-0.33570001 0.096900001 0.898
-0.33489999 0.097099997 0.89999998
-0.3337 0.097199999 0.90100002
-0.3204 0.096000001 0.88999999
-0.31810001 0.095799997 0.88800001
-0.31659999 0.095799997 0.88800001
-0.31529999 0.0964 0.89300001
-0.31240001 0.096900001 0.898
-0.3091 0.0964 0.89300001
-0.30500001 0.096000001 0.88999999
-0.29589999 0.095600002 0.88599998
-0.2947 0.095700003 0.88700002
-0.29350001 0.095799997 0.88800001
-0.28740001 0.095799997 0.88800001
-0.2735 0.095799997 0.88800001
-0.27200001 0.095799997 0.88800001
-0.27039999 0.095799997 0.88800001
-0.26890001 0.095799997 0.88800001
-0.26800001 0.096000001 0.88999999
-0.2667 0.096100003 0.89099997
-0.26519999 0.096100003 0.89099997
-0.2633 0.096000001 0.88999999
-0.26179999 0.096000001 0.88999999
-0.25870001 0.096000001 0.88999999
-0.25690001 0.095899999 0.889
-0.2493 0.095399998 0.884
-0.24779999 0.095399998 0.884
-0.2462 0.095399998 0.884
-0.24420001 0.095200002 0.88200003
-0.24259999 0.095200002 0.88200003
-0.2307 0.095299996 0.88300002
-0.2286 0.095100001 0.88099998
-0.22660001 0.094800003 0.87900001
-0.2235 0.0942 0.87300003
-0.2036 0.090099998 0.83499998
-0.2017 0.089900002 0.833
-0.20029999 0.089900002 0.833
-0.1899 0.0898 0.83200002
-0.1883 0.089699998 0.83099997
-0.1868 0.089699998 0.83099997
-0.18520001 0.089599997 0.82999998
-0.177 0.0898 0.83200002
-0.171 0.089699998 0.83099997
-0.17 0.089900002 0.833
-0.16869999 0.090000004 0.83399999
-0.1679 0.090300001 0.83700001
-0.1664 0.090300001 0.83700001
-0.153 0.089199997 0.82700002
-0.1497 0.089000002 0.82499999
-0.1463 0.088699996 0.82200003
-0.1451 0.088799998 0.82300001
-0.14380001 0.0889 0.824
-0.1424 0.0889 0.824
-0.14120001 0.089000002 0.82499999
-0.1363 0.089599997 0.82999998
-0.13510001 0.0898 0.83200002
-0.1347 0.090400003 0.838
-0.1329 0.0902 0.83600003
-0.1311 0.090000004 0.83399999
-0.1294 0.0898 0.83200002
-0.1279 0.0898 0.83200002
-0.12630001 0.089699998 0.83099997
-0.1249 0.089699998 0.83099997
-0.1233 0.089599997 0.82999998
-0.1219 0.089599997 0.82999998
-0.1204 0.089599997 0.82999998
-0.119 0.089599997 0.82999998
-0.1176 0.089599997 0.82999998
-0.1161 0.089599997 0.82999998
-0.1147 0.089599997 0.82999998
-0.1131 0.089400001 0.829
-0.1117 0.089400001 0.829
-0.1101 0.089299999 0.82800001
-0.1087 0.089299999 0.82800001
-0.1072 0.089299999 0.82800001
-0.1059 0.089400001 0.829
-0.1045 0.089400001 0.829
-0.1032 0.089599997 0.82999998
-0.1019 0.089699998 0.83099997
-0.1004 0.089699998 0.83099997
-0.099100001 0.0898 0.83200002
-0.097800002 0.089900002 0.833
-0.0964 0.090000004 0.83399999
-0.095200002 0.0902 0.83600003
-0.0942 0.090599999 0.83999997
-0.092799999 0.090599999 0.83999997
-0.091200002 0.090499997 0.83899999
-0.089500003 0.090300001 0.83700001
-0.087899998 0.090099998 0.83499998
-0.086400002 0.090099998 0.83499998
-0.085000001 0.090099998 0.83499998
-0.083400004 0.090000004 0.83399999
-0.082000002 0.090000004 0.83399999
-0.080600001 0.090099998 0.83499998
-0.079400003 0.090300001 0.83700001
-0.078000002 0.090400003 0.838
-0.076700002 0.090499997 0.83899999
-0.075099997 0.090400003 0.838
-0.073600002 0.090300001 0.83700001
-0.072099999 0.090300001 0.83700001
-0.070600003 0.0902 0.83600003
-0.069200002 0.090300001 0.83700001
-0.067599997 0.090099998 0.83499998
-0.066100001 0.090000004 0.83399999
-0.064599998 0.089900002 0.833
-0.063199997 0.090000004 0.83399999
-0.061799999 0.090099998 0.83499998
-0.0603 0.090000004 0.83399999
-0.058800001 0.089900002 0.833
-0.057300001 0.089900002 0.833
-0.0559 0.089900002 0.833
-0.054499999 0.090000004 0.83399999
-0.053100001 0.090099998 0.83499998
-0.0517 0.090099998 0.83499998
-0.0502 0.090099998 0.83499998
-0.048900001 0.090300001 0.83700001
-0.047499999 0.090400003 0.838
-0.0462 0.090599999 0.83999997
-0.0447 0.090599999 0.83999997
-0.043299999 0.090599999 0.83999997
-0.0418 0.090599999 0.83999997
-0.040399998 0.090700001 0.84100002
-0.039000001 0.090899996 0.84200001
-0.029100001 0.096699998 0.89600003
-0.0275 0.096699998 0.89600003
-0.025900001 0.096600004 0.89499998
-0.0244 0.096600004 0.89499998
-0.0229 0.096900001 0.898
-0.0057999999 0.0964 0.89300001
-0.0041999999 0.096600004 0.89499998
-0.0027000001 0.096900001 0.898
-0.0011 0.097099997 0.89999998
0.00039999999 0.097099997 0.89999998
