ply
format ascii 1.0
comment PCL generated
element vertex 1477
property float x
property float y
property float z
element camera 0
property float view_px
property float view_py
property float view_pz
property float x_axisx
property float x_axisy
property float x_axisz
property float y_axisx
property float y_axisy
property float y_axisz
property float z_axisx
property float z_axisy
property float z_axisz
property float focal
property float scalex
property float scaley
property float centerx
property float centery
property int viewportx
property int viewporty
property float k1
property float k2
end_header
0.00039999999 -0.055300001 0.89300001
0.0020000001 -0.055300001 0.89300001
0.0035000001 -0.055300001 0.89300001
0.0051000002 -0.055300001 0.89200002
0.0066 -0.055300001 0.89200002
0.0082 -0.055300001 0.89200002
0.0097000003 -0.055300001 0.89200002
0.0112 -0.055199999 0.89099997
0.0128 -0.055199999 0.89099997
0.0143 -0.055199999 0.89099997
0.015900001 -0.055199999 0.89099997
0.0174 -0.055199999 0.89099997
0.018999999 -0.055300001 0.89200002
0.020500001 -0.055300001 0.89300001
0.0221 -0.055300001 0.89300001
0.023700001 -0.055399999 0.89399999
0.0252 -0.055399999 0.89499998
0.026799999 -0.055500001 0.89600003
0.0284 -0.055500001 0.89600003
0.029899999 -0.055500001 0.89600003
0.031500001 -0.055399999 0.89499998
0.033 -0.055399999 0.89499998
0.034499999 -0.055300001 0.89300001
0.035999998 -0.055300001 0.89200002
0.037500001 -0.055199999 0.89099997
0.039000001 -0.055199999 0.89099997
0.040600002 -0.055199999 0.89099997
0.042100001 -0.055199999 0.89099997
0.043699998 -0.055199999 0.89099997
0.046700001 -0.055100001 0.88999999
0.048099998 -0.055 0.88800001
0.049600001 -0.054900002 0.88700002
0.0528 -0.055 0.88800001
0.054400001 -0.055100001 0.889
0.056000002 -0.055100001 0.88999999
0.057599999 -0.055300001 0.89200002
0.059300002 -0.055399999 0.89399999
0.060899999 -0.055399999 0.89399999
0.0623 -0.055300001 0.89300001
0.063699998 -0.055199999 0.89099997
0.066600002 -0.055 0.88800001
0.068099998 -0.055 0.88800001
0.069700003 -0.055 0.88800001
0.0713 -0.055100001 0.889
0.072899997 -0.055100001 0.88999999
0.074699998 -0.055300001 0.89300001
0.076399997 -0.055399999 0.89399999
0.078000002 -0.055399999 0.89499998
0.079599999 -0.055500001 0.89600003
0.081200004 -0.055500001 0.89600003
0.082599998 -0.055399999 0.89499998
0.084200002 -0.055399999 0.89499998
0.085600004 -0.055300001 0.89300001
0.086900003 -0.055199999 0.89099997
0.088299997 -0.055100001 0.88999999
0.089900002 -0.055100001 0.88999999
0.091300003 -0.055100001 0.889
0.093000002 -0.055100001 0.88999999
0.094599999 -0.055199999 0.89099997
0.0964 -0.055300001 0.89300001
0.098300003 -0.055500001 0.89600003
0.1 -0.055599999 0.898
0.1016 -0.055599999 0.898
0.1032 -0.055599999 0.898
0.1046 -0.055599999 0.89700001
0.106 -0.055500001 0.89600003
0.1076 -0.055500001 0.89600003
0.109 -0.055399999 0.89499998
0.1107 -0.055500001 0.89600003
0.1122 -0.055500001 0.89600003
0.1138 -0.055500001 0.89600003
0.1152 -0.055399999 0.89499998
0.1168 -0.055399999 0.89499998
0.1183 -0.055399999 0.89499998
0.1197 -0.055399999 0.89399999
0.121 -0.055300001 0.89200002
0.1224 -0.055199999 0.89099997
0.1238 -0.055100001 0.88999999
0.1251 -0.055 0.88800001
0.1266 -0.055 0.88800001
0.12819999 -0.055 0.88800001
0.12970001 -0.055 0.88800001
0.1312 -0.055 0.88800001
0.1328 -0.055 0.88800001
0.13429999 -0.055 0.88800001
0.13590001 -0.055 0.88800001
0.1372 -0.054900002 0.88700002
0.1388 -0.054900002 0.88700002
0.14030001 -0.054900002 0.88700002
0.1419 -0.054900002 0.88700002
0.1436 -0.055 0.88800001
0.1451 -0.055 0.88800001
0.14659999 -0.055 0.88800001
0.14820001 -0.055 0.88800001
0.1497 -0.055 0.88800001
0.1513 -0.055 0.88800001
0.15279999 -0.055 0.88800001
0.1576 -0.055100001 0.889
0.1626 -0.055199999 0.89099997
0.16599999 -0.055300001 0.89300001
0.1672 -0.055199999 0.89099997
0.16869999 -0.055199999 0.89099997
0.17030001 -0.055199999 0.89099997
0.1716 -0.055100001 0.88999999
0.1734 -0.055199999 0.89099997
0.1749 -0.055199999 0.89099997
0.1771 -0.055399999 0.89399999
0.1798 -0.055799998 0.89999998
-0.3876 -0.052900001 0.87800002
-0.38519999 -0.052700002 0.87599999
-0.38319999 -0.052700002 0.875
-0.3813 -0.0526 0.87400001
-0.3793 -0.0526 0.87300003
-0.37830001 -0.0526 0.87400001
-0.3673 -0.053199999 0.884
-0.36570001 -0.053199999 0.884
-0.3646 -0.053300001 0.88499999
-0.36309999 -0.053300001 0.88499999
-0.36109999 -0.053199999 0.884
-0.34150001 -0.0526 0.87300003
-0.34 -0.0526 0.87300003
-0.3328 -0.0526 0.87400001
-0.32519999 -0.053100001 0.88200003
-0.32359999 -0.053100001 0.88200003
-0.32249999 -0.053199999 0.88300002
-0.3206 -0.053100001 0.88200003
-0.31909999 -0.053100001 0.88200003
-0.3168 -0.052999999 0.88
-0.31459999 -0.052900001 0.87800002
-0.2286 -0.052999999 0.88099998
-0.2271 -0.052999999 0.88099998
-0.22579999 -0.053100001 0.88200003
-0.22400001 -0.052999999 0.88099998
-0.2225 -0.052999999 0.88099998
-0.2212 -0.053100001 0.88200003
-0.21969999 -0.053100001 0.88200003
-0.2182 -0.053100001 0.88200003
-0.21690001 -0.053199999 0.88300002
-0.2156 -0.053199999 0.884
-0.213 -0.053300001 0.88599998
-0.2102 -0.053399999 0.88700002
-0.2071 -0.053399999 0.88700002
-0.2053 -0.053300001 0.88599998
-0.2036 -0.053300001 0.88499999
-0.2018 -0.053199999 0.884
-0.20029999 -0.053199999 0.884
-0.19850001 -0.053199999 0.88300002
-0.19679999 -0.053100001 0.88200003
-0.1955 -0.053199999 0.88300002
-0.1939 -0.053199999 0.88300002
-0.19239999 -0.053199999 0.88300002
-0.19069999 -0.053100001 0.88200003
-0.18889999 -0.052999999 0.88099998
-0.1876 -0.053100001 0.88200003
-0.18610001 -0.053100001 0.88200003
-0.18449999 -0.053100001 0.88200003
-0.18279999 -0.052999999 0.88099998
-0.1815 -0.053100001 0.88200003
-0.18000001 -0.053100001 0.88200003
-0.1786 -0.053199999 0.88300002
-0.1771 -0.053199999 0.88300002
-0.17560001 -0.053199999 0.88300002
-0.17380001 -0.053100001 0.88200003
-0.1723 -0.053100001 0.88200003
-0.1706 -0.052999999 0.88099998
-0.16869999 -0.052900001 0.87900001
-0.1481 -0.049600001 0.824
-0.14669999 -0.049600001 0.824
-0.1451 -0.049600001 0.82300001
-0.1437 -0.049600001 0.82300001
-0.1424 -0.049600001 0.824
-0.14120001 -0.049699999 0.82499999
-0.1397 -0.049699999 0.82499999
-0.1381 -0.049600001 0.824
-0.13689999 -0.049699999 0.82499999
-0.1354 -0.049699999 0.82499999
-0.13429999 -0.049800001 0.82700002
-0.1327 -0.049699999 0.82599998
-0.1313 -0.049699999 0.82599998
-0.1296 -0.049600001 0.824
-0.12809999 -0.049600001 0.824
-0.1267 -0.049600001 0.824
-0.12530001 -0.049600001 0.824
-0.124 -0.049699999 0.82499999
-0.1226 -0.049699999 0.82499999
-0.1213 -0.049699999 0.82599998
-0.1201 -0.049899999 0.82800001
-0.1189 -0.049899999 0.829
-0.1176 -0.050000001 0.82999998
-0.116 -0.049899999 0.829
-0.1147 -0.050000001 0.82999998
-0.1132 -0.050000001 0.82999998
-0.1118 -0.050000001 0.82999998
-0.1104 -0.050000001 0.82999998
-0.1091 -0.050000001 0.83099997
-0.1077 -0.050099999 0.83200002
-0.099299997 -0.0502 0.83399999
-0.097900003 -0.0502 0.83399999
-0.096299998 -0.0502 0.833
-0.093900003 -0.0504 0.83700001
-0.092699997 -0.050500002 0.83899999
-0.091200002 -0.050500002 0.83899999
-0.085100003 -0.051199999 0.85100001
-0.086000003 -0.052700002 0.875
-0.085100003 -0.052999999 0.88099998
-0.083800003 -0.053199999 0.884
-0.082400002 -0.053300001 0.88499999
-0.080899999 -0.053300001 0.88499999
-0.079400003 -0.053300001 0.88599998
-0.078199998 -0.0535 0.889
-0.077 -0.053800002 0.89300001
-0.075800002 -0.054099999 0.898
-0.0744 -0.054099999 0.89899999
-0.0726 -0.054000001 0.89700001
-0.070900001 -0.0539 0.89499998
-0.069200002 -0.053800002 0.89300001
-0.067400001 -0.053599998 0.88999999
-0.065800004 -0.0535 0.88800001
-0.064099997 -0.053399999 0.88700002
-0.0625 -0.053300001 0.88599998
-0.061000001 -0.053300001 0.88599998
-0.059500001 -0.053300001 0.88599998
-0.057999998 -0.053399999 0.88700002
-0.056499999 -0.053399999 0.88700002
-0.054900002 -0.053399999 0.88700002
-0.053399999 -0.0535 0.88800001
-0.051899999 -0.0535 0.88800001
-0.0504 -0.0535 0.889
-0.048900001 -0.053599998 0.88999999
-0.047400001 -0.053599998 0.88999999
-0.0458 -0.053599998 0.88999999
-0.044300001 -0.053599998 0.88999999
-0.042800002 -0.053599998 0.88999999
-0.041200001 -0.053599998 0.88999999
-0.039700001 -0.053599998 0.89099997
-0.038199998 -0.053599998 0.89099997
-0.036600001 -0.053599998 0.88999999
-0.035100002 -0.053599998 0.89099997
-0.033500001 -0.053599998 0.89099997
-0.032000002 -0.0537 0.89200002
-0.0305 -0.0537 0.89200002
-0.028899999 -0.053599998 0.89099997
-0.0274 -0.053599998 0.89099997
-0.025900001 -0.053800002 0.89300001
-0.0243 -0.053800002 0.89300001
-0.0228 -0.053800002 0.89399999
-0.021199999 -0.053800002 0.89300001
-0.0197 -0.053800002 0.89300001
-0.018100001 -0.0537 0.89200002
-0.0166 -0.053599998 0.89099997
-0.015 -0.053599998 0.89099997
-0.0135 -0.053599998 0.89099997
-0.0119 -0.053599998 0.88999999
-0.0104 -0.053599998 0.89099997
-0.0088 -0.0537 0.89200002
-0.0073000002 -0.053800002 0.89300001
-0.0057999999 -0.053800002 0.89399999
-0.0041999999 -0.053800002 0.89399999
-0.0027000001 -0.053800002 0.89399999
-0.0011 -0.053800002 0.89399999
0.00039999999 -0.053800002 0.89300001
0.0020000001 -0.053800002 0.89300001
0.0035000001 -0.053800002 0.89300001
0.0051000002 -0.053800002 0.89399999
0.0066 -0.053800002 0.89300001
0.0082 -0.053800002 0.89300001
0.0097000003 -0.053800002 0.89300001
0.0113 -0.053800002 0.89300001
0.0128 -0.053800002 0.89300001
0.0144 -0.053800002 0.89300001
0.015900001 -0.053800002 0.89300001
0.0175 -0.053800002 0.89300001
0.018999999 -0.053800002 0.89300001
0.020500001 -0.053800002 0.89300001
0.0221 -0.053800002 0.89300001
0.023700001 -0.053800002 0.89399999
0.0252 -0.0539 0.89499998
0.026799999 -0.053800002 0.89399999
0.0283 -0.053800002 0.89399999
0.029899999 -0.053800002 0.89399999
0.031399999 -0.053800002 0.89399999
0.032900002 -0.053800002 0.89300001
0.034400001 -0.0537 0.89200002
0.035999998 -0.0537 0.89200002
0.037500001 -0.053599998 0.89099997
0.039099999 -0.0537 0.89200002
0.040600002 -0.053599998 0.89099997
0.042100001 -0.053599998 0.89099997
0.043699998 -0.053599998 0.89099997
0.045200001 -0.053599998 0.89099997
0.046700001 -0.053599998 0.88999999
0.0482 -0.0535 0.889
0.049600001 -0.053399999 0.88700002
0.051199999 -0.053399999 0.88700002
0.0528 -0.0535 0.88800001
0.054299999 -0.0535 0.88800001
0.059099998 -0.053599998 0.89099997
0.062199999 -0.053599998 0.89099997
0.063699998 -0.053599998 0.88999999
0.065099999 -0.0535 0.88800001
0.066600002 -0.0535 0.88800001
0.068099998 -0.0535 0.88800001
0.069700003 -0.0535 0.88800001
0.071199998 -0.0535 0.88800001
0.072899997 -0.053599998 0.88999999
0.074699998 -0.053800002 0.89300001
0.076399997 -0.0539 0.89499998
0.078199998 -0.054000001 0.89700001
0.079800002 -0.054099999 0.898
0.084299996 -0.054000001 0.89600003
0.085600004 -0.053800002 0.89399999
0.086999997 -0.0537 0.89200002
0.088399999 -0.053599998 0.89099997
0.089900002 -0.053599998 0.88999999
0.091399997 -0.053599998 0.88999999
0.093000002 -0.053599998 0.88999999
0.094700001 -0.0537 0.89200002
0.096500002 -0.053800002 0.89399999
0.098399997 -0.054000001 0.89700001
0.1 -0.054099999 0.898
0.1015 -0.054000001 0.89700001
0.1029 -0.054000001 0.89600003
0.1044 -0.0539 0.89499998
0.1058 -0.053800002 0.89399999
0.1072 -0.053800002 0.89300001
0.1088 -0.053800002 0.89300001
0.1103 -0.053800002 0.89300001
0.1121 -0.0539 0.89499998
0.1137 -0.0539 0.89499998
0.1152 -0.0539 0.89499998
0.1168 -0.0539 0.89499998
0.1183 -0.0539 0.89499998
0.1199 -0.0539 0.89499998
0.1211 -0.053800002 0.89300001
0.1224 -0.053599998 0.89099997
0.1238 -0.053599998 0.88999999
0.1252 -0.0535 0.889
0.1268 -0.0535 0.889
0.1283 -0.0535 0.889
0.13 -0.053599998 0.88999999
0.1314 -0.0535 0.889
0.1328 -0.0535 0.88800001
0.1345 -0.0535 0.889
0.13590001 -0.0535 0.88800001
0.1374 -0.0535 0.88800001
0.1388 -0.053399999 0.88700002
0.14030001 -0.053399999 0.88700002
0.1419 -0.053399999 0.88700002
0.1436 -0.0535 0.88800001
0.1451 -0.0535 0.88800001
0.14659999 -0.0535 0.88800001
0.14820001 -0.0535 0.88800001
0.1499 -0.0535 0.889
0.1514 -0.0535 0.889
0.1626 -0.053599998 0.89099997
0.16429999 -0.0537 0.89200002
0.16599999 -0.053800002 0.89300001
0.1672 -0.053599998 0.89099997
0.16859999 -0.053599998 0.88999999
0.1701 -0.053599998 0.88999999
0.1716 -0.053599998 0.88999999
0.1732 -0.053599998 0.88999999
0.17470001 -0.053599998 0.88999999
0.17649999 -0.053599998 0.89099997
0.1788 -0.0539 0.89499998
-0.38850001 -0.0515 0.88
-0.38699999 -0.0515 0.88
-0.38499999 -0.051399998 0.87900001
-0.38299999 -0.0513 0.87800002
-0.38069999 -0.051199999 0.87599999
-0.36770001 -0.051800001 0.88499999
-0.36570001 -0.0517 0.884
-0.36379999 -0.051600002 0.88300002
-0.3619 -0.051600002 0.88200003
-0.35949999 -0.0515 0.88
-0.33919999 -0.050900001 0.87099999
-0.33090001 -0.051100001 0.87300003
-0.32519999 -0.051600002 0.88200003
-0.324 -0.051600002 0.88300002
-0.32249999 -0.051600002 0.88300002
-0.3206 -0.051600002 0.88200003
-0.31909999 -0.051600002 0.88200003
-0.31639999 -0.051399998 0.87900001
-0.31420001 -0.0513 0.87699997
-0.31299999 -0.0513 0.87800002
-0.23010001 -0.0515 0.88099998
-0.2286 -0.0515 0.88099998
-0.2273 -0.051600002 0.88200003
-0.22579999 -0.051600002 0.88200003
-0.2243 -0.051600002 0.88200003
-0.2228 -0.051600002 0.88200003
-0.2212 -0.051600002 0.88200003
-0.21969999 -0.051600002 0.88200003
-0.2184 -0.051600002 0.88300002
-0.21709999 -0.0517 0.884
-0.2156 -0.0517 0.884
-0.213 -0.051800001 0.88599998
-0.2069 -0.051800001 0.88599998
-0.2053 -0.051800001 0.88599998
-0.2036 -0.051800001 0.88499999
-0.2018 -0.0517 0.884
-0.20029999 -0.0517 0.884
-0.1987 -0.0517 0.884
-0.197 -0.051600002 0.88300002
-0.1955 -0.051600002 0.88300002
-0.19220001 -0.051600002 0.88200003
-0.1904 -0.0515 0.88099998
-0.18889999 -0.0515 0.88099998
-0.1876 -0.051600002 0.88200003
-0.18610001 -0.051600002 0.88200003
-0.1847 -0.051600002 0.88300002
-0.183 -0.051600002 0.88200003
-0.18170001 -0.051600002 0.88300002
-0.1802 -0.051600002 0.88300002
-0.1786 -0.051600002 0.88300002
-0.1769 -0.051600002 0.88200003
-0.1754 -0.051600002 0.88200003
-0.1736 -0.0515 0.88099998
-0.1719 -0.0515 0.88
-0.17 -0.0513 0.87800002
-0.1681 -0.051199999 0.87599999
-0.1513 -0.048300002 0.82599998
-0.1496 -0.0482 0.824
-0.1479 -0.048099998 0.82300001
-0.14650001 -0.048099998 0.82300001
-0.14489999 -0.048099998 0.82200003
-0.1435 -0.048099998 0.82200003
-0.14219999 -0.048099998 0.82300001
-0.141 -0.0482 0.824
-0.13940001 -0.048099998 0.82300001
-0.138 -0.048099998 0.82300001
-0.13689999 -0.0482 0.82499999
-0.1356 -0.048300002 0.82599998
-0.1345 -0.0484 0.82800001
-0.1329 -0.0484 0.82700002
-0.13150001 -0.0484 0.82700002
-0.12989999 -0.048300002 0.82599998
-0.1284 -0.048300002 0.82599998
-0.1269 -0.0482 0.82499999
-0.12540001 -0.0482 0.82499999
-0.124 -0.0482 0.82499999
-0.1226 -0.0482 0.82499999
-0.1213 -0.048300002 0.82599998
-0.12 -0.0484 0.82700002
-0.1187 -0.0484 0.82800001
-0.1174 -0.048500001 0.829
-0.116 -0.048500001 0.829
-0.1147 -0.048500001 0.82999998
-0.1132 -0.048500001 0.82999998
-0.1117 -0.048500001 0.829
-0.1102 -0.048500001 0.829
-0.1089 -0.048500001 0.82999998
-0.1076 -0.048599999 0.83099997
-0.1062 -0.048599999 0.83099997
-0.1046 -0.048500001 0.82999998
-0.1032 -0.048500001 0.82999998
-0.1004 -0.048599999 0.83099997
-0.097499996 -0.048599999 0.83099997
-0.094800003 -0.048700001 0.83200002
-0.0933 -0.048700001 0.83200002
-0.092100002 -0.048799999 0.83399999
-0.090700001 -0.048799999 0.83399999
-0.089199997 -0.048799999 0.83399999
-0.084399998 -0.051100001 0.87400001
-0.0836 -0.0515 0.88099998
-0.0823 -0.0517 0.884
-0.080899999 -0.051800001 0.88499999
-0.079499997 -0.051899999 0.88700002
-0.078199998 -0.052000001 0.88999999
-0.077 -0.052200001 0.89300001
-0.0757 -0.0524 0.89600003
-0.074199997 -0.052499998 0.89700001
-0.072499998 -0.052299999 0.89499998
-0.070799999 -0.052299999 0.89399999
-0.0691 -0.052200001 0.89200002
-0.067400001 -0.052000001 0.88999999
-0.065800004 -0.052000001 0.889
-0.064199999 -0.051899999 0.88800001
-0.062600002 -0.051899999 0.88700002
-0.061099999 -0.051899999 0.88700002
-0.059500001 -0.051800001 0.88599998
-0.057999998 -0.051899999 0.88700002
-0.056499999 -0.051899999 0.88800001
-0.054900002 -0.051899999 0.88700002
-0.053399999 -0.051899999 0.88800001
-0.052000001 -0.052000001 0.889
-0.050500002 -0.052000001 0.88999999
-0.048900001 -0.052000001 0.88999999
-0.047400001 -0.052099999 0.89099997
-0.0458 -0.052000001 0.88999999
-0.044300001 -0.052000001 0.88999999
-0.042800002 -0.052000001 0.88999999
-0.041200001 -0.052000001 0.88999999
-0.039700001 -0.052099999 0.89099997
-0.038199998 -0.052099999 0.89099997
-0.036600001 -0.052000001 0.88999999
-0.035100002 -0.052099999 0.89099997
-0.033500001 -0.052099999 0.89099997
-0.032000002 -0.052099999 0.89099997
-0.0305 -0.052099999 0.89099997
-0.028899999 -0.052000001 0.88999999
-0.0273 -0.052000001 0.889
-0.025800001 -0.052000001 0.88999999
-0.0243 -0.052000001 0.88999999
-0.022700001 -0.052099999 0.89099997
-0.021199999 -0.052099999 0.89099997
-0.0196 -0.052099999 0.89099997
-0.018100001 -0.052000001 0.88999999
-0.0165 -0.052000001 0.88999999
-0.015 -0.052000001 0.88999999
-0.0135 -0.052000001 0.88999999
-0.0119 -0.052000001 0.88999999
-0.0104 -0.052099999 0.89099997
-0.0088 -0.052099999 0.89099997
-0.0073000002 -0.052200001 0.89300001
-0.0057999999 -0.052299999 0.89499998
-0.0041999999 -0.052299999 0.89499998
-0.0027000001 -0.052299999 0.89499998
-0.0011 -0.052299999 0.89499998
0.00039999999 -0.052299999 0.89499998
0.0020000001 -0.052299999 0.89499998
0.0035000001 -0.052299999 0.89499998
0.0051000002 -0.052299999 0.89499998
0.0066 -0.052299999 0.89399999
0.0082 -0.052200001 0.89300001
0.0097000003 -0.052200001 0.89300001
0.0113 -0.052200001 0.89300001
0.0128 -0.052200001 0.89300001
0.0144 -0.052200001 0.89300001
0.015900001 -0.052200001 0.89300001
0.0175 -0.052200001 0.89300001
0.018999999 -0.052200001 0.89300001
0.020500001 -0.052200001 0.89300001
0.0221 -0.052200001 0.89300001
0.023700001 -0.052299999 0.89399999
0.0252 -0.052299999 0.89399999
0.026699999 -0.052200001 0.89300001
0.0283 -0.052200001 0.89300001
0.0298 -0.052200001 0.89300001
0.031399999 -0.052200001 0.89300001
0.032900002 -0.052200001 0.89300001
0.034400001 -0.052200001 0.89200002
0.0359 -0.052099999 0.89099997
0.037500001 -0.052200001 0.89200002
0.039099999 -0.052200001 0.89300001
0.0407 -0.052200001 0.89300001
0.042199999 -0.052200001 0.89200002
0.043699998 -0.052200001 0.89200002
0.045299999 -0.052200001 0.89300001
0.046799999 -0.052200001 0.89200002
0.0482 -0.052000001 0.88999999
0.049699999 -0.051899999 0.88800001
0.0513 -0.052000001 0.889
0.052900001 -0.052000001 0.88999999
0.054400001 -0.052000001 0.88999999
0.056000002 -0.052000001 0.88999999
0.060699999 -0.052099999 0.89099997
0.062100001 -0.052000001 0.88999999
0.063600004 -0.052000001 0.889
0.065099999 -0.051899999 0.88800001
0.066600002 -0.051899999 0.88800001
0.068099998 -0.051899999 0.88700002
0.069600001 -0.051899999 0.88700002
0.071199998 -0.051899999 0.88800001
0.072899997 -0.052000001 0.88999999
0.074699998 -0.052200001 0.89300001
0.078100003 -0.0524 0.89600003
0.079700001 -0.052499998 0.89700001
0.082699999 -0.0524 0.89600003
0.084200002 -0.052299999 0.89499998
0.085600004 -0.052200001 0.89300001
0.086900003 -0.052099999 0.89099997
0.088299997 -0.052000001 0.88999999
0.089900002 -0.052000001 0.88999999
0.091399997 -0.052000001 0.88999999
0.093000002 -0.052000001 0.88999999
0.094700001 -0.052200001 0.89200002
0.096600004 -0.052299999 0.89499998
0.098399997 -0.052499998 0.89700001
0.1 -0.052499998 0.898
0.1015 -0.052499998 0.89700001
0.1028 -0.052299999 0.89499998
0.1041 -0.052200001 0.89300001
0.1057 -0.052200001 0.89300001
0.1071 -0.052200001 0.89200002
0.1088 -0.052200001 0.89300001
0.1103 -0.052200001 0.89300001
0.1119 -0.052200001 0.89300001
0.1135 -0.052299999 0.89399999
0.1152 -0.052299999 0.89499998
0.1168 -0.052299999 0.89499998
0.1183 -0.052299999 0.89499998
0.1199 -0.052299999 0.89499998
0.1211 -0.052200001 0.89300001
0.1226 -0.052200001 0.89200002
0.1238 -0.052000001 0.88999999
0.12540001 -0.052000001 0.88999999
0.1268 -0.052000001 0.889
0.1283 -0.052000001 0.889
0.13 -0.052000001 0.88999999
0.1314 -0.052000001 0.889
0.1329 -0.052000001 0.889
0.1345 -0.052000001 0.889
0.13590001 -0.051899999 0.88800001
0.1374 -0.051899999 0.88800001
0.1389 -0.051899999 0.88800001
0.14049999 -0.051899999 0.88800001
0.142 -0.051899999 0.88800001
0.1436 -0.051899999 0.88800001
0.1453 -0.052000001 0.889
0.14659999 -0.051899999 0.88800001
0.14820001 -0.051899999 0.88800001
0.1497 -0.051899999 0.88800001
0.1626 -0.052099999 0.89099997
0.16410001 -0.052099999 0.89099997
0.16580001 -0.052200001 0.89200002
0.1672 -0.052099999 0.89099997
0.16859999 -0.052000001 0.88999999
0.1701 -0.052000001 0.88999999
0.1716 -0.052000001 0.88999999
0.1732 -0.052000001 0.88999999
0.17470001 -0.052000001 0.88999999
0.1763 -0.052000001 0.88999999
0.17839999 -0.052200001 0.89300001
-0.38890001 -0.050000001 0.88099998
-0.3874 -0.050000001 0.88099998
-0.3854 -0.049899999 0.88
-0.38299999 -0.049800001 0.87800002
-0.36770001 -0.0502 0.88499999
-0.3653 -0.050099999 0.88300002
-0.36340001 -0.050099999 0.88200003
-0.36140001 -0.050000001 0.88099998
-0.35870001 -0.049800001 0.87800002
-0.35519999 -0.049800001 0.87699997
-0.3396 -0.0495 0.87199998
-0.33700001 -0.0495 0.87300003
-0.3362 -0.049699999 0.875
-0.32519999 -0.050099999 0.88200003
-0.32359999 -0.050099999 0.88200003
-0.32210001 -0.050099999 0.88200003
-0.3202 -0.050000001 0.88099998
-0.31830001 -0.049899999 0.88
-0.31569999 -0.049800001 0.87699997
-0.31349999 -0.049699999 0.875
-0.23289999 -0.049899999 0.88
-0.2304 -0.050099999 0.88200003
-0.2289 -0.050099999 0.88200003
-0.2273 -0.050099999 0.88200003
-0.2261 -0.050099999 0.88300002
-0.2243 -0.050099999 0.88200003
-0.2228 -0.050099999 0.88200003
-0.22149999 -0.050099999 0.88300002
-0.2199 -0.050099999 0.88300002
-0.21870001 -0.0502 0.884
-0.21709999 -0.0502 0.884
-0.2158 -0.0502 0.88499999
-0.2133 -0.050299998 0.88700002
-0.2084 -0.050299998 0.88599998
-0.2066 -0.0502 0.88499999
-0.2051 -0.0502 0.88499999
-0.2018 -0.0502 0.884
-0.2005 -0.0502 0.88499999
-0.1987 -0.0502 0.884
-0.1972 -0.0502 0.884
-0.1955 -0.050099999 0.88300002
-0.1937 -0.050099999 0.88200003
-0.1904 -0.050000001 0.88099998
-0.18889999 -0.050000001 0.88099998
-0.1876 -0.050099999 0.88200003
-0.18629999 -0.050099999 0.88300002
-0.185 -0.0502 0.884
-0.18340001 -0.0502 0.884
-0.18189999 -0.0502 0.884
-0.1804 -0.0502 0.884
-0.1788 -0.0502 0.884
-0.1771 -0.050099999 0.88300002
-0.1754 -0.050099999 0.88200003
-0.1736 -0.050000001 0.88099998
-0.1717 -0.049899999 0.87900001
-0.17 -0.049800001 0.87800002
-0.1497 -0.046799999 0.82499999
-0.1479 -0.046700001 0.82300001
-0.1463 -0.046599999 0.82200003
-0.14470001 -0.046599999 0.82099998
-0.1433 -0.046599999 0.82099998
-0.1419 -0.046599999 0.82099998
-0.14049999 -0.046599999 0.82099998
-0.1389 -0.046500001 0.81999999
-0.1376 -0.046599999 0.82099998
-0.1365 -0.046700001 0.82300001
-0.1354 -0.046799999 0.82499999
-0.13429999 -0.0469 0.82700002
-0.1331 -0.046999998 0.82800001
-0.13160001 -0.046999998 0.82800001
-0.13 -0.0469 0.82700002
-0.1286 -0.0469 0.82700002
-0.127 -0.0469 0.82599998
-0.1256 -0.0469 0.82599998
-0.124 -0.046799999 0.82499999
-0.1226 -0.046799999 0.82499999
-0.1211 -0.046799999 0.82499999
-0.1197 -0.046799999 0.82499999
-0.1184 -0.0469 0.82599998
-0.1171 -0.0469 0.82700002
-0.1158 -0.046999998 0.82800001
-0.1144 -0.046999998 0.82800001
-0.113 -0.046999998 0.82800001
-0.1115 -0.046999998 0.82800001
-0.1101 -0.046999998 0.82800001
-0.1088 -0.046999998 0.829
-0.1074 -0.046999998 0.829
-0.1059 -0.046999998 0.829
-0.1044 -0.046999998 0.82800001
-0.1029 -0.046999998 0.82800001
-0.1016 -0.046999998 0.829
-0.1002 -0.046999998 0.829
-0.098899998 -0.0471 0.82999998
-0.097400002 -0.0471 0.82999998
-0.096000001 -0.0471 0.82999998
-0.094700001 -0.047200002 0.83099997
-0.091899998 -0.047200002 0.83200002
-0.090400003 -0.047200002 0.83200002
-0.0823 -0.0502 0.884
-0.080899999 -0.0502 0.88499999
-0.079499997 -0.050299998 0.88700002
-0.078199998 -0.0504 0.889
-0.076800004 -0.0506 0.89099997
-0.075300001 -0.0506 0.89200002
-0.073799998 -0.0506 0.89200002
-0.072099999 -0.0506 0.89099997
-0.070600003 -0.0506 0.89099997
-0.0691 -0.0506 0.89099997
-0.067400001 -0.050500002 0.88999999
-0.065800004 -0.0504 0.88800001
-0.064099997 -0.050299998 0.88700002
-0.062600002 -0.050299998 0.88700002
-0.061000001 -0.050299998 0.88599998
-0.059500001 -0.050299998 0.88599998
-0.057999998 -0.050299998 0.88700002
-0.056499999 -0.0504 0.88800001
-0.055 -0.0504 0.88800001
-0.0535 -0.0504 0.889
-0.052000001 -0.050500002 0.88999999
-0.050500002 -0.050500002 0.88999999
-0.048999999 -0.0506 0.89099997
-0.047400001 -0.0506 0.89099997
-0.0458 -0.050500002 0.88999999
-0.044300001 -0.050500002 0.88999999
-0.042800002 -0.050500002 0.88999999
-0.041200001 -0.050500002 0.88999999
-0.039700001 -0.0506 0.89099997
-0.038199998 -0.0506 0.89099997
-0.036600001 -0.0506 0.89099997
-0.035100002 -0.0506 0.89099997
-0.033500001 -0.0506 0.89099997
-0.032000002 -0.0506 0.89099997
-0.030400001 -0.050500002 0.88999999
-0.0288 -0.0504 0.88800001
-0.0273 -0.0504 0.88800001
-0.025699999 -0.0504 0.88800001
-0.0242 -0.0504 0.88800001
-0.022700001 -0.050500002 0.88999999
-0.0211 -0.0504 0.889
-0.0196 -0.050500002 0.88999999
-0.018100001 -0.050500002 0.88999999
-0.0165 -0.050500002 0.88999999
-0.015 -0.050500002 0.88999999
-0.0135 -0.050500002 0.88999999
-0.0119 -0.050500002 0.88999999
-0.0104 -0.0506 0.89099997
-0.0088 -0.0506 0.89099997
-0.0073000002 -0.0506 0.89200002
-0.0057999999 -0.050700001 0.89300001
-0.0041999999 -0.050700001 0.89300001
-0.0027000001 -0.050700001 0.89300001
-0.0011 -0.050700001 0.89300001
0.00039999999 -0.050700001 0.89300001
0.0020000001 -0.050700001 0.89399999
0.0051000002 -0.050799999 0.89499998
0.0082 -0.050700001 0.89399999
0.0097000003 -0.050700001 0.89399999
0.0113 -0.050700001 0.89300001
0.0128 -0.050700001 0.89399999
0.0144 -0.050700001 0.89399999
0.015900001 -0.050700001 0.89399999
0.0175 -0.050700001 0.89399999
0.018999999 -0.050700001 0.89399999
0.020500001 -0.050700001 0.89300001
0.0221 -0.050700001 0.89399999
0.023700001 -0.050700001 0.89399999
0.0252 -0.050700001 0.89399999
0.026799999 -0.050799999 0.89499998
0.0283 -0.050700001 0.89399999
0.0298 -0.050700001 0.89300001
0.031399999 -0.050700001 0.89399999
0.032900002 -0.050700001 0.89300001
0.034400001 -0.0506 0.89099997
0.0359 -0.0506 0.89099997
0.037500001 -0.0506 0.89200002
0.039099999 -0.0506 0.89200002
0.040600002 -0.0506 0.89200002
0.042199999 -0.0506 0.89200002
0.0438 -0.050700001 0.89300001
0.045400001 -0.050700001 0.89399999
0.0469 -0.050700001 0.89300001
0.048300002 -0.0506 0.89099997
0.049800001 -0.050500002 0.88999999
0.0513 -0.050500002 0.88999999
0.052900001 -0.050500002 0.88999999
0.054400001 -0.050500002 0.88999999
0.0559 -0.0504 0.889
0.057399999 -0.0504 0.88800001
0.059 -0.050500002 0.88999999
0.062100001 -0.050500002 0.88999999
0.063600004 -0.0504 0.889
0.065099999 -0.0504 0.88800001
0.066600002 -0.0504 0.88800001
0.068099998 -0.0504 0.88800001
0.069600001 -0.050299998 0.88700002
0.071199998 -0.0504 0.88800001
0.072899997 -0.050500002 0.88999999
0.077799998 -0.050700001 0.89300001
0.079400003 -0.050700001 0.89300001
0.081 -0.050700001 0.89399999
0.082500003 -0.050700001 0.89300001
0.083999999 -0.050700001 0.89300001
0.085500002 -0.0506 0.89200002
0.086900003 -0.0506 0.89099997
0.088399999 -0.0506 0.89099997
0.089900002 -0.050500002 0.88999999
0.091399997 -0.050500002 0.88999999
0.093099996 -0.0506 0.89099997
0.094800003 -0.050700001 0.89300001
0.096500002 -0.050700001 0.89399999
0.098200001 -0.050799999 0.89499998
0.099699996 -0.050799999 0.89499998
0.1011 -0.050700001 0.89399999
0.1026 -0.050700001 0.89300001
0.1039 -0.0506 0.89099997
0.1054 -0.0506 0.89099997
0.107 -0.0506 0.89099997
0.1085 -0.0506 0.89099997
0.1103 -0.050700001 0.89300001
0.1119 -0.050700001 0.89300001
0.1135 -0.050700001 0.89399999
0.1152 -0.050799999 0.89499998
0.1168 -0.050799999 0.89499998
0.1183 -0.050799999 0.89499998
0.1199 -0.050799999 0.89499998
0.1213 -0.050700001 0.89399999
0.1226 -0.0506 0.89200002
0.124 -0.0506 0.89099997
0.12540001 -0.050500002 0.88999999
0.1266 -0.0504 0.88800001
0.12819999 -0.0504 0.88800001
0.12970001 -0.0504 0.88800001
0.1312 -0.0504 0.88800001
0.1328 -0.0504 0.88800001
0.1345 -0.0504 0.889
0.13600001 -0.0504 0.889
0.13770001 -0.050500002 0.88999999
0.1393 -0.050500002 0.88999999
0.1408 -0.050500002 0.88999999
0.14229999 -0.050500002 0.88999999
0.14390001 -0.050500002 0.88999999
0.1454 -0.050500002 0.88999999
0.147 -0.050500002 0.88999999
0.14820001 -0.0504 0.88800001
0.1497 -0.0504 0.88800001
0.1514 -0.0504 0.889
0.161 -0.0506 0.89099997
0.1626 -0.0506 0.89099997
0.16429999 -0.0506 0.89200002
0.16599999 -0.050700001 0.89300001
0.1674 -0.0506 0.89200002
0.16869999 -0.0506 0.89099997
0.17030001 -0.0506 0.89099997
0.1716 -0.050500002 0.88999999
0.1734 -0.0506 0.89099997
0.17470001 -0.050500002 0.88999999
0.1763 -0.050500002 0.88999999
0.17839999 -0.050700001 0.89300001
-0.3669 -0.048599999 0.88300002
-0.36449999 -0.048500001 0.88099998
-0.36219999 -0.0484 0.87900001
-0.35510001 -0.048 0.87300003
-0.3536 -0.048 0.87300003
-0.34150001 -0.047800001 0.86900002
-0.3396 -0.048 0.87199998
-0.33700001 -0.048 0.87300003
-0.33660001 -0.0482 0.87599999
-0.3351 -0.0482 0.87599999
-0.33360001 -0.0482 0.87599999
-0.33090001 -0.0482 0.87699997
-0.32370001 -0.048300002 0.87800002
-0.32249999 -0.0484 0.87900001
-0.32100001 -0.0484 0.87900001
-0.3195 -0.0484 0.87900001
-0.31760001 -0.048300002 0.87800002
-0.315 -0.048099998 0.875
-0.31310001 -0.048099998 0.87400001
-0.23289999 -0.0484 0.88
-0.2304 -0.048500001 0.88200003
-0.2289 -0.048500001 0.88200003
-0.22759999 -0.048599999 0.88300002
-0.2263 -0.048599999 0.884
-0.2245 -0.048599999 0.88300002
-0.223 -0.048599999 0.88300002
-0.22149999 -0.048599999 0.88300002
-0.2202 -0.048599999 0.884
-0.21870001 -0.048599999 0.884
-0.2174 -0.048700001 0.88499999
-0.2158 -0.048700001 0.88499999
-0.2146 -0.048700001 0.88599998
-0.2133 -0.048799999 0.88700002
-0.21170001 -0.048799999 0.88700002
-0.2084 -0.048700001 0.88599998
-0.2066 -0.048700001 0.88499999
-0.2051 -0.048700001 0.88499999
-0.2036 -0.048700001 0.88499999
-0.20200001 -0.048700001 0.88499999
-0.2005 -0.048700001 0.88499999
-0.199 -0.048700001 0.88499999
-0.1974 -0.048700001 0.88499999
-0.1957 -0.048599999 0.884
-0.1937 -0.048500001 0.88200003
-0.192 -0.048500001 0.88099998
-0.18889999 -0.048500001 0.88099998
-0.1876 -0.048500001 0.88200003
-0.1865 -0.048599999 0.884
-0.18520001 -0.048700001 0.88499999
-0.18359999 -0.048700001 0.88499999
-0.1823 -0.048700001 0.88599998
-0.1806 -0.048700001 0.88499999
-0.17900001 -0.048700001 0.88499999
-0.17730001 -0.048599999 0.884
-0.1754 -0.048500001 0.88200003
-0.1736 -0.048500001 0.88099998
-0.1717 -0.0484 0.87900001
-0.17 -0.048300002 0.87800002
-0.1481 -0.045299999 0.824
-0.14669999 -0.045299999 0.824
-0.1437 -0.045299999 0.82300001
-0.1392 -0.045200001 0.82200003
-0.138 -0.045299999 0.82300001
-0.13699999 -0.045400001 0.82599998
-0.1358 -0.045499999 0.82700002
-0.1347 -0.045600001 0.829
-0.1332 -0.045600001 0.829
-0.1318 -0.045600001 0.829
-0.1303 -0.045600001 0.829
-0.12890001 -0.045600001 0.829
-0.12729999 -0.045600001 0.82800001
-0.1259 -0.045600001 0.82800001
-0.1243 -0.045499999 0.82700002
-0.1227 -0.045400001 0.82599998
-0.1211 -0.045400001 0.82499999
-0.1196 -0.045299999 0.824
-0.1181 -0.045299999 0.824
-0.1168 -0.045400001 0.82499999
-0.1156 -0.045400001 0.82599998
-0.1141 -0.045400001 0.82599998
-0.1127 -0.045400001 0.82599998
-0.1113 -0.045400001 0.82599998
-0.1098 -0.045400001 0.82599998
-0.1084 -0.045400001 0.82599998
-0.107 -0.045400001 0.82599998
-0.1055 -0.045400001 0.82599998
-0.1041 -0.045400001 0.82599998
-0.1014 -0.045499999 0.82700002
-0.1002 -0.045600001 0.829
-0.098899998 -0.045699999 0.82999998
-0.097499996 -0.045699999 0.83099997
-0.096000001 -0.045699999 0.82999998
-0.094700001 -0.045699999 0.83099997
-0.090300001 -0.045699999 0.83099997
-0.0889 -0.045699999 0.83099997
-0.081100002 -0.048900001 0.88800001
-0.079700001 -0.048900001 0.889
-0.078199998 -0.048999999 0.88999999
-0.076700002 -0.048999999 0.88999999
-0.075000003 -0.048900001 0.88800001
-0.073399998 -0.048799999 0.88700002
-0.071900003 -0.048900001 0.88800001
-0.0704 -0.048900001 0.88800001
-0.068899997 -0.048900001 0.889
-0.067400001 -0.048900001 0.889
-0.065800004 -0.048900001 0.88800001
-0.064199999 -0.048900001 0.88800001
-0.062700003 -0.048900001 0.88800001
-0.061099999 -0.048799999 0.88700002
-0.059500001 -0.048799999 0.88700002
-0.057999998 -0.048799999 0.88700002
-0.056499999 -0.048900001 0.88800001
-0.055 -0.048900001 0.88800001
-0.053599998 -0.048999999 0.88999999
-0.052099999 -0.048999999 0.89099997
-0.050500002 -0.048999999 0.89099997
-0.048999999 -0.048999999 0.89099997
-0.047400001 -0.048999999 0.89099997
-0.045899998 -0.048999999 0.89099997
-0.044300001 -0.048999999 0.88999999
-0.042800002 -0.048999999 0.88999999
-0.041299999 -0.048999999 0.89099997
-0.039700001 -0.048999999 0.89099997
-0.038199998 -0.0491 0.89200002
-0.036699999 -0.0491 0.89200002
-0.035100002 -0.0491 0.89200002
-0.033599999 -0.0491 0.89300001
-0.032000002 -0.0491 0.89200002
-0.0305 -0.048999999 0.89099997
-0.0288 -0.048900001 0.889
-0.0273 -0.048900001 0.88800001
-0.025800001 -0.048900001 0.889
-0.0242 -0.048900001 0.889
-0.022700001 -0.048900001 0.889
-0.0211 -0.048900001 0.889
-0.0196 -0.048900001 0.889
-0.018100001 -0.048999999 0.88999999
-0.0165 -0.048900001 0.889
-0.015 -0.048900001 0.889
-0.0135 -0.048999999 0.88999999
-0.0119 -0.048999999 0.88999999
-0.0088 -0.0491 0.89200002
-0.0073000002 -0.0491 0.89300001
-0.0057999999 -0.0491 0.89300001
-0.0041999999 -0.0491 0.89300001
-0.0027000001 -0.0491 0.89300001
-0.0011 -0.0491 0.89300001
0.00039999999 -0.049199998 0.89399999
0.0020000001 -0.049199998 0.89499998
0.0035000001 -0.049199998 0.89499998
0.0082 -0.0493 0.89600003
0.0097000003 -0.049199998 0.89499998
0.0113 -0.049199998 0.89499998
0.0128 -0.049199998 0.89499998
0.0144 -0.049199998 0.89499998
0.015900001 -0.049199998 0.89399999
0.0175 -0.049199998 0.89399999
0.018999999 -0.049199998 0.89399999
0.020500001 -0.0491 0.89300001
0.0221 -0.0491 0.89300001
0.023600001 -0.0491 0.89300001
0.0252 -0.0491 0.89300001
0.026699999 -0.0491 0.89300001
0.0283 -0.0491 0.89300001
0.0298 -0.0491 0.89300001
0.031399999 -0.0491 0.89300001
0.032900002 -0.0491 0.89300001
0.034400001 -0.0491 0.89200002
0.0359 -0.048999999 0.89099997
0.037500001 -0.0491 0.89200002
0.039099999 -0.0491 0.89300001
0.0407 -0.0491 0.89300001
0.042199999 -0.0491 0.89300001
0.0438 -0.049199998 0.89399999
0.045400001 -0.049199998 0.89399999
0.0469 -0.0491 0.89300001
0.0484 -0.0491 0.89200002
0.049899999 -0.0491 0.89200002
0.051399998 -0.048999999 0.89099997
0.052900001 -0.048999999 0.89099997
0.054499999 -0.048999999 0.89099997
0.056000002 -0.048999999 0.88999999
0.057399999 -0.048900001 0.889
0.059 -0.048999999 0.88999999
0.0605 -0.048900001 0.889
0.061999999 -0.048900001 0.88800001
0.063500002 -0.048900001 0.88800001
0.065099999 -0.048900001 0.88800001
0.066600002 -0.048900001 0.88800001
0.068099998 -0.048900001 0.88800001
0.069700003 -0.048900001 0.88800001
0.072999999 -0.048999999 0.89099997
0.074600004 -0.048999999 0.89099997
0.076200001 -0.0491 0.89200002
0.077799998 -0.0491 0.89300001
0.079400003 -0.049199998 0.89399999
0.081 -0.049199998 0.89399999
0.082500003 -0.0491 0.89300001
0.083999999 -0.0491 0.89300001
0.085600004 -0.0491 0.89300001
0.086999997 -0.0491 0.89200002
0.088500001 -0.0491 0.89200002
0.090099998 -0.0491 0.89200002
0.091499999 -0.048999999 0.89099997
0.0933 -0.0491 0.89300001
0.094800003 -0.0491 0.89300001
0.096500002 -0.049199998 0.89399999
0.097900003 -0.0491 0.89300001
0.099399999 -0.0491 0.89200002
0.1008 -0.048999999 0.89099997
0.1023 -0.048999999 0.89099997
0.1038 -0.048999999 0.88999999
0.1053 -0.048999999 0.88999999
0.1069 -0.048999999 0.88999999
0.1085 -0.048999999 0.89099997
0.1103 -0.0491 0.89300001
0.1119 -0.0491 0.89300001
0.1137 -0.049199998 0.89499998
0.1152 -0.049199998 0.89499998
0.1168 -0.049199998 0.89499998
0.1183 -0.049199998 0.89499998
0.1199 -0.049199998 0.89499998
0.1213 -0.049199998 0.89399999
0.1227 -0.0491 0.89300001
0.124 -0.048999999 0.89099997
0.1269 -0.048999999 0.88999999
0.1283 -0.048900001 0.889
0.12989999 -0.048900001 0.889
0.13150001 -0.048999999 0.88999999
0.1331 -0.048999999 0.88999999
0.1346 -0.048999999 0.88999999
0.1363 -0.048999999 0.89099997
0.13789999 -0.048999999 0.89099997
0.13940001 -0.048999999 0.89099997
0.141 -0.048999999 0.89099997
0.14229999 -0.048999999 0.88999999
0.14390001 -0.048999999 0.88999999
0.14560001 -0.048999999 0.89099997
0.147 -0.048999999 0.88999999
0.1485 -0.048999999 0.88999999
0.15000001 -0.048999999 0.88999999
0.1516 -0.048999999 0.88999999
0.1531 -0.048999999 0.88999999
0.1547 -0.048999999 0.88999999
0.15979999 -0.0491 0.89300001
0.16140001 -0.0491 0.89300001
0.1626 -0.048999999 0.89099997
0.1645 -0.0491 0.89300001
0.16599999 -0.0491 0.89300001
0.16760001 -0.0491 0.89300001
0.16869999 -0.048999999 0.89099997
0.17030001 -0.048999999 0.89099997
0.1718 -0.048999999 0.89099997
0.1736 -0.0491 0.89200002
0.1749 -0.048999999 0.89099997
0.17649999 -0.048999999 0.89099997
0.1786 -0.049199998 0.89399999
0.44549999 -0.090499997 1.645
-0.37889999 -0.046500001 0.87199998
-0.366 -0.0469 0.88099998
-0.3633 -0.046799999 0.87800002
-0.35820001 -0.046500001 0.87300003
-0.35429999 -0.046399999 0.87099999
-0.33739999 -0.046599999 0.87400001
-0.33700001 -0.046700001 0.87699997
-0.33590001 -0.046799999 0.87800002
-0.33320001 -0.046799999 0.87900001
-0.3222 -0.046799999 0.87800002
-0.31909999 -0.046799999 0.87800002
-0.31799999 -0.046799999 0.87900001
-0.31639999 -0.046799999 0.87900001
-0.31459999 -0.046799999 0.87800002
-0.27070001 -0.047400001 0.889
-0.2309 -0.0471 0.884
-0.22939999 -0.0471 0.884
-0.2279 -0.0471 0.884
-0.22660001 -0.047200002 0.88499999
-0.22480001 -0.0471 0.884
-0.2233 -0.0471 0.884
-0.2217 -0.0471 0.884
-0.2202 -0.0471 0.884
-0.21870001 -0.0471 0.884
-0.2174 -0.047200002 0.88499999
-0.2158 -0.047200002 0.88499999
-0.2146 -0.047200002 0.88599998
-0.213 -0.047200002 0.88599998
-0.21170001 -0.0473 0.88700002
-0.20990001 -0.047200002 0.88599998
-0.2066 -0.047200002 0.88499999
-0.2051 -0.047200002 0.88499999
-0.204 -0.0473 0.88700002
-0.2023 -0.047200002 0.88599998
-0.2007 -0.047200002 0.88599998
-0.1974 -0.047200002 0.88499999
-0.1957 -0.0471 0.884
-0.1939 -0.046999998 0.88300002
-0.19220001 -0.046999998 0.88200003
-0.1904 -0.0469 0.88099998
-0.18780001 -0.046999998 0.88300002
-0.18520001 -0.047200002 0.88499999
-0.1838 -0.047200002 0.88599998
-0.1823 -0.047200002 0.88599998
-0.1806 -0.047200002 0.88499999
-0.17900001 -0.047200002 0.88499999
-0.17730001 -0.0471 0.884
-0.1754 -0.046999998 0.88200003
-0.1736 -0.0469 0.88099998
-0.1715 -0.046799999 0.87800002
-0.1696 -0.046700001 0.87599999
-0.153 -0.044100001 0.82700002
-0.1513 -0.044 0.82599998
-0.1497 -0.044 0.82499999
-0.14669999 -0.043900002 0.824
-0.1451 -0.0438 0.82300001
-0.1437 -0.0438 0.82300001
-0.14219999 -0.0438 0.82300001
-0.141 -0.043900002 0.824
-0.1397 -0.044 0.82499999
-0.1383 -0.044 0.82499999
-0.1372 -0.044100001 0.82700002
-0.1358 -0.044100001 0.82700002
-0.1347 -0.044199999 0.829
-0.1332 -0.044199999 0.829
-0.1318 -0.044199999 0.829
-0.1302 -0.044100001 0.82800001
-0.12890001 -0.044199999 0.829
-0.12729999 -0.044100001 0.82800001
-0.126 -0.044199999 0.829
-0.1244 -0.044100001 0.82800001
-0.1229 -0.044100001 0.82700002
-0.1213 -0.044 0.82599998
-0.1196 -0.043900002 0.824
-0.118 -0.0438 0.82300001
-0.1166 -0.0438 0.82300001
-0.1151 -0.0438 0.82300001
-0.1139 -0.043900002 0.824
-0.1124 -0.043900002 0.824
-0.111 -0.043900002 0.824
-0.1096 -0.043900002 0.824
-0.1081 -0.043900002 0.824
-0.1066 -0.0438 0.82300001
-0.1052 -0.0438 0.82300001
-0.1037 -0.0438 0.82300001
-0.1024 -0.043900002 0.824
-0.1012 -0.044 0.82599998
-0.098899998 -0.044199999 0.82999998
-0.097400002 -0.044199999 0.82999998
-0.096000001 -0.044199999 0.82999998
-0.094700001 -0.044300001 0.83099997
-0.093199998 -0.044300001 0.83099997
-0.091799997 -0.044300001 0.83099997
-0.0902 -0.044199999 0.82999998
-0.088799998 -0.044199999 0.82999998
-0.087300003 -0.044199999 0.82999998
-0.086000003 -0.044300001 0.83099997
-0.084600002 -0.044300001 0.83099997
-0.073100001 -0.0471 0.884
-0.071800001 -0.0473 0.88700002
-0.070299998 -0.0473 0.88700002
-0.068800002 -0.0473 0.88800001
-0.067400001 -0.047400001 0.88999999
-0.065800004 -0.047400001 0.889
-0.064300001 -0.047400001 0.889
-0.062700003 -0.047400001 0.889
-0.061099999 -0.0473 0.88800001
-0.059599999 -0.0473 0.88800001
-0.057999998 -0.0473 0.88700002
-0.056499999 -0.0473 0.88800001
-0.055 -0.0473 0.88800001
-0.0535 -0.047400001 0.889
-0.052000001 -0.047400001 0.88999999
-0.048999999 -0.047499999 0.89099997
-0.047400001 -0.047499999 0.89099997
-0.045899998 -0.047499999 0.89099997
-0.044399999 -0.047499999 0.89099997
-0.042800002 -0.047400001 0.88999999
-0.041200001 -0.047400001 0.88999999
-0.039799999 -0.047499999 0.89200002
-0.0383 -0.047600001 0.89300001
-0.036699999 -0.047600001 0.89300001
-0.0352 -0.047600001 0.89300001
-0.033599999 -0.047600001 0.89300001
-0.032099999 -0.047600001 0.89300001
-0.0305 -0.047499999 0.89099997
-0.0288 -0.047400001 0.889
-0.0273 -0.0473 0.88800001
-0.025699999 -0.0473 0.88800001
-0.0242 -0.0473 0.88800001
-0.022700001 -0.0473 0.88800001
-0.0211 -0.0473 0.88700002
-0.0196 -0.0473 0.88800001
-0.018100001 -0.047400001 0.889
-0.0165 -0.0473 0.88800001
-0.0134 -0.047400001 0.889
-0.0119 -0.047400001 0.88999999
-0.0104 -0.047499999 0.89099997
-0.0073000002 -0.047499999 0.89099997
-0.0057000001 -0.047499999 0.89099997
-0.0041999999 -0.047499999 0.89099997
-0.0027000001 -0.047499999 0.89200002
-0.0011 -0.047600001 0.89300001
0.00039999999 -0.047600001 0.89399999
0.0020000001 -0.047699999 0.89499998
0.0035000001 -0.047699999 0.89600003
0.0066999998 -0.047899999 0.89899999
0.0082 -0.047899999 0.89899999
0.0113 -0.047800001 0.89700001
0.0129 -0.047699999 0.89600003
0.0144 -0.047699999 0.89600003
0.015900001 -0.047699999 0.89499998
0.0175 -0.047699999 0.89499998
0.018999999 -0.047699999 0.89499998
0.020500001 -0.047600001 0.89300001
0.0221 -0.047600001 0.89300001
0.023600001 -0.047600001 0.89300001
0.0252 -0.047600001 0.89300001
0.026699999 -0.047600001 0.89300001
0.0283 -0.047600001 0.89300001
0.0298 -0.047600001 0.89300001
0.031399999 -0.047600001 0.89300001
0.032900002 -0.047600001 0.89300001
0.034499999 -0.047600001 0.89300001
0.035999998 -0.047600001 0.89300001
0.037599999 -0.047600001 0.89399999
0.0392 -0.047699999 0.89499998
0.0407 -0.047600001 0.89399999
0.043900002 -0.047699999 0.89499998
0.045400001 -0.047699999 0.89499998
0.0484 -0.047600001 0.89300001
0.050000001 -0.047600001 0.89300001
0.0515 -0.047600001 0.89300001
0.052999999 -0.047499999 0.89200002
0.054499999 -0.047499999 0.89099997
0.056000002 -0.047499999 0.89099997
0.057500001 -0.047400001 0.88999999
0.059 -0.047400001 0.88999999
0.060400002 -0.0473 0.88800001
0.061999999 -0.0473 0.88800001
0.063500002 -0.0473 0.88800001
0.065099999 -0.047400001 0.889
0.066699997 -0.047400001 0.889
0.068300001 -0.047400001 0.88999999
0.069799997 -0.047400001 0.889
0.071500003 -0.047499999 0.89099997
0.073200002 -0.047600001 0.89300001
0.074699998 -0.047600001 0.89300001
0.076300003 -0.047600001 0.89300001
0.077799998 -0.047600001 0.89300001
0.079499997 -0.047699999 0.89499998
0.081100002 -0.047699999 0.89499998
0.082500003 -0.047600001 0.89300001
0.084100001 -0.047600001 0.89399999
0.085600004 -0.047600001 0.89399999
0.087200001 -0.047600001 0.89399999
0.088699996 -0.047600001 0.89399999
0.090400003 -0.047699999 0.89499998
0.091899998 -0.047699999 0.89499998
0.093400002 -0.047600001 0.89399999
0.095100001 -0.047699999 0.89499998
0.096600004 -0.047699999 0.89499998
0.097900003 -0.047600001 0.89300001
0.099299997 -0.047499999 0.89099997
0.1007 -0.047400001 0.88999999
0.1022 -0.047400001 0.88999999
0.1038 -0.047400001 0.88999999
0.1053 -0.047400001 0.88999999
0.1069 -0.047400001 0.88999999
0.1085 -0.047499999 0.89099997
0.1101 -0.047499999 0.89099997
0.1119 -0.047600001 0.89300001
0.1135 -0.047600001 0.89399999
0.1151 -0.047600001 0.89399999
0.1168 -0.047699999 0.89499998
0.1183 -0.047699999 0.89499998
0.1199 -0.047699999 0.89499998
0.1214 -0.047699999 0.89499998
0.1228 -0.047600001 0.89399999
0.1242 -0.047600001 0.89300001
0.1257 -0.047499999 0.89200002
0.12710001 -0.047499999 0.89099997
0.1285 -0.047400001 0.88999999
0.13 -0.047400001 0.88999999
0.13169999 -0.047499999 0.89099997
0.1332 -0.047499999 0.89099997
0.1349 -0.047499999 0.89200002
0.1365 -0.047499999 0.89200002
0.138 -0.047499999 0.89200002
0.13959999 -0.047499999 0.89200002
0.1411 -0.047499999 0.89200002
0.1427 -0.047499999 0.89200002
0.1442 -0.047499999 0.89200002
0.1459 -0.047600001 0.89300001
0.1471 -0.047499999 0.89099997
0.1487 -0.047499999 0.89099997
0.15019999 -0.047499999 0.89099997
0.15180001 -0.047499999 0.89099997
0.1533 -0.047499999 0.89099997
0.1547 -0.047400001 0.88999999
0.15790001 -0.047499999 0.89099997
0.15979999 -0.047600001 0.89300001
0.1612 -0.047499999 0.89200002
0.1626 -0.047499999 0.89099997
0.16429999 -0.047499999 0.89200002
0.16599999 -0.047600001 0.89300001
0.1674 -0.047499999 0.89200002
0.1689 -0.047499999 0.89200002
0.1705 -0.047499999 0.89200002
0.17200001 -0.047499999 0.89200002
0.17380001 -0.047600001 0.89300001
0.1751 -0.047499999 0.89200002
0.1769 -0.047600001 0.89300001
0.17900001 -0.047699999 0.89600003
0.1812 -0.047899999 0.89899999
-0.40650001 -0.045200001 0.87599999
-0.36199999 -0.0451 0.875
-0.34029999 -0.044799998 0.87
-0.3389 -0.0451 0.87400001
-0.33739999 -0.045299999 0.87800002
-0.32030001 -0.045200001 0.87699997
-0.3188 -0.045200001 0.87699997
-0.31760001 -0.045299999 0.87800002
-0.3161 -0.045299999 0.87800002
-0.2714 -0.045899998 0.89099997
-0.26949999 -0.045899998 0.88999999
-0.2309 -0.045600001 0.884
-0.22939999 -0.045600001 0.884
-0.2281 -0.045600001 0.88499999
-0.22660001 -0.045600001 0.88499999
-0.22499999 -0.045600001 0.88499999
-0.2233 -0.045600001 0.884
-0.2217 -0.045600001 0.884
-0.2202 -0.045600001 0.884
-0.2189 -0.045600001 0.88499999
-0.2174 -0.045600001 0.88499999
-0.2158 -0.045600001 0.88499999
-0.21430001 -0.045600001 0.88499999
-0.213 -0.045699999 0.88599998
-0.2115 -0.045699999 0.88599998
-0.20990001 -0.045699999 0.88599998
-0.20819999 -0.045600001 0.88499999
-0.2066 -0.045600001 0.88499999
-0.2051 -0.045600001 0.88499999
-0.20379999 -0.045699999 0.88599998
-0.2023 -0.045699999 0.88599998
-0.2007 -0.045699999 0.88599998
-0.199 -0.045600001 0.88499999
-0.1974 -0.045600001 0.88499999
-0.19220001 -0.045499999 0.88200003
-0.19069999 -0.045499999 0.88200003
-0.1876 -0.045499999 0.88200003
-0.1865 -0.045600001 0.884
-0.18520001 -0.045600001 0.88499999
-0.18359999 -0.045600001 0.88499999
-0.1806 -0.045600001 0.88499999
-0.17900001 -0.045600001 0.88499999
-0.17730001 -0.045600001 0.884
-0.1754 -0.045499999 0.88200003
-0.1736 -0.045400001 0.88099998
-0.17129999 -0.045200001 0.87699997
-0.1692 -0.0451 0.87400001
-0.153 -0.042599998 0.82700002
-0.1513 -0.042599998 0.82599998
-0.1497 -0.0425 0.82499999
-0.1481 -0.0425 0.824
-0.14650001 -0.042399999 0.82300001
-0.14489999 -0.042399999 0.82200003
-0.1437 -0.042399999 0.82300001
-0.1399 -0.042599998 0.82599998
-0.13850001 -0.042599998 0.82599998
-0.1372 -0.042599998 0.82700002
-0.1358 -0.042599998 0.82700002
-0.1347 -0.0427 0.829
-0.1332 -0.0427 0.829
-0.1318 -0.0427 0.829
-0.1303 -0.0427 0.829
-0.12909999 -0.042800002 0.82999998
-0.1275 -0.0427 0.829
-0.12620001 -0.042800002 0.82999998
-0.1246 -0.0427 0.829
-0.123 -0.0427 0.82800001
-0.1213 -0.042599998 0.82599998
-0.1196 -0.0425 0.824
-0.118 -0.042399999 0.82300001
-0.1164 -0.042399999 0.82200003
-0.115 -0.042399999 0.82200003
-0.1134 -0.042300001 0.82099998
-0.112 -0.042300001 0.82099998
-0.1106 -0.042300001 0.82099998
-0.1092 -0.042300001 0.82099998
-0.1077 -0.042300001 0.82099998
-0.1062 -0.042300001 0.81999999
-0.1049 -0.042300001 0.82099998
-0.1035 -0.042300001 0.82099998
-0.1023 -0.042399999 0.82300001
-0.1011 -0.0425 0.82499999
