ply
format ascii 1.0
comment PCL generated
element vertex 1676
property float x
property float y
property float z
element camera 0
property float view_px
property float view_py
property float view_pz
property float x_axisx
property float x_axisy
property float x_axisz
property float y_axisx
property float y_axisy
property float y_axisz
property float z_axisx
property float z_axisy
property float z_axisz
property float focal
property float scalex
property float scaley
property float centerx
property float centery
property int viewportx
property int viewporty
property float k1
property float k2
end_header
-0.2199 0.2176 0.889
-0.2186 0.21789999 0.88999999
-0.21619999 0.2186 0.89300001
-0.21269999 0.2181 0.89099997
-0.2093 0.21789999 0.88999999
-0.20730001 0.2174 0.88800001
-0.2058 0.2174 0.88800001
-0.2032 0.21789999 0.88999999
-0.2001 0.21789999 0.88999999
-0.19769999 0.2186 0.89300001
-0.19410001 0.2198 0.898
-0.1926 0.2198 0.898
-0.1912 0.2201 0.89899999
-0.18790001 0.2198 0.898
-0.18629999 0.2198 0.898
-0.18440001 0.2194 0.89600003
-0.1822 0.2186 0.89300001
-0.18089999 0.2189 0.89399999
-0.1795 0.2191 0.89499998
-0.17820001 0.2194 0.89600003
-0.1772 0.2201 0.89899999
-0.17560001 0.2201 0.89899999
-0.1725 0.2201 0.89899999
-0.1708 0.2198 0.898
-0.16850001 0.2189 0.89399999
-0.1663 0.2181 0.89099997
-0.1646 0.21789999 0.88999999
-0.16329999 0.2181 0.89099997
-0.16230001 0.2189 0.89399999
-0.1605 0.2186 0.89300001
-0.1595 0.2194 0.89600003
-0.1587 0.2203 0.89999998
-0.1573 0.22059999 0.90100002
-0.1557 0.22059999 0.90100002
-0.15260001 0.22059999 0.90100002
-0.15099999 0.22059999 0.90100002
-0.1498 0.2211 0.903
-0.14820001 0.2211 0.903
-0.14669999 0.2211 0.903
-0.1451 0.2211 0.903
-0.1418 0.2208 0.90200001
-0.14030001 0.2208 0.90200001
-0.13680001 0.2203 0.89999998
-0.1336 0.2201 0.89899999
-0.1322 0.2203 0.89999998
-0.13060001 0.2203 0.89999998
-0.12899999 0.2203 0.89999998
-0.1275 0.2203 0.89999998
-0.1258 0.2201 0.89899999
-0.1241 0.2198 0.898
-0.1224 0.21960001 0.89700001
-0.1207 0.2194 0.89600003
-0.1191 0.2194 0.89600003
-0.1175 0.2191 0.89499998
-0.1156 0.2186 0.89300001
-0.114 0.2184 0.89200002
-0.1126 0.2186 0.89300001
-0.1113 0.2191 0.89499998
-0.1097 0.2191 0.89499998
-0.1083 0.2194 0.89600003
-0.107 0.2198 0.898
-0.1056 0.2203 0.89999998
-0.1042 0.22059999 0.90100002
-0.1027 0.2208 0.90200001
-0.1011 0.22059999 0.90100002
-0.099399999 0.2203 0.89999998
-0.096100003 0.2198 0.898
-0.089299999 0.2186 0.89300001
-0.088 0.2191 0.89499998
-0.083700001 0.2201 0.89899999
-0.082099997 0.2201 0.89899999
-0.080499999 0.2198 0.898
-0.068000004 0.2198 0.898
-0.066500001 0.2198 0.898
-0.064800002 0.2194 0.89600003
-0.063199997 0.2191 0.89499998
-0.052999999 0.2218 0.90600002
-0.0513 0.2216 0.90499997
-0.049899999 0.222 0.90700001
-0.0482 0.2216 0.90499997
-0.0451 0.2216 0.90499997
-0.043400001 0.22130001 0.90399998
-0.041900001 0.2216 0.90499997
-0.0403 0.2216 0.90499997
-0.038699999 0.22130001 0.90399998
-0.037099998 0.2211 0.903
-0.035599999 0.22130001 0.90399998
-0.034000002 0.22130001 0.90399998
-0.032400001 0.2211 0.903
-0.0309 0.2211 0.903
-0.029300001 0.2211 0.903
-0.0152 0.22059999 0.90100002
-0.0136 0.2203 0.89999998
-0.0105 0.2203 0.89999998
-0.0088999998 0.22059999 0.90100002
-0.0074 0.22059999 0.90100002
-0.0057999999 0.22059999 0.90100002
-0.0027000001 0.2208 0.90200001
-0.0011 0.22059999 0.90100002
0.00039999999 0.22059999 0.90100002
0.0020000001 0.2203 0.89999998
0.0035999999 0.2203 0.89999998
0.0066999998 0.2203 0.89999998
0.0114 0.2211 0.903
0.0146 0.2216 0.90499997
0.016100001 0.2216 0.90499997
0.0176 0.2211 0.903
0.019200001 0.2211 0.903
0.0207 0.22059999 0.90100002
0.022299999 0.2203 0.89999998
0.023800001 0.2203 0.89999998
0.027100001 0.22130001 0.90399998
0.0288 0.22229999 0.90799999
0.0305 0.2233 0.912
0.032200001 0.2243 0.91600001
0.0337 0.22400001 0.91500002
0.035300002 0.2238 0.91399997
0.036699999 0.2228 0.91000003
0.039700001 0.2218 0.90600002
0.041299999 0.222 0.90700001
0.0429 0.222 0.90700001
0.044399999 0.2216 0.90499997
0.045899998 0.2216 0.90499997
0.047499999 0.2218 0.90600002
0.0491 0.2218 0.90600002
0.0506 0.2216 0.90499997
0.052200001 0.2216 0.90499997
0.0537 0.22130001 0.90399998
0.055199999 0.2211 0.903
0.0568 0.2211 0.903
0.0583 0.2211 0.903
0.059799999 0.22059999 0.90100002
0.061299998 0.22059999 0.90100002
0.062899999 0.22059999 0.90100002
0.064499997 0.2208 0.90200001
0.066100001 0.2208 0.90200001
0.067599997 0.22059999 0.90100002
0.069200002 0.2208 0.90200001
0.070900001 0.2211 0.903
0.0726 0.2216 0.90499997
0.074199997 0.2218 0.90600002
0.075900003 0.222 0.90700001
0.077500001 0.22229999 0.90799999
0.079400003 0.223 0.91100001
0.081 0.2233 0.912
0.082599998 0.2233 0.912
0.084200002 0.2233 0.912
0.087200001 0.2228 0.91000003
0.088799998 0.2228 0.91000003
0.090099998 0.22229999 0.90799999
0.093199998 0.222 0.90700001
0.094499998 0.2216 0.90499997
0.096000001 0.22130001 0.90399998
0.097499996 0.2211 0.903
0.098899998 0.2208 0.90200001
0.1004 0.22059999 0.90100002
0.1022 0.2211 0.903
0.1056 0.2218 0.90600002
0.1074 0.22229999 0.90799999
0.1117 0.2245 0.917
0.1134 0.2247 0.91799998
0.1161 0.2238 0.91399997
0.1175 0.2235 0.91299999
0.1191 0.2235 0.91299999
0.1207 0.2235 0.91299999
0.1243 0.2243 0.91600001
0.1259 0.2243 0.91600001
0.1356 0.222 0.90700001
0.1372 0.222 0.90700001
0.1389 0.22229999 0.90799999
0.14049999 0.22229999 0.90799999
0.14210001 0.22229999 0.90799999
0.14380001 0.2225 0.90899998
0.1454 0.2225 0.90899998
0.1487 0.2228 0.91000003
0.1515 0.22229999 0.90799999
0.1531 0.22229999 0.90799999
0.1547 0.22229999 0.90799999
0.1561 0.222 0.90700001
0.1576 0.222 0.90700001
0.15899999 0.2218 0.90600002
0.1604 0.2216 0.90499997
0.16230001 0.222 0.90700001
0.16410001 0.22229999 0.90799999
0.1657 0.22229999 0.90799999
0.1672 0.22229999 0.90799999
0.17129999 0.2235 0.91299999
0.17389999 0.2228 0.91000003
-0.38999999 0.21870001 0.88700002
-0.38850001 0.21870001 0.88700002
-0.3854 0.21870001 0.88700002
-0.38350001 0.2184 0.88599998
-0.366 0.2172 0.88099998
-0.36449999 0.2172 0.88099998
-0.36300001 0.2172 0.88099998
-0.36140001 0.2172 0.88099998
-0.3599 0.2172 0.88099998
-0.3592 0.2177 0.88300002
-0.3527 0.2175 0.88200003
-0.35159999 0.2177 0.88300002
-0.34889999 0.21799999 0.884
-0.34810001 0.2184 0.88599998
-0.347 0.21870001 0.88700002
-0.34549999 0.21870001 0.88700002
-0.3439 0.21870001 0.88700002
-0.3382 0.2189 0.88800001
-0.33660001 0.2189 0.88800001
-0.33469999 0.21870001 0.88700002
-0.3335 0.2189 0.88800001
-0.33160001 0.21870001 0.88700002
-0.32820001 0.2184 0.88599998
-0.3263 0.2182 0.88499999
-0.3251 0.2184 0.88599998
-0.32390001 0.21870001 0.88700002
-0.3224 0.21870001 0.88700002
-0.32120001 0.2189 0.88800001
-0.3204 0.2194 0.88999999
-0.31889999 0.2194 0.88999999
-0.31729999 0.2194 0.88999999
-0.30930001 0.2192 0.889
-0.30739999 0.2189 0.88800001
-0.30399999 0.21870001 0.88700002
-0.30239999 0.21870001 0.88700002
-0.30050001 0.2184 0.88599998
-0.2987 0.2182 0.88499999
-0.29679999 0.21799999 0.884
-0.292 0.2189 0.88800001
-0.2911 0.2194 0.88999999
-0.2899 0.21969999 0.89099997
-0.2464 0.2194 0.88999999
-0.2462 0.2207 0.89499998
-0.2455 0.22139999 0.898
-0.2445 0.2219 0.89999998
-0.2395 0.22310001 0.90499997
-0.23800001 0.22310001 0.90499997
-0.23639999 0.22310001 0.90499997
-0.23379999 0.2221 0.90100002
-0.2299 0.2199 0.89200002
-0.2273 0.2189 0.88800001
-0.2256 0.21870001 0.88700002
-0.22400001 0.21870001 0.88700002
-0.2225 0.21870001 0.88700002
-0.2209 0.21870001 0.88700002
-0.21969999 0.2189 0.88800001
-0.2181 0.2189 0.88800001
-0.21709999 0.2194 0.88999999
-0.2155 0.2194 0.88999999
-0.214 0.2194 0.88999999
-0.212 0.2189 0.88800001
-0.2104 0.2189 0.88800001
-0.2069 0.2184 0.88599998
-0.20559999 0.21870001 0.88700002
-0.204 0.21870001 0.88700002
-0.2027 0.2189 0.88800001
-0.2016 0.2194 0.88999999
-0.2001 0.2194 0.88999999
-0.19859999 0.2194 0.88999999
-0.1948 0.22040001 0.89399999
-0.1937 0.2209 0.89600003
-0.19059999 0.2209 0.89600003
-0.1892 0.2212 0.89700001
-0.1877 0.2212 0.89700001
-0.18610001 0.2212 0.89700001
-0.1842 0.2207 0.89499998
-0.1822 0.2202 0.89300001
-0.1806 0.2202 0.89300001
-0.1795 0.2207 0.89499998
-0.178 0.2207 0.89499998
-0.1768 0.2212 0.89700001
-0.175 0.2209 0.89600003
-0.1733 0.2207 0.89499998
-0.1717 0.2207 0.89499998
-0.1696 0.2199 0.89200002
-0.16769999 0.2194 0.88999999
-0.16580001 0.2189 0.88800001
-0.16410001 0.21870001 0.88700002
-0.1627 0.2189 0.88800001
-0.16150001 0.2194 0.88999999
-0.16 0.2194 0.88999999
-0.15899999 0.2202 0.89300001
-0.15710001 0.2219 0.89999998
-0.1557 0.2221 0.90100002
-0.1543 0.22239999 0.90200001
-0.15260001 0.2221 0.90100002
-0.15099999 0.2221 0.90100002
-0.1498 0.2226 0.903
-0.14820001 0.2226 0.903
-0.14669999 0.2226 0.903
-0.1451 0.2226 0.903
-0.1401 0.2221 0.90100002
-0.13510001 0.2216 0.89899999
-0.1336 0.2216 0.89899999
-0.1322 0.2219 0.89999998
-0.13060001 0.2219 0.89999998
-0.12890001 0.2216 0.89899999
-0.1275 0.2219 0.89999998
-0.1258 0.2216 0.89899999
-0.1241 0.22139999 0.898
-0.1225 0.22139999 0.898
-0.1208 0.2212 0.89700001
-0.1191 0.2209 0.89600003
-0.1175 0.2207 0.89499998
-0.1156 0.2202 0.89300001
-0.1142 0.22040001 0.89399999
-0.1116 0.22139999 0.898
-0.1099 0.2212 0.89700001
-0.1084 0.2212 0.89700001
-0.107 0.22139999 0.898
-0.1056 0.2219 0.89999998
-0.1041 0.2219 0.89999998
-0.1025 0.2219 0.89999998
-0.1008 0.2216 0.89899999
-0.099299997 0.2216 0.89899999
-0.087800004 0.2202 0.89300001
-0.085000001 0.2209 0.89600003
-0.083400004 0.2209 0.89600003
-0.080300003 0.2209 0.89600003
-0.0788 0.2209 0.89600003
-0.068000004 0.2212 0.89700001
-0.066299997 0.2207 0.89499998
-0.064599998 0.2202 0.89300001
-0.063000001 0.2202 0.89300001
-0.052900001 0.22310001 0.90499997
-0.051399998 0.2234 0.90600002
-0.049899999 0.2236 0.90700001
-0.0482 0.2234 0.90600002
-0.046599999 0.22310001 0.90499997
-0.0451 0.22310001 0.90499997
-0.043499999 0.22310001 0.90499997
-0.041900001 0.22310001 0.90499997
-0.0403 0.22310001 0.90499997
-0.038699999 0.2229 0.90399998
-0.037099998 0.2226 0.903
-0.035599999 0.2229 0.90399998
-0.034000002 0.2229 0.90399998
-0.032400001 0.2226 0.903
-0.0309 0.2226 0.903
-0.029300001 0.22239999 0.90200001
-0.0167 0.2216 0.89899999
-0.0136 0.2221 0.90100002
-0.0121 0.2221 0.90100002
-0.0105 0.2221 0.90100002
-0.0074 0.2221 0.90100002
-0.0057999999 0.2221 0.90100002
-0.0041999999 0.2219 0.89999998
-0.0027000001 0.2219 0.89999998
-0.0011 0.2219 0.89999998
0.0020000001 0.2219 0.89999998
0.0051000002 0.2219 0.89999998
0.0066999998 0.2219 0.89999998
0.016100001 0.22310001 0.90499997
0.0176 0.2226 0.903
0.019200001 0.2226 0.903
0.0207 0.2221 0.90100002
0.0222 0.2216 0.89899999
0.023700001 0.2209 0.89600003
0.0253 0.2209 0.89600003
0.026900001 0.2219 0.89999998
0.0286 0.2229 0.90399998
0.030300001 0.2234 0.90600002
0.0319 0.22390001 0.90799999
0.033599999 0.2246 0.91100001
0.0352 0.2246 0.91100001
0.038199998 0.22390001 0.90799999
0.039700001 0.2236 0.90700001
0.041299999 0.2236 0.90700001
0.0429 0.2236 0.90700001
0.044399999 0.22310001 0.90499997
0.045899998 0.22310001 0.90499997
0.047499999 0.2234 0.90600002
0.0491 0.2234 0.90600002
0.0506 0.22310001 0.90499997
0.052200001 0.22310001 0.90499997
0.0537 0.2229 0.90399998
0.055300001 0.2229 0.90399998
0.0568 0.2229 0.90399998
0.058400001 0.2229 0.90399998
0.061299998 0.2221 0.90100002
0.062899999 0.2221 0.90100002
0.064499997 0.2221 0.90100002
0.066 0.2221 0.90100002
0.067599997 0.2221 0.90100002
0.0691 0.2221 0.90100002
0.070900001 0.2226 0.903
0.0726 0.22310001 0.90499997
0.074199997 0.22310001 0.90499997
0.075900003 0.2236 0.90700001
0.077600002 0.22409999 0.90899998
0.079499997 0.22490001 0.912
0.081200004 0.2253 0.91399997
0.082699999 0.2251 0.91299999
0.089000002 0.22490001 0.912
0.093199998 0.2236 0.90700001
0.094599999 0.2234 0.90600002
0.096100003 0.22310001 0.90499997
0.097599998 0.2229 0.90399998
0.098899998 0.22239999 0.90200001
0.1004 0.2221 0.90100002
0.102 0.22239999 0.90200001
0.1037 0.2226 0.903
0.1055 0.22310001 0.90499997
0.1113 0.2253 0.91399997
0.1132 0.22579999 0.91600001
0.1147 0.22579999 0.91600001
0.1161 0.2253 0.91399997
0.1174 0.22490001 0.912
0.119 0.22490001 0.912
0.1206 0.22490001 0.912
0.1221 0.22490001 0.912
0.13410001 0.2236 0.90700001
0.1372 0.2236 0.90700001
0.1389 0.22390001 0.90799999
0.14049999 0.22390001 0.90799999
0.14210001 0.22390001 0.90799999
0.14380001 0.22409999 0.90899998
0.1454 0.22409999 0.90899998
0.1471 0.2244 0.91000003
0.1485 0.22409999 0.90899998
0.1515 0.22390001 0.90799999
0.1531 0.22390001 0.90799999
0.1547 0.22390001 0.90799999
0.15620001 0.22390001 0.90799999
0.1576 0.2236 0.90700001
0.1592 0.2236 0.90700001
0.1608 0.2236 0.90700001
0.16230001 0.2236 0.90700001
0.16410001 0.22390001 0.90799999
0.1657 0.22390001 0.90799999
0.1674 0.22409999 0.90899998
-0.3892 0.21969999 0.88499999
-0.3872 0.21950001 0.884
-0.38569999 0.21950001 0.884
-0.38460001 0.21969999 0.88499999
-0.38350001 0.22 0.88599998
-0.368 0.219 0.88200003
-0.3664 0.219 0.88200003
-0.36489999 0.219 0.88200003
-0.36300001 0.21870001 0.88099998
-0.3619 0.219 0.88200003
-0.3603 0.219 0.88200003
-0.3592 0.2192 0.88300002
-0.34959999 0.219 0.88200003
-0.34810001 0.219 0.88200003
-0.34779999 0.21969999 0.88499999
-0.3466 0.22 0.88599998
-0.34549999 0.2202 0.88700002
-0.34119999 0.22050001 0.88800001
-0.33970001 0.22050001 0.88800001
-0.3382 0.22050001 0.88800001
-0.3335 0.22050001 0.88800001
-0.33199999 0.22050001 0.88800001
-0.32969999 0.22 0.88599998
-0.32820001 0.22 0.88599998
-0.32659999 0.22 0.88599998
-0.3251 0.22 0.88599998
-0.32390001 0.2202 0.88700002
-0.3224 0.2202 0.88700002
-0.32089999 0.2202 0.88700002
-0.31999999 0.2207 0.889
-0.31889999 0.221 0.88999999
-0.31659999 0.22050001 0.88800001
-0.31470001 0.2202 0.88700002
-0.31119999 0.221 0.88999999
-0.3096 0.221 0.88999999
-0.30809999 0.221 0.88999999
-0.30649999 0.221 0.88999999
-0.3046 0.2207 0.889
-0.3028 0.22050001 0.88800001
-0.30090001 0.2202 0.88700002
-0.2987 0.21969999 0.88499999
-0.29679999 0.21950001 0.884
-0.2911 0.221 0.88999999
-0.29049999 0.2217 0.89300001
-0.2465 0.2225 0.89600003
-0.24519999 0.2227 0.89700001
-0.24420001 0.22319999 0.89899999
-0.2432 0.2237 0.90100002
-0.2395 0.2247 0.90499997
-0.2385 0.2252 0.90700001
-0.2369 0.2252 0.90700001
-0.2348 0.2247 0.90499997
-0.23119999 0.2227 0.89700001
-0.2281 0.2212 0.89099997
-0.22579999 0.22050001 0.88800001
-0.2238 0.22 0.88599998
-0.22220001 0.22 0.88599998
-0.2207 0.22 0.88599998
-0.2194 0.2202 0.88700002
-0.21789999 0.2202 0.88700002
-0.2166 0.22050001 0.88800001
-0.215 0.22050001 0.88800001
-0.21349999 0.22050001 0.88800001
-0.21170001 0.2202 0.88700002
-0.2069 0.22 0.88599998
-0.20559999 0.2202 0.88700002
-0.204 0.2202 0.88700002
-0.2027 0.22050001 0.88800001
-0.2014 0.2207 0.889
-0.2001 0.221 0.88999999
-0.1972 0.2212 0.89099997
-0.1957 0.2212 0.89099997
-0.1946 0.2217 0.89300001
-0.1919 0.22220001 0.89499998
-0.1904 0.22220001 0.89499998
-0.189 0.2225 0.89600003
-0.18790001 0.223 0.898
-0.18610001 0.2227 0.89700001
-0.1842 0.22220001 0.89499998
-0.1822 0.2217 0.89300001
-0.18089999 0.222 0.89399999
-0.1795 0.22220001 0.89499998
-0.178 0.22220001 0.89499998
-0.17640001 0.22220001 0.89499998
-0.17479999 0.22220001 0.89499998
-0.17309999 0.222 0.89399999
-0.1714 0.2217 0.89300001
-0.16940001 0.2212 0.89099997
-0.1675 0.2207 0.889
-0.16580001 0.22050001 0.88800001
-0.16410001 0.2202 0.88700002
-0.16249999 0.2202 0.88700002
-0.1612 0.22050001 0.88800001
-0.1595 0.2202 0.88700002
-0.1584 0.221 0.88999999
-0.1543 0.22400001 0.90200001
-0.15260001 0.2237 0.90100002
-0.15099999 0.2237 0.90100002
-0.14820001 0.2242 0.903
-0.1468 0.2244 0.90399998
-0.1451 0.2242 0.903
-0.1415 0.2235 0.89999998
-0.13510001 0.22319999 0.89899999
-0.13339999 0.223 0.898
-0.132 0.22319999 0.89899999
-0.13060001 0.2235 0.89999998
-0.1287 0.223 0.898
-0.12720001 0.223 0.898
-0.12549999 0.2227 0.89700001
-0.1239 0.2227 0.89700001
-0.1224 0.2227 0.89700001
-0.1208 0.2227 0.89700001
-0.1191 0.2225 0.89600003
-0.1176 0.2225 0.89600003
-0.116 0.2225 0.89600003
-0.1146 0.2227 0.89700001
-0.1133 0.22319999 0.89899999
-0.1119 0.2235 0.89999998
-0.1103 0.2235 0.89999998
-0.1086 0.22319999 0.89899999
-0.107 0.223 0.898
-0.1055 0.22319999 0.89899999
-0.1041 0.2235 0.89999998
-0.1023 0.223 0.898
-0.1005 0.2225 0.89600003
-0.098999999 0.2225 0.89600003
-0.097400002 0.2225 0.89600003
-0.095700003 0.22220001 0.89499998
-0.092299998 0.22149999 0.89200002
-0.090700001 0.2212 0.89099997
-0.089100003 0.2212 0.89099997
-0.0876 0.2212 0.89099997
-0.086099997 0.22149999 0.89200002
-0.084799998 0.222 0.89399999
-0.083300002 0.22220001 0.89499998
-0.081900001 0.2225 0.89600003
-0.080300003 0.2225 0.89600003
-0.078900002 0.223 0.898
-0.062899999 0.2212 0.89099997
-0.0557 0.2235 0.89999998
-0.054400001 0.2244 0.90399998
-0.052900001 0.2247 0.90499997
-0.0513 0.2247 0.90499997
-0.049899999 0.2252 0.90700001
-0.0482 0.22490001 0.90600002
-0.046599999 0.2247 0.90499997
-0.045000002 0.2244 0.90399998
-0.043400001 0.2244 0.90399998
-0.041900001 0.2244 0.90399998
-0.0403 0.2244 0.90399998
-0.038699999 0.2242 0.903
-0.037099998 0.2242 0.903
-0.035599999 0.2242 0.903
-0.034000002 0.2242 0.903
-0.032400001 0.2242 0.903
-0.0308 0.22400001 0.90200001
-0.029200001 0.2237 0.90100002
-0.0167 0.223 0.898
-0.0152 0.2235 0.89999998
-0.0136 0.2237 0.90100002
-0.0121 0.2237 0.90100002
-0.0105 0.2237 0.90100002
-0.0088999998 0.2237 0.90100002
-0.0057999999 0.2237 0.90100002
-0.0027000001 0.223 0.898
0.00039999999 0.223 0.898
0.0020000001 0.223 0.898
0.0035000001 0.223 0.898
0.0051000002 0.22319999 0.89899999
0.0066999998 0.22319999 0.89899999
0.0082 0.2237 0.90100002
0.0098000001 0.2242 0.903
0.0114 0.2247 0.90499997
0.013 0.2252 0.90700001
0.0146 0.22490001 0.90600002
0.016100001 0.2247 0.90499997
0.0177 0.2247 0.90499997
0.019300001 0.2247 0.90499997
0.0208 0.2242 0.903
0.022299999 0.2235 0.89999998
0.023800001 0.2227 0.89700001
0.026900001 0.223 0.898
0.0286 0.2242 0.903
0.030200001 0.2242 0.903
0.033599999 0.22589999 0.91000003
0.035100002 0.22589999 0.91000003
0.036699999 0.22570001 0.90899998
0.038199998 0.2254 0.90799999
0.039700001 0.2252 0.90700001
0.041299999 0.2252 0.90700001
0.042800002 0.22490001 0.90600002
0.044399999 0.2247 0.90499997
0.045899998 0.2247 0.90499997
0.047499999 0.2247 0.90499997
0.0491 0.2247 0.90499997
0.0506 0.2247 0.90499997
0.052200001 0.2247 0.90499997
0.053800002 0.2247 0.90499997
0.055300001 0.2247 0.90499997
0.056899998 0.2247 0.90499997
0.058499999 0.2247 0.90499997
0.0614 0.22400001 0.90200001
0.062899999 0.2237 0.90100002
0.064499997 0.2237 0.90100002
0.066 0.2237 0.90100002
0.067599997 0.2237 0.90100002
0.0691 0.2237 0.90100002
0.070900001 0.2242 0.903
0.0726 0.2247 0.90499997
0.074199997 0.2247 0.90499997
0.075900003 0.2252 0.90700001
0.077699997 0.22589999 0.91000003
0.079700001 0.2272 0.91500002
0.081500001 0.2277 0.917
0.083099999 0.2277 0.917
0.084799998 0.2279 0.91799998
0.086400002 0.2279 0.91799998
0.087899998 0.2277 0.917
0.090499997 0.2264 0.912
0.091899998 0.22589999 0.91000003
0.094800003 0.2252 0.90700001
0.0977 0.2247 0.90499997
0.098999999 0.2242 0.903
0.1006 0.2242 0.903
0.1022 0.2242 0.903
0.104 0.2247 0.90499997
0.109 0.2254 0.90799999
0.1129 0.2269 0.91399997
0.1145 0.2269 0.91399997
0.1159 0.22669999 0.91299999
0.1174 0.2264 0.912
0.1189 0.2262 0.91100001
0.1203 0.22589999 0.91000003
0.1219 0.22589999 0.91000003
0.13410001 0.2252 0.90700001
0.1356 0.2252 0.90700001
0.1373 0.2254 0.90799999
0.1389 0.2254 0.90799999
0.14049999 0.2254 0.90799999
0.14210001 0.2254 0.90799999
0.1436 0.2254 0.90799999
0.1454 0.22570001 0.90899998
0.1469 0.22570001 0.90899998
0.14839999 0.2254 0.90799999
0.1531 0.2254 0.90799999
0.1547 0.2254 0.90799999
0.15620001 0.2254 0.90799999
0.1576 0.2252 0.90700001
0.1592 0.2252 0.90700001
0.1608 0.2252 0.90700001
0.16230001 0.2252 0.90700001
0.16410001 0.2254 0.90799999
0.1655 0.2252 0.90700001
0.1672 0.2254 0.90799999
-0.3872 0.221 0.884
-0.38569999 0.221 0.884
-0.38460001 0.22130001 0.88499999
-0.38350001 0.22149999 0.88599998
-0.3669 0.2208 0.88300002
-0.36570001 0.221 0.884
-0.36379999 0.2208 0.88300002
-0.36269999 0.221 0.884
-0.36109999 0.221 0.884
-0.35960001 0.221 0.884
-0.35299999 0.2198 0.87900001
-0.3515 0.2198 0.87900001
-0.34920001 0.2203 0.88099998
-0.3477 0.2203 0.88099998
-0.34740001 0.221 0.884
-0.34619999 0.22130001 0.88499999
-0.3459 0.222 0.88800001
-0.3439 0.2218 0.88700002
-0.34240001 0.2218 0.88700002
-0.3416 0.22229999 0.889
-0.3351 0.222 0.88800001
-0.3339 0.22229999 0.889
-0.33239999 0.22229999 0.889
-0.33050001 0.222 0.88800001
-0.32890001 0.222 0.88800001
-0.32699999 0.2218 0.88700002
-0.3258 0.222 0.88800001
-0.32429999 0.222 0.88800001
-0.3231 0.22229999 0.889
-0.322 0.2225 0.88999999
-0.3204 0.2225 0.88999999
-0.31920001 0.2228 0.89099997
-0.3096 0.2225 0.88999999
-0.30770001 0.22229999 0.889
-0.3046 0.22229999 0.889
-0.3028 0.222 0.88800001
-0.30090001 0.2218 0.88700002
-0.2987 0.22130001 0.88499999
-0.24779999 0.2238 0.89499998
-0.24680001 0.2243 0.89700001
-0.2455 0.2245 0.898
-0.24420001 0.22480001 0.89899999
-0.2432 0.2253 0.90100002
-0.2421 0.22579999 0.903
-0.2411 0.2263 0.90499997
-0.2385 0.22679999 0.90700001
-0.23540001 0.22679999 0.90700001
-0.2325 0.2255 0.90200001
-0.2299 0.2245 0.898
-0.2271 0.2233 0.89300001
-0.22480001 0.2225 0.88999999
-0.2227 0.222 0.88800001
-0.2212 0.222 0.88800001
-0.2199 0.22229999 0.889
-0.2186 0.2225 0.88999999
-0.21709999 0.2225 0.88999999
-0.2155 0.2225 0.88999999
-0.21349999 0.222 0.88800001
-0.20990001 0.22149999 0.88599998
-0.2066 0.22130001 0.88499999
-0.2053 0.22149999 0.88599998
-0.204 0.2218 0.88700002
-0.2027 0.222 0.88800001
-0.2014 0.22229999 0.889
-0.2001 0.2225 0.88999999
-0.197 0.2225 0.88999999
-0.1955 0.2225 0.88999999
-0.19410001 0.2228 0.89099997
-0.19149999 0.2233 0.89300001
-0.18970001 0.223 0.89200002
-0.1884 0.2233 0.89300001
-0.1873 0.2238 0.89499998
-0.1857 0.2238 0.89499998
-0.184 0.2235 0.89399999
-0.1824 0.2235 0.89399999
-0.1811 0.2238 0.89499998
-0.1795 0.2238 0.89499998
-0.178 0.2238 0.89499998
-0.17640001 0.2238 0.89499998
-0.17470001 0.2235 0.89399999
-0.17290001 0.2233 0.89300001
-0.1714 0.2233 0.89300001
-0.16940001 0.2228 0.89099997
-0.16769999 0.2225 0.88999999
-0.16599999 0.22229999 0.889
-0.16410001 0.2218 0.88700002
-0.16249999 0.2218 0.88700002
-0.1612 0.222 0.88800001
-0.1596 0.222 0.88800001
-0.1585 0.22480001 0.89899999
-0.15260001 0.2253 0.90100002
-0.1496 0.2255 0.90200001
-0.1481 0.2255 0.90200001
-0.14650001 0.2255 0.90200001
-0.14480001 0.2253 0.90100002
-0.1429 0.22480001 0.89899999
-0.13959999 0.2245 0.898
-0.1382 0.22480001 0.89899999
-0.13680001 0.22499999 0.89999998
-0.13500001 0.2245 0.898
-0.13339999 0.2245 0.898
-0.132 0.22480001 0.89899999
-0.13060001 0.22499999 0.89999998
-0.12890001 0.22480001 0.89899999
-0.12720001 0.2245 0.898
-0.1256 0.2245 0.898
-0.1241 0.2245 0.898
-0.1225 0.2245 0.898
-0.121 0.2245 0.898
-0.1194 0.2245 0.898
-0.1163 0.2245 0.898
-0.1149 0.22480001 0.89899999
-0.1134 0.22499999 0.89999998
-0.112 0.2253 0.90100002
-0.1088 0.22499999 0.89999998
-0.1071 0.22480001 0.89899999
-0.1055 0.22480001 0.89899999
-0.1038 0.2245 0.898
-0.1022 0.2243 0.89700001
-0.1005 0.22400001 0.89600003
-0.098999999 0.22400001 0.89600003
-0.097400002 0.22400001 0.89600003
-0.095700003 0.2238 0.89499998
-0.093999997 0.2233 0.89300001
-0.092399999 0.2233 0.89300001
-0.089199997 0.223 0.89200002
-0.087800004 0.2233 0.89300001
-0.086199999 0.2233 0.89300001
-0.084799998 0.2235 0.89399999
-0.083400004 0.22400001 0.89600003
-0.081900001 0.22400001 0.89600003
-0.080399998 0.2243 0.89700001
-0.075999998 0.22499999 0.89999998
-0.072899997 0.22499999 0.89999998
-0.069799997 0.22499999 0.89999998
-0.067900002 0.22400001 0.89600003
-0.066200003 0.2235 0.89399999
-0.064599998 0.2233 0.89300001
-0.062899999 0.2228 0.89099997
-0.061299998 0.2225 0.88999999
-0.059700001 0.2225 0.88999999
-0.058200002 0.2225 0.88999999
-0.056699999 0.2228 0.89099997
-0.055599999 0.2245 0.898
-0.054299999 0.2255 0.90200001
-0.052900001 0.2263 0.90499997
-0.0513 0.2263 0.90499997
-0.049800001 0.2265 0.90600002
-0.0482 0.2263 0.90499997
-0.045000002 0.22579999 0.903
-0.043400001 0.22579999 0.903
-0.0418 0.22579999 0.903
-0.0403 0.22579999 0.903
-0.038600001 0.2255 0.90200001
-0.037 0.2253 0.90100002
-0.035500001 0.2255 0.90200001
-0.034000002 0.2255 0.90200001
-0.032400001 0.2255 0.90200001
-0.0308 0.2255 0.90200001
-0.029200001 0.2253 0.90100002
-0.0276 0.22499999 0.89999998
-0.0261 0.22499999 0.89999998
-0.018200001 0.2245 0.898
-0.0167 0.22499999 0.89999998
-0.0152 0.2253 0.90100002
-0.0136 0.2255 0.90200001
-0.0105 0.2255 0.90200001
-0.0088999998 0.2253 0.90100002
-0.0074 0.2253 0.90100002
-0.0057999999 0.22499999 0.89999998
-0.0041999999 0.2245 0.898
-0.0011 0.22400001 0.89600003
0.0020000001 0.2238 0.89499998
0.0051000002 0.2245 0.898
0.0066999998 0.22499999 0.89999998
0.0082 0.2255 0.90200001
0.013 0.227 0.90799999
0.0146 0.22679999 0.90700001
0.0177 0.2263 0.90499997
0.019300001 0.2263 0.90499997
0.0208 0.22579999 0.903
0.022299999 0.2253 0.90100002
0.023800001 0.2245 0.898
0.0253 0.22400001 0.89600003
0.026900001 0.2245 0.898
0.0285 0.2253 0.90100002
0.030099999 0.2255 0.90200001
0.035 0.22679999 0.90700001
0.036600001 0.22679999 0.90700001
0.038199998 0.22679999 0.90700001
0.039700001 0.22679999 0.90700001
0.041299999 0.22679999 0.90700001
0.042800002 0.2263 0.90499997
0.044399999 0.2263 0.90499997
0.045899998 0.2263 0.90499997
0.047499999 0.2263 0.90499997
0.0491 0.2263 0.90499997
0.0506 0.2263 0.90499997
0.052099999 0.226 0.90399998
0.053599998 0.22579999 0.903
0.055300001 0.226 0.90399998
0.056899998 0.2263 0.90499997
0.058499999 0.2263 0.90499997
0.059999999 0.2263 0.90499997
0.061500002 0.22579999 0.903
0.063000001 0.22579999 0.903
0.064599998 0.22579999 0.903
0.066200003 0.22579999 0.903
0.067599997 0.2253 0.90100002
0.0691 0.2253 0.90100002
0.070900001 0.22579999 0.903
0.0726 0.2263 0.90499997
0.074199997 0.2265 0.90600002
0.075999998 0.227 0.90799999
0.077699997 0.22750001 0.91000003
0.079599999 0.22849999 0.91399997
0.081600003 0.2295 0.91799998
0.083300002 0.2298 0.91900003
0.086499996 0.23 0.92000002
0.088 0.2298 0.91900003
0.092 0.2278 0.91100001
0.093400002 0.2273 0.90899998
0.098999999 0.22579999 0.903
0.1007 0.226 0.90399998
0.1024 0.2263 0.90499997
0.1074 0.227 0.90799999
0.109 0.227 0.90799999
0.1111 0.228 0.912
0.1142 0.228 0.912
0.1157 0.2278 0.91100001
0.1171 0.22750001 0.91000003
0.1186 0.2273 0.90899998
0.1202 0.2273 0.90899998
0.1217 0.2273 0.90899998
0.1232 0.227 0.90799999
0.1249 0.2273 0.90899998
0.1358 0.227 0.90799999
0.1392 0.22750001 0.91000003
0.1408 0.22750001 0.91000003
0.1424 0.22750001 0.91000003
0.14399999 0.22750001 0.91000003
0.1455 0.22750001 0.91000003
0.14839999 0.227 0.90799999
0.1498 0.22679999 0.90700001
0.1529 0.22679999 0.90700001
0.15449999 0.22679999 0.90700001
0.1561 0.22679999 0.90700001
0.1575 0.2265 0.90600002
0.1592 0.22679999 0.90700001
0.1608 0.22679999 0.90700001
0.16249999 0.227 0.90799999
0.16410001 0.227 0.90799999
0.1657 0.227 0.90799999
0.1812 0.22679999 0.90700001
-0.38870001 0.2225 0.884
-0.3872 0.2225 0.884
-0.3673 0.2225 0.884
-0.36570001 0.2225 0.884
-0.36379999 0.22229999 0.88300002
-0.36269999 0.2225 0.884
-0.36109999 0.2225 0.884
-0.3592 0.22229999 0.88300002
-0.34729999 0.22050001 0.87599999
-0.34650001 0.221 0.87800002
-0.347 0.22229999 0.88300002
-0.34619999 0.2228 0.88499999
-0.3459 0.2236 0.88800001
-0.3443 0.2236 0.88800001
-0.34279999 0.2236 0.88800001
-0.3405 0.22409999 0.88999999
-0.3355 0.2238 0.889
-0.33430001 0.22409999 0.88999999
-0.33239999 0.2238 0.889
-0.3308 0.2238 0.889
-0.32929999 0.2238 0.889
-0.3274 0.2236 0.88800001
-0.32620001 0.2238 0.889
-0.32499999 0.22409999 0.88999999
-0.32350001 0.22409999 0.88999999
-0.32229999 0.2243 0.89099997
-0.3211 0.2246 0.89200002
-0.31990001 0.22480001 0.89300001
-0.3184 0.22480001 0.89300001
-0.31600001 0.2253 0.89499998
-0.31479999 0.2256 0.89600003
-0.31290001 0.2253 0.89499998
-0.3107 0.22480001 0.89300001
-0.30840001 0.2243 0.89099997
-0.3046 0.2238 0.889
-0.3028 0.2236 0.88800001
-0.29899999 0.223 0.88599998
-0.2475 0.2251 0.89399999
-0.2462 0.2253 0.89499998
-0.2449 0.2256 0.89600003
-0.2439 0.2261 0.898
-0.2432 0.22679999 0.90100002
-0.2421 0.2273 0.903
-0.2411 0.2278 0.90499997
-0.2377 0.2291 0.91000003
-0.22499999 0.2243 0.89099997
-0.223 0.2238 0.889
-0.22139999 0.2238 0.889
-0.22040001 0.2243 0.89099997
-0.2193 0.22480001 0.89300001
-0.21780001 0.22480001 0.89300001
-0.21619999 0.22480001 0.89300001
-0.2142 0.2243 0.89099997
-0.2069 0.223 0.88599998
-0.20559999 0.2233 0.88700002
-0.204 0.2233 0.88700002
-0.2027 0.2236 0.88800001
-0.2014 0.2238 0.889
-0.2001 0.22409999 0.88999999
-0.19859999 0.22409999 0.88999999
-0.197 0.22409999 0.88999999
-0.1955 0.22409999 0.88999999
-0.19410001 0.2243 0.89099997
-0.1926 0.2243 0.89099997
-0.1911 0.2243 0.89099997
-0.18970001 0.2246 0.89200002
-0.1884 0.22480001 0.89300001
-0.18700001 0.2251 0.89399999
-0.1857 0.2253 0.89499998
-0.184 0.2251 0.89399999
-0.1824 0.2251 0.89399999
-0.1811 0.2253 0.89499998
-0.1795 0.2253 0.89499998
-0.1778 0.2251 0.89399999
-0.176 0.22480001 0.89300001
-0.1745 0.22480001 0.89300001
-0.17309999 0.2251 0.89399999
-0.16940001 0.2243 0.89099997
-0.16769999 0.22409999 0.88999999
-0.16580001 0.2236 0.88800001
-0.16410001 0.2233 0.88700002
-0.16249999 0.2233 0.88700002
-0.161 0.2233 0.88700002
-0.1596 0.2236 0.88800001
-0.1529 0.2273 0.903
-0.1512 0.2271 0.90200001
-0.1496 0.2271 0.90200001
-0.1479 0.22679999 0.90100002
-0.1464 0.22679999 0.90100002
-0.1407 0.2253 0.89499998
-0.1393 0.2256 0.89600003
-0.13779999 0.2256 0.89600003
-0.1367 0.2263 0.89899999
-0.13500001 0.2261 0.898
-0.13339999 0.2261 0.898
-0.1304 0.2263 0.89899999
-0.12899999 0.22660001 0.89999998
-0.12729999 0.2263 0.89899999
-0.1256 0.2261 0.898
-0.1241 0.2261 0.898
-0.1227 0.2263 0.89899999
-0.1212 0.22660001 0.89999998
-0.1197 0.22660001 0.89999998
-0.1181 0.22660001 0.89999998
-0.1167 0.22679999 0.90100002
-0.1151 0.22679999 0.90100002
-0.1136 0.22679999 0.90100002
-0.112 0.22679999 0.90100002
-0.1104 0.22679999 0.90100002
-0.1088 0.22660001 0.89999998
-0.1072 0.22660001 0.89999998
-0.1056 0.22660001 0.89999998
-0.1038 0.2261 0.898
-0.1021 0.2256 0.89600003
-0.1005 0.2256 0.89600003
-0.098800004 0.2253 0.89499998
-0.0973 0.2253 0.89499998
-0.093999997 0.22480001 0.89300001
-0.092399999 0.22480001 0.89300001
-0.090999998 0.2251 0.89399999
-0.089400001 0.2251 0.89399999
-0.088 0.2253 0.89499998
-0.086400002 0.2253 0.89499998
-0.084899999 0.2253 0.89499998
-0.083400004 0.2256 0.89600003
-0.080399998 0.22579999 0.89700001
-0.078900002 0.2261 0.898
-0.074500002 0.22679999 0.90100002
-0.072899997 0.22660001 0.89999998
-0.071400002 0.22679999 0.90100002
-0.069799997 0.22660001 0.89999998
-0.068000004 0.22579999 0.89700001
-0.066299997 0.2253 0.89499998
-0.064599998 0.22480001 0.89300001
-0.063000001 0.22480001 0.89300001
-0.061299998 0.2243 0.89099997
-0.059799999 0.2243 0.89099997
-0.0583 0.2243 0.89099997
-0.0568 0.22480001 0.89300001
-0.0557 0.2263 0.89899999
-0.054299999 0.2271 0.90200001
-0.052900001 0.2278 0.90499997
-0.0513 0.2278 0.90499997
-0.049899999 0.22830001 0.90700001
-0.0482 0.2281 0.90600002
-0.043400001 0.22759999 0.90399998
-0.0418 0.2273 0.903
-0.040199999 0.2271 0.90200001
-0.038600001 0.2271 0.90200001
-0.037 0.22660001 0.89999998
-0.035500001 0.22679999 0.90100002
-0.0339 0.22679999 0.90100002
-0.032400001 0.22679999 0.90100002
-0.0308 0.22679999 0.90100002
-0.029200001 0.22679999 0.90100002
-0.0276 0.22660001 0.89999998
-0.0261 0.22660001 0.89999998
-0.024499999 0.2263 0.89899999
-0.021400001 0.2261 0.898
-0.0198 0.2261 0.898
-0.018200001 0.2261 0.898
-0.0167 0.22660001 0.89999998
-0.0152 0.22679999 0.90100002
-0.0136 0.2271 0.90200001
-0.0121 0.2271 0.90200001
-0.0105 0.2273 0.903
-0.0089999996 0.2273 0.903
-0.0074 0.2273 0.903
-0.0057999999 0.22679999 0.90100002
-0.0041999999 0.22660001 0.89999998
-0.0011 0.2256 0.89600003
0.0035000001 0.22579999 0.89700001
0.0051000002 0.2263 0.89899999
0.0066999998 0.22679999 0.90100002
0.0082999999 0.2273 0.903
0.0098000001 0.2278 0.90499997
0.0114 0.22830001 0.90700001
0.013 0.2286 0.90799999
0.016100001 0.2278 0.90499997
0.0177 0.2278 0.90499997
0.019300001 0.2278 0.90499997
0.0208 0.22759999 0.90399998
0.022299999 0.2271 0.90200001
0.023800001 0.22660001 0.89999998
0.0254 0.2263 0.89899999
0.026900001 0.22660001 0.89999998
0.0286 0.2271 0.90200001
0.030200001 0.2273 0.903
0.031800002 0.2278 0.90499997
0.033399999 0.22830001 0.90700001
0.035 0.22830001 0.90700001
0.038199998 0.2286 0.90799999
0.039700001 0.22830001 0.90700001
0.041299999 0.22830001 0.90700001
0.042800002 0.2281 0.90600002
0.044399999 0.2278 0.90499997
0.045899998 0.2278 0.90499997
0.047499999 0.2281 0.90600002
0.0491 0.2281 0.90600002
0.052200001 0.2278 0.90499997
0.053800002 0.2278 0.90499997
0.055300001 0.2278 0.90499997
0.057 0.2281 0.90600002
0.058499999 0.2281 0.90600002
0.0601 0.2281 0.90600002
0.0616 0.2278 0.90499997
0.063199997 0.2278 0.90499997
0.0647 0.2278 0.90499997
0.066299997 0.2278 0.90499997
0.067699999 0.2273 0.903
0.069300003 0.2273 0.903
0.070900001 0.2273 0.903
0.0726 0.2278 0.90499997
0.074199997 0.2281 0.90600002
0.075900003 0.22830001 0.90700001
0.077600002 0.2288 0.90899998
0.079599999 0.2298 0.91299999
0.081500001 0.2309 0.917
0.083400004 0.23190001 0.921
0.085100003 0.2321 0.92199999
0.0867 0.2321 0.92199999
0.088200003 0.23190001 0.921
0.089599997 0.2314 0.91900003
0.095100001 0.2291 0.91000003
0.0964 0.2286 0.90799999
0.097900003 0.22830001 0.90700001
0.099200003 0.2278 0.90499997
0.1009 0.2281 0.90600002
0.1058 0.22830001 0.90700001
0.1074 0.2286 0.90799999
0.1089 0.22830001 0.90700001
0.1107 0.2288 0.90899998
0.1124 0.2291 0.91000003
0.1139 0.2288 0.90899998
0.1154 0.2288 0.90899998
0.1168 0.22830001 0.90700001
0.1183 0.22830001 0.90700001
0.1199 0.22830001 0.90700001
0.1215 0.22830001 0.90700001
0.123 0.22830001 0.90700001
0.1246 0.22830001 0.90700001
0.13950001 0.2296 0.912
0.1411 0.2296 0.912
0.1425 0.22930001 0.91100001
0.14399999 0.2291 0.91000003
0.1471 0.2291 0.91000003
0.1498 0.22830001 0.90700001
0.15449999 0.22830001 0.90700001
0.1559 0.2281 0.90600002
0.1575 0.2281 0.90600002
0.1592 0.22830001 0.90700001
0.161 0.2286 0.90799999
0.16249999 0.2286 0.90799999
0.16429999 0.2288 0.90899998
0.16599999 0.2291 0.91000003
0.17200001 0.2286 0.90799999
-0.39179999 0.22409999 0.884
-0.38870001 0.22409999 0.884
-0.3872 0.22409999 0.884
-0.38569999 0.22409999 0.884
-0.38499999 0.2246 0.88599998
-0.38429999 0.2251 0.88800001
-0.38319999 0.2253 0.889
-0.38209999 0.2256 0.88999999
-0.37169999 0.22589999 0.89099997
-0.3689 0.2251 0.88800001
-0.3624 0.22480001 0.88700002
-0.36000001 0.2243 0.88499999
-0.34920001 0.22229999 0.87699997
-0.34729999 0.2221 0.87599999
-0.34650001 0.2226 0.87800002
-0.3466 0.2236 0.88200003
-0.34619999 0.2243 0.88499999
-0.34549999 0.22480001 0.88700002
-0.34279999 0.2251 0.88800001
-0.3416 0.2253 0.889
-0.3405 0.2256 0.88999999
-0.3389 0.2256 0.88999999
-0.33579999 0.2256 0.88999999
-0.33430001 0.2256 0.88999999
-0.33160001 0.22589999 0.89099997
-0.33000001 0.22589999 0.89099997
-0.3281 0.2256 0.88999999
-0.32659999 0.2256 0.88999999
-0.32499999 0.2256 0.88999999
-0.32350001 0.2256 0.88999999
-0.322 0.2256 0.88999999
-0.3204 0.2256 0.88999999
-0.31920001 0.22589999 0.89099997
-0.3152 0.2274 0.89700001
-0.3114 0.2269 0.89499998
-0.30880001 0.2261 0.89200002
-0.30689999 0.22589999 0.89099997
-0.30500001 0.2256 0.88999999
-0.2483 0.2274 0.89700001
-0.24699999 0.22759999 0.898
-0.2455 0.22759999 0.898
-0.2439 0.22759999 0.898
-0.2432 0.22840001 0.90100002
-0.24240001 0.2291 0.90399998
-0.24160001 0.2299 0.90700001
-0.2219 0.22589999 0.89099997
-0.2209 0.2264 0.89300001
-0.2198 0.2269 0.89499998
-0.21780001 0.2264 0.89300001
-0.21600001 0.2261 0.89200002
-0.2124 0.2256 0.88999999
-0.20559999 0.22480001 0.88700002
-0.2043 0.2251 0.88800001
-0.2027 0.2251 0.88800001
-0.2014 0.2253 0.889
-0.2001 0.2256 0.88999999
-0.19859999 0.2256 0.88999999
-0.197 0.2256 0.88999999
-0.1957 0.22589999 0.89099997
-0.19410001 0.22589999 0.89099997
-0.1886 0.22660001 0.89399999
-0.1873 0.2269 0.89499998
-0.1857 0.2269 0.89499998
-0.1842 0.2269 0.89499998
-0.18279999 0.2271 0.89600003
-0.1815 0.2274 0.89700001
-0.1797 0.2271 0.89600003
-0.178 0.2269 0.89499998
-0.17640001 0.2269 0.89499998
-0.175 0.2271 0.89600003
-0.1717 0.2269 0.89499998
-0.16769999 0.2256 0.88999999
-0.1662 0.2256 0.88999999
-0.16419999 0.2251 0.88800001
-0.1612 0.2251 0.88800001
-0.16 0.2256 0.88999999
-0.14820001 0.2289 0.903
-0.1446 0.2281 0.89999998
-0.13950001 0.2274 0.89700001
-0.13789999 0.2274 0.89700001
-0.13680001 0.2281 0.89999998
-0.1353 0.2281 0.89999998
-0.1337 0.2281 0.89999998
-0.1322 0.2281 0.89999998
-0.13060001 0.2281 0.89999998
-0.12899999 0.2281 0.89999998
-0.1275 0.2281 0.89999998
-0.1259 0.2281 0.89999998
-0.1244 0.2281 0.89999998
-0.1228 0.2281 0.89999998
-0.1214 0.22840001 0.90100002
-0.1198 0.22840001 0.90100002
-0.1182 0.22840001 0.90100002
-0.1167 0.22840001 0.90100002
-0.1136 0.22840001 0.90100002
-0.1122 0.2289 0.903
-0.1107 0.2289 0.903
-0.1089 0.22840001 0.90100002
-0.1072 0.2281 0.89999998
-0.1056 0.2281 0.89999998
-0.1038 0.22759999 0.898
-0.1021 0.2271 0.89600003
-0.1005 0.2271 0.89600003
-0.098800004 0.2269 0.89499998
-0.0973 0.2269 0.89499998
-0.095700003 0.2269 0.89499998
-0.094099998 0.22660001 0.89399999
-0.092500001 0.22660001 0.89399999
-0.0911 0.2269 0.89499998
-0.089500003 0.2269 0.89499998
-0.088 0.2269 0.89499998
-0.086400002 0.2269 0.89499998
-0.085000001 0.2271 0.89600003
-0.083400004 0.2271 0.89600003
-0.081900001 0.2271 0.89600003
-0.080300003 0.2271 0.89600003
-0.077399999 0.22759999 0.898
-0.075800002 0.22759999 0.898
-0.0744 0.2279 0.89899999
-0.072899997 0.2281 0.89999998
-0.071400002 0.22840001 0.90100002
-0.069799997 0.22840001 0.90100002
-0.068099998 0.2279 0.89899999
-0.066299997 0.2271 0.89600003
-0.0647 0.2269 0.89499998
-0.063199997 0.2269 0.89499998
-0.061500002 0.22660001 0.89399999
-0.0601 0.2269 0.89499998
-0.058499999 0.2269 0.89499998
-0.0572 0.22759999 0.898
-0.055799998 0.22840001 0.90100002
-0.0451 0.22939999 0.90499997
-0.043499999 0.22939999 0.90499997
-0.041900001 0.2291 0.90399998
-0.0403 0.2289 0.903
-0.038600001 0.22840001 0.90100002
-0.037 0.2281 0.89999998
-0.035399999 0.2281 0.89999998
-0.0339 0.2281 0.89999998
-0.032299999 0.2279 0.89899999
-0.0308 0.2281 0.89999998
-0.029200001 0.22840001 0.90100002
-0.0276 0.2281 0.89999998
-0.024499999 0.22759999 0.898
-0.023 0.2281 0.89999998
-0.021400001 0.2279 0.89899999
-0.0198 0.22759999 0.898
-0.018300001 0.2279 0.89899999
-0.0167 0.2281 0.89999998
-0.0152 0.22840001 0.90100002
-0.0136 0.2286 0.90200001
-0.0121 0.2289 0.903
-0.0105 0.2289 0.903
-0.0089999996 0.2289 0.903
-0.0074 0.2289 0.903
-0.0057999999 0.2286 0.90200001
-0.0027000001 0.2281 0.89999998
0.00039999999 0.2271 0.89600003
0.0020000001 0.2271 0.89600003
0.0035000001 0.22759999 0.898
0.0051000002 0.2281 0.89999998
0.0066999998 0.22840001 0.90100002
0.0082999999 0.2289 0.903
0.0098000001 0.22939999 0.90499997
0.0114 0.2297 0.90600002
0.013 0.2299 0.90700001
0.0146 0.2297 0.90600002
0.016100001 0.22939999 0.90499997
0.019300001 0.22939999 0.90499997
0.0208 0.22939999 0.90499997
0.022299999 0.2289 0.903
0.0239 0.2286 0.90200001
0.0254 0.22840001 0.90100002
0.027000001 0.22840001 0.90100002
0.0286 0.2289 0.903
0.030200001 0.2289 0.903
0.031800002 0.2291 0.90399998
0.033399999 0.22939999 0.90499997
0.035 0.2297 0.90600002
0.036600001 0.2299 0.90700001
0.039700001 0.2299 0.90700001
0.041299999 0.2299 0.90700001
0.042800002 0.2297 0.90600002
0.044399999 0.22939999 0.90499997
0.045899998 0.22939999 0.90499997
0.049199998 0.2299 0.90700001
0.050700001 0.2299 0.90700001
0.052299999 0.2297 0.90600002
0.0539 0.2299 0.90700001
0.055500001 0.2299 0.90700001
0.0572 0.2304 0.90899998
0.058800001 0.2307 0.91000003
0.060400002 0.2309 0.91100001
0.061999999 0.2309 0.91100001
0.063600004 0.2309 0.91100001
0.064999998 0.2304 0.90899998
0.066500001 0.2299 0.90700001
0.067900002 0.22939999 0.90499997
0.0726 0.22939999 0.90499997
0.074199997 0.22939999 0.90499997
0.075900003 0.2299 0.90700001
0.077500001 0.23019999 0.90799999
0.079499997 0.23119999 0.912
0.081699997 0.233 0.91900003
0.0836 0.234 0.92299998
0.085199997 0.234 0.92299998
0.0867 0.23370001 0.92199999
0.088200003 0.2335 0.921
0.090999998 0.2324 0.917
0.093699999 0.23119999 0.912
0.095200002 0.2309 0.91100001
0.1026 0.2299 0.90700001
0.1042 0.2299 0.90700001
0.1058 0.2299 0.90700001
0.1074 0.23019999 0.90799999
0.1089 0.2299 0.90700001
0.1106 0.23019999 0.90799999
0.1122 0.23019999 0.90799999
0.1136 0.2299 0.90700001
0.1166 0.2297 0.90600002
0.1181 0.22939999 0.90499997
0.1196 0.22939999 0.90499997
0.1212 0.22939999 0.90499997
0.1228 0.22939999 0.90499997
0.1243 0.22939999 0.90499997
0.1259 0.22939999 0.90499997
0.13259999 0.23019999 0.90799999
0.13609999 0.2307 0.91000003
0.13950001 0.23119999 0.912
0.1427 0.23119999 0.912
0.14399999 0.2307 0.91000003
0.14569999 0.2309 0.91100001
0.15099999 0.22939999 0.90499997
0.15260001 0.22939999 0.90499997
0.1541 0.22939999 0.90499997
0.1557 0.22939999 0.90499997
0.15889999 0.22939999 0.90499997
0.1608 0.2299 0.90700001
0.16249999 0.23019999 0.90799999
0.1645 0.2307 0.91000003
0.16599999 0.2307 0.91000003
0.16779999 0.2309 0.91100001
0.1761 0.22939999 0.90499997
-0.38609999 0.22589999 0.88499999
-0.38429999 0.22660001 0.88800001
-0.34529999 0.2233 0.875
-0.34540001 0.2254 0.88300002
-0.34509999 0.2261 0.88599998
-0.3443 0.22660001 0.88800001
-0.3416 0.2269 0.889
-0.34009999 0.2269 0.889
-0.33849999 0.2269 0.889
-0.3355 0.2269 0.889
-0.3339 0.2269 0.889
-0.33160001 0.2274 0.89099997
-0.3308 0.2279 0.89300001
-0.3292 0.2279 0.89300001
-0.32730001 0.2277 0.89200002
-0.3258 0.2277 0.89200002
-0.32390001 0.2274 0.89099997
-0.32229999 0.2274 0.89099997
-0.32080001 0.2274 0.89099997
-0.31400001 0.22920001 0.898
-0.31169999 0.2287 0.89600003
-0.3091 0.2279 0.89300001
-0.30689999 0.2274 0.89099997
-0.30500001 0.2271 0.88999999
-0.30340001 0.2271 0.88999999
-0.2485 0.2277 0.89200002
-0.24779999 0.22840001 0.89499998
-0.24680001 0.2289 0.89700001
-0.2455 0.22920001 0.898
-0.2439 0.22920001 0.898
-0.2432 0.2299 0.90100002
-0.2427 0.23100001 0.90499997
-0.2419 0.2317 0.90799999
-0.2406 0.23199999 0.90899998
-0.2291 0.2299 0.90100002
-0.2229 0.22840001 0.89499998
-0.2219 0.2289 0.89700001
-0.2208 0.22939999 0.89899999
-0.2185 0.2287 0.89600003
-0.2159 0.22920001 0.898
-0.21430001 0.22920001 0.898
-0.208 0.2274 0.89099997
-0.20649999 0.2274 0.89099997
-0.20469999 0.2271 0.88999999
-0.2032 0.2271 0.88999999
-0.2016 0.2271 0.88999999
-0.2001 0.2271 0.88999999
-0.19859999 0.2271 0.88999999
-0.197 0.2271 0.88999999
-0.1957 0.2274 0.89099997
-0.19410001 0.2274 0.89099997
-0.1913 0.2277 0.89200002
-0.1899 0.2279 0.89300001
-0.1886 0.2282 0.89399999
-0.1875 0.2287 0.89600003
-0.1859 0.2287 0.89600003
-0.1842 0.22840001 0.89499998
-0.18279999 0.2287 0.89600003
-0.18170001 0.22920001 0.898
-0.1797 0.2287 0.89600003
-0.17820001 0.2287 0.89600003
-0.1768 0.2289 0.89700001
-0.17389999 0.22920001 0.898
-0.1719 0.2287 0.89600003
-0.17020001 0.22840001 0.89499998
-0.1683 0.2279 0.89300001
-0.1665 0.2277 0.89200002
-0.1648 0.2274 0.89099997
-0.1636 0.2279 0.89300001
-0.1514 0.2305 0.903
-0.1498 0.2305 0.903
-0.145 0.23019999 0.90200001
-0.1432 0.2299 0.90100002
-0.14120001 0.22920001 0.898
-0.1401 0.2299 0.90100002
-0.13869999 0.23019999 0.90200001
-0.1371 0.23019999 0.90200001
-0.1354 0.2299 0.90100002
-0.1339 0.2299 0.90100002
-0.1323 0.2299 0.90100002
-0.13070001 0.2299 0.90100002
-0.1292 0.2299 0.90100002
-0.1275 0.2297 0.89999998
-0.1259 0.2297 0.89999998
-0.1244 0.2297 0.89999998
-0.1228 0.2297 0.89999998
-0.1214 0.2299 0.90100002
-0.1198 0.2299 0.90100002
-0.1182 0.2299 0.90100002
-0.1168 0.23019999 0.90200001
-0.1152 0.23019999 0.90200001
-0.1138 0.2305 0.903
-0.1107 0.2305 0.903
-0.109 0.23019999 0.90200001
-0.1073 0.2299 0.90100002
-0.1056 0.2297 0.89999998
-0.1038 0.22920001 0.898
-0.1021 0.2287 0.89600003
-0.1004 0.22840001 0.89499998
-0.098800004 0.22840001 0.89499998
-0.0973 0.22840001 0.89499998
-0.095700003 0.22840001 0.89499998
-0.094099998 0.2282 0.89399999
-0.092600003 0.22840001 0.89499998
-0.091200002 0.2287 0.89600003
-0.089599997 0.2287 0.89600003
-0.088 0.22840001 0.89499998
-0.086400002 0.22840001 0.89499998
-0.085000001 0.2287 0.89600003
-0.083400004 0.2287 0.89600003
-0.081900001 0.2287 0.89600003
-0.080300003 0.2287 0.89600003
-0.078900002 0.2289 0.89700001
-0.077399999 0.22920001 0.898
-0.0757 0.2289 0.89700001
-0.074299999 0.22920001 0.898
-0.072800003 0.22939999 0.89899999
-0.071400002 0.2299 0.90100002
-0.069799997 0.2299 0.90100002
-0.0682 0.2297 0.89999998
-0.066500001 0.22920001 0.898
-0.064900003 0.22920001 0.898
-0.063299999 0.2289 0.89700001
-0.061799999 0.2289 0.89700001
-0.060199998 0.2289 0.89700001
-0.058600001 0.2287 0.89600003
-0.0572 0.22920001 0.898
-0.0557 0.2297 0.89999998
-0.049800001 0.23119999 0.90600002
-0.0451 0.23119999 0.90600002
-0.043499999 0.23119999 0.90600002
-0.041900001 0.23100001 0.90499997
-0.0403 0.2307 0.90399998
-0.038699999 0.2305 0.903
-0.037 0.2297 0.89999998
-0.035399999 0.22939999 0.89899999
-0.033799998 0.22939999 0.89899999
-0.032299999 0.22920001 0.898
-0.0307 0.22939999 0.89899999
-0.029200001 0.22939999 0.89899999
-0.0276 0.22939999 0.89899999
-0.0261 0.2297 0.89999998
-0.024499999 0.22920001 0.898
-0.023 0.2297 0.89999998
-0.021400001 0.2297 0.89999998
-0.0198 0.2297 0.89999998
-0.018300001 0.2297 0.89999998
-0.0167 0.2299 0.90100002
-0.0121 0.2305 0.903
-0.0105 0.2305 0.903
-0.0089999996 0.2305 0.903
-0.0074 0.2307 0.90399998
0.00039999999 0.2297 0.89999998
0.0020000001 0.2297 0.89999998
0.0066999998 0.2305 0.903
0.0082999999 0.23100001 0.90499997
0.0098999999 0.2315 0.90700001
0.0114 0.23119999 0.90600002
0.013 0.23119999 0.90600002
0.0146 0.23119999 0.90600002
0.016100001 0.23119999 0.90600002
0.0177 0.23100001 0.90499997
0.0208 0.23100001 0.90499997
0.022399999 0.2307 0.90399998
0.0239 0.2305 0.903
0.0254 0.23019999 0.90200001
0.027000001 0.2299 0.90100002
0.030099999 0.23019999 0.90200001
0.0317 0.2305 0.903
0.033399999 0.23100001 0.90499997
0.034899998 0.23100001 0.90499997
0.036499999 0.23100001 0.90499997
0.0381 0.23100001 0.90499997
0.041200001 0.23100001 0.90499997
0.042800002 0.23100001 0.90499997
0.044399999 0.23100001 0.90499997
0.045899998 0.23100001 0.90499997
0.047600001 0.2315 0.90700001
0.049199998 0.2317 0.90799999
0.050799999 0.2317 0.90799999
0.0524 0.2317 0.90799999
0.054000001 0.23199999 0.90899998
0.055599999 0.2322 0.91000003
0.057300001 0.23280001 0.912
0.059 0.233 0.91299999
0.060800001 0.23379999 0.91600001
0.0625 0.2343 0.91799998
0.064000003 0.234 0.917
0.065499999 0.2335 0.91500002
0.066799998 0.2325 0.91100001
0.0726 0.23100001 0.90499997
0.074199997 0.23100001 0.90499997
0.075800002 0.23119999 0.90600002
0.077399999 0.23119999 0.90600002
0.079099998 0.2317 0.90799999
0.081 0.2325 0.91100001
0.083099999 0.234 0.917
0.084899999 0.2348 0.92000002
0.086400002 0.23450001 0.91900003
0.088 0.23450001 0.91900003
0.093599997 0.2325 0.91100001
0.095299996 0.23280001 0.912
0.098200001 0.2322 0.91000003
0.099600002 0.2317 0.90799999
0.1013 0.23199999 0.90899998
0.1027 0.2317 0.90799999
0.1043 0.2317 0.90799999
0.1059 0.2317 0.90799999
0.1074 0.2317 0.90799999
0.1089 0.2315 0.90700001
0.1106 0.2317 0.90799999
0.112 0.2315 0.90700001
0.1135 0.23119999 0.90600002
0.1164 0.2307 0.90399998
0.1178 0.2305 0.903
0.1195 0.2307 0.90399998
0.1212 0.23100001 0.90499997
0.1226 0.2307 0.90399998
0.1259 0.23100001 0.90499997
0.1293 0.2315 0.90700001
0.1309 0.2315 0.90700001
0.1358 0.2317 0.90799999
0.1392 0.2322 0.91000003
0.141 0.2325 0.91100001
0.1427 0.23280001 0.912
0.1443 0.23280001 0.912
0.15099999 0.23100001 0.90499997
0.1522 0.2305 0.903
0.1538 0.2305 0.903
0.1585 0.2305 0.903
0.16060001 0.23119999 0.90600002
0.16249999 0.2317 0.90799999
0.16429999 0.23199999 0.90899998
0.1662 0.2325 0.91100001
0.168 0.23280001 0.912
0.16940001 0.2325 0.91100001
0.1708 0.2322 0.91000003
0.17219999 0.23199999 0.90899998
0.1735 0.2317 0.90799999
0.1749 0.2315 0.90700001
