ply
format ascii 1.0
comment PCL generated
element vertex 1660
property float x
property float y
property float z
element camera 0
property float view_px
property float view_py
property float view_pz
property float x_axisx
property float x_axisy
property float x_axisz
property float y_axisx
property float y_axisy
property float y_axisz
property float z_axisx
property float z_axisy
property float z_axisz
property float focal
property float scalex
property float scaley
property float centerx
property float centery
property int viewportx
property int viewporty
property float k1
property float k2
end_header
-0.0704 0.15360001 0.83399999
-0.0691 0.154 0.83600003
-0.067900002 0.1543 0.838
-0.066500001 0.15449999 0.83899999
-0.064999998 0.15449999 0.83899999
-0.063500002 0.1543 0.838
-0.060699999 0.16670001 0.90499997
-0.059099998 0.1665 0.90399998
-0.057399999 0.1661 0.90200001
-0.055799998 0.16590001 0.90100002
-0.054200001 0.16590001 0.90100002
-0.052700002 0.16590001 0.90100002
-0.050999999 0.1657 0.89999998
-0.0495 0.1657 0.89999998
-0.047899999 0.1656 0.89899999
-0.046399999 0.1657 0.89999998
-0.044799998 0.1657 0.89999998
-0.043099999 0.1654 0.898
-0.0416 0.1654 0.898
-0.039999999 0.1654 0.898
-0.0385 0.1654 0.898
-0.036899999 0.1652 0.89700001
-0.035300002 0.1652 0.89700001
-0.033799998 0.1652 0.89700001
-0.032299999 0.1654 0.898
-0.0307 0.1656 0.89899999
-0.029200001 0.1656 0.89899999
-0.0276 0.1656 0.89899999
-0.0261 0.1657 0.89999998
-0.024499999 0.1657 0.89999998
-0.0229 0.1656 0.89899999
-0.021400001 0.1654 0.898
-0.0198 0.16500001 0.89600003
-0.018200001 0.1654 0.898
-0.016799999 0.1661 0.90200001
-0.0152 0.1661 0.90200001
-0.0137 0.1663 0.903
-0.0121 0.1663 0.903
-0.0105 0.1661 0.90200001
-0.0088999998 0.16590001 0.90100002
-0.0074 0.1656 0.89899999
-0.0057999999 0.1648 0.89499998
-0.0041999999 0.16410001 0.89099997
-0.0027000001 0.16410001 0.89099997
-0.0011 0.16410001 0.89099997
0.00039999999 0.16410001 0.89099997
0.0020000001 0.1645 0.89300001
0.0035000001 0.16500001 0.89600003
0.0051000002 0.1656 0.89899999
0.0066999998 0.1657 0.89999998
0.0082 0.16590001 0.90100002
0.0098000001 0.1657 0.89999998
0.0113 0.1656 0.89899999
0.0129 0.1657 0.89999998
0.0145 0.1657 0.89999998
0.016100001 0.1661 0.90200001
0.0176 0.1663 0.903
0.019300001 0.16670001 0.90499997
0.0208 0.16670001 0.90499997
0.022399999 0.16680001 0.90600002
0.024 0.16670001 0.90499997
0.0255 0.1663 0.903
0.027000001 0.1661 0.90200001
0.0285 0.16590001 0.90100002
0.029999999 0.1656 0.89899999
0.031599998 0.1656 0.89899999
0.033100002 0.1654 0.898
0.034699999 0.1656 0.89899999
0.0363 0.1657 0.89999998
0.037900001 0.16590001 0.90100002
0.039500002 0.16590001 0.90100002
0.041000001 0.16590001 0.90100002
0.042599998 0.16590001 0.90100002
0.044300001 0.1663 0.903
0.045899998 0.16670001 0.90499997
0.047499999 0.16680001 0.90600002
0.049199998 0.167 0.90700001
0.050900001 0.16760001 0.91000003
0.052499998 0.16779999 0.91100001
0.054099999 0.16779999 0.91100001
0.0647 0.16670001 0.90499997
0.066299997 0.16670001 0.90499997
0.068000004 0.167 0.90700001
0.069700003 0.1672 0.90799999
0.0713 0.1672 0.90799999
0.072999999 0.16760001 0.91000003
0.074600004 0.16760001 0.91000003
0.076099999 0.16760001 0.91000003
0.077799998 0.16779999 0.91100001
0.079300001 0.16760001 0.91000003
0.081 0.16779999 0.91100001
0.082400002 0.16760001 0.91000003
0.083899997 0.1674 0.90899998
0.0854 0.1672 0.90799999
0.086999997 0.1672 0.90799999
0.088500001 0.167 0.90700001
0.089900002 0.16680001 0.90600002
0.091399997 0.16670001 0.90499997
0.094800003 0.167 0.90700001
0.096299998 0.167 0.90700001
0.097900003 0.167 0.90700001
0.0995 0.167 0.90700001
0.1012 0.1672 0.90799999
0.1027 0.1672 0.90799999
0.1043 0.1672 0.90799999
0.1058 0.167 0.90700001
0.1073 0.167 0.90700001
0.1105 0.167 0.90700001
0.1119 0.16680001 0.90600002
0.1135 0.16680001 0.90600002
0.1165 0.16670001 0.90499997
0.1179 0.1665 0.90399998
0.1224 0.1661 0.90200001
0.1241 0.1663 0.903
0.12540001 0.16590001 0.90100002
0.1269 0.16590001 0.90100002
0.1285 0.16590001 0.90100002
0.13 0.16590001 0.90100002
0.13160001 0.16590001 0.90100002
0.1332 0.16590001 0.90100002
0.1347 0.16590001 0.90100002
0.1363 0.16590001 0.90100002
0.13779999 0.16590001 0.90100002
0.13940001 0.16590001 0.90100002
0.141 0.16590001 0.90100002
0.1425 0.16590001 0.90100002
0.1441 0.16590001 0.90100002
0.14579999 0.1661 0.90200001
0.14749999 0.1663 0.903
0.14910001 0.1663 0.903
0.15099999 0.16670001 0.90499997
0.15270001 0.16680001 0.90600002
0.1557 0.16670001 0.90499997
0.1573 0.16670001 0.90499997
0.15889999 0.16670001 0.90499997
0.1602 0.1665 0.90399998
0.16159999 0.1663 0.903
0.16320001 0.1663 0.903
0.16509999 0.16670001 0.90499997
0.16689999 0.16680001 0.90600002
0.1684 0.16680001 0.90600002
0.17 0.16680001 0.90600002
0.1718 0.167 0.90700001
0.1767 0.1672 0.90799999
0.17829999 0.1672 0.90799999
0.1798 0.1672 0.90799999
0.1814 0.1672 0.90799999
0.18340001 0.16760001 0.91000003
-0.41940001 0.16429999 0.884
-0.4174 0.16410001 0.88300002
-0.3996 0.1638 0.88099998
-0.39750001 0.16410001 0.88300002
-0.3775 0.1654 0.88999999
-0.37470001 0.1649 0.88700002
-0.3723 0.1645 0.88499999
-0.37029999 0.16429999 0.884
-0.36840001 0.16410001 0.88300002
-0.366 0.1638 0.88099998
-0.35609999 0.16410001 0.88300002
-0.3524 0.1645 0.88499999
-0.35080001 0.1645 0.88499999
-0.34889999 0.16429999 0.884
-0.34779999 0.1645 0.88499999
-0.34470001 0.1645 0.88499999
-0.3328 0.16859999 0.90700001
-0.3312 0.16859999 0.90700001
-0.32969999 0.16859999 0.90700001
-0.30050001 0.1664 0.89499998
-0.2958 0.1664 0.89499998
-0.29359999 0.16599999 0.89300001
-0.2911 0.1654 0.88999999
-0.28920001 0.1653 0.889
-0.28740001 0.16509999 0.88800001
-0.28549999 0.1649 0.88700002
-0.2447 0.1675 0.90100002
-0.2432 0.1675 0.90100002
-0.24160001 0.1675 0.90100002
-0.23980001 0.1673 0.89999998
-0.2385 0.1675 0.90100002
-0.2367 0.1673 0.89999998
-0.2348 0.1671 0.89899999
-0.233 0.16689999 0.898
-0.23119999 0.16670001 0.89700001
-0.22939999 0.1666 0.89600003
-0.2265 0.16670001 0.89700001
-0.2237 0.16689999 0.898
-0.22239999 0.1671 0.89899999
-0.2211 0.1673 0.89999998
-0.21950001 0.1673 0.89999998
-0.21789999 0.1673 0.89999998
-0.2164 0.1673 0.89999998
-0.21510001 0.1675 0.90100002
-0.21349999 0.1675 0.90100002
-0.21170001 0.1673 0.89999998
-0.2086 0.1673 0.89999998
-0.207 0.1673 0.89999998
-0.2057 0.1675 0.90100002
-0.2041 0.1675 0.90100002
-0.2026 0.1675 0.90100002
-0.2008 0.1673 0.89999998
-0.1992 0.1673 0.89999998
-0.1972 0.16689999 0.898
-0.19499999 0.1664 0.89499998
-0.193 0.16599999 0.89300001
-0.1911 0.1656 0.89099997
-0.18889999 0.16509999 0.88800001
-0.18709999 0.1649 0.88700002
-0.18520001 0.1645 0.88499999
-0.18279999 0.1638 0.88099998
-0.1802 0.1628 0.87599999
-0.1781 0.16230001 0.87300003
-0.1772 0.1628 0.87599999
-0.1744 0.1645 0.88499999
-0.1733 0.1649 0.88700002
-0.1551 0.15449999 0.83099997
-0.15369999 0.15449999 0.83099997
-0.15279999 0.155 0.83399999
-0.1532 0.1569 0.84399998
-0.15189999 0.15710001 0.84500003
-0.1503 0.1569 0.84399998
-0.1488 0.1569 0.84399998
-0.1472 0.1567 0.84299999
-0.1454 0.15629999 0.84100002
-0.1436 0.156 0.83899999
-0.1418 0.1556 0.83700001
-0.14 0.1552 0.83499998
-0.1384 0.155 0.83399999
-0.13680001 0.1548 0.833
-0.1321 0.15449999 0.83099997
-0.13079999 0.1547 0.83200002
-0.13 0.15539999 0.83600003
-0.12890001 0.1558 0.838
-0.1274 0.1558 0.838
-0.1261 0.156 0.83899999
-0.1246 0.156 0.83899999
-0.1232 0.156 0.83899999
-0.1217 0.156 0.83899999
-0.12 0.1556 0.83700001
-0.1184 0.15539999 0.83600003
-0.1168 0.1552 0.83499998
-0.1138 0.155 0.83399999
-0.1125 0.1552 0.83499998
-0.1112 0.15539999 0.83600003
-0.1098 0.1556 0.83700001
-0.1085 0.1558 0.838
-0.1056 0.1558 0.838
-0.104 0.1556 0.83700001
-0.1023 0.1552 0.83499998
-0.095299996 0.1556 0.83700001
-0.087700002 0.1548 0.833
-0.086099997 0.1547 0.83200002
-0.084700003 0.1547 0.83200002
-0.083300002 0.1548 0.833
-0.081900001 0.1548 0.833
-0.080399998 0.1548 0.833
-0.078900002 0.1547 0.83200002
-0.077500001 0.1547 0.83200002
-0.075900003 0.15449999 0.83099997
-0.074600004 0.1547 0.83200002
-0.073100001 0.1547 0.83200002
-0.071699999 0.1547 0.83200002
-0.0704 0.155 0.83399999
-0.0691 0.1552 0.83499998
-0.067900002 0.1558 0.838
-0.066500001 0.156 0.83899999
-0.064999998 0.1558 0.838
-0.0634 0.1556 0.83700001
-0.062199999 0.168 0.90399998
-0.060800001 0.1684 0.90600002
-0.059099998 0.168 0.90399998
-0.057399999 0.16769999 0.90200001
-0.055799998 0.1675 0.90100002
-0.054200001 0.1675 0.90100002
-0.0526 0.1673 0.89999998
-0.050900001 0.16689999 0.898
-0.049400002 0.16689999 0.898
-0.047800001 0.16670001 0.89700001
-0.046300001 0.1671 0.89899999
-0.044799998 0.1671 0.89899999
-0.043099999 0.16689999 0.898
-0.0416 0.16689999 0.898
-0.0385 0.16689999 0.898
-0.036899999 0.16689999 0.898
-0.035399999 0.16689999 0.898
-0.033799998 0.16689999 0.898
-0.032299999 0.1673 0.89999998
-0.0308 0.1673 0.89999998
-0.029200001 0.1673 0.89999998
-0.0276 0.1673 0.89999998
-0.0261 0.1675 0.90100002
-0.024599999 0.1675 0.90100002
-0.023 0.1675 0.90100002
-0.021400001 0.1675 0.90100002
-0.0198 0.1673 0.89999998
-0.018300001 0.16769999 0.90200001
-0.016799999 0.1679 0.903
-0.0152 0.1679 0.903
-0.0137 0.168 0.90399998
-0.0121 0.1682 0.90499997
-0.0105 0.1679 0.903
-0.0089999996 0.1679 0.903
-0.0074 0.1675 0.90100002
-0.0057999999 0.1671 0.89899999
-0.0041999999 0.1666 0.89600003
-0.0027000001 0.1664 0.89499998
-0.0011 0.1664 0.89499998
0.00039999999 0.1664 0.89499998
0.0020000001 0.1666 0.89600003
0.0035000001 0.16689999 0.898
0.0051000002 0.1675 0.90100002
0.0066999998 0.16769999 0.90200001
0.0082 0.16769999 0.90200001
0.0098000001 0.1675 0.90100002
0.0114 0.1673 0.89999998
0.0145 0.1675 0.90100002
0.0176 0.1679 0.903
0.0208 0.168 0.90399998
0.022399999 0.1682 0.90499997
0.0239 0.168 0.90399998
0.0255 0.1679 0.903
0.027000001 0.16769999 0.90200001
0.0285 0.1675 0.90100002
0.030099999 0.1673 0.89999998
0.031599998 0.1671 0.89899999
0.033199999 0.1671 0.89899999
0.034699999 0.1671 0.89899999
0.0363 0.1673 0.89999998
0.037900001 0.1673 0.89999998
0.0394 0.1673 0.89999998
0.041000001 0.1673 0.89999998
0.042599998 0.1675 0.90100002
0.044199999 0.16769999 0.90200001
0.045899998 0.168 0.90399998
0.047499999 0.1684 0.90600002
0.049199998 0.16859999 0.90700001
0.050900001 0.1692 0.91000003
0.052499998 0.1693 0.91100001
0.054200001 0.16949999 0.912
0.0557 0.1693 0.91100001
0.063199997 0.1682 0.90499997
0.0647 0.1682 0.90499997
0.066200003 0.168 0.90399998
0.067900002 0.1682 0.90499997
0.069600001 0.16859999 0.90700001
0.071199998 0.16859999 0.90700001
0.072800003 0.1688 0.90799999
0.0744 0.1688 0.90799999
0.076099999 0.169 0.90899998
0.077699997 0.1692 0.91000003
0.079300001 0.1692 0.91000003
0.080899999 0.1692 0.91000003
0.082400002 0.1692 0.91000003
0.083899997 0.169 0.90899998
0.085500002 0.169 0.90899998
0.087099999 0.169 0.90899998
0.088600002 0.1688 0.90799999
0.094800003 0.16859999 0.90700001
0.096299998 0.16859999 0.90700001
0.097800002 0.1684 0.90600002
0.0995 0.16859999 0.90700001
0.1012 0.1688 0.90799999
0.1027 0.1688 0.90799999
0.1042 0.16859999 0.90700001
0.1058 0.16859999 0.90700001
0.1119 0.1684 0.90600002
0.1134 0.1682 0.90499997
0.1181 0.1682 0.90499997
0.1196 0.1682 0.90499997
0.1211 0.168 0.90399998
0.1225 0.1679 0.903
0.1242 0.168 0.90399998
0.12720001 0.1679 0.903
0.1286 0.16769999 0.90200001
0.1302 0.16769999 0.90200001
0.13169999 0.16769999 0.90200001
0.1332 0.1675 0.90100002
0.1364 0.16769999 0.90200001
0.13940001 0.1675 0.90100002
0.141 0.1675 0.90100002
0.1425 0.1675 0.90100002
0.1441 0.1675 0.90100002
0.14579999 0.16769999 0.90200001
0.14740001 0.16769999 0.90200001
0.14910001 0.1679 0.903
0.1508 0.168 0.90399998
0.15260001 0.1682 0.90499997
0.1557 0.1682 0.90499997
0.1573 0.1682 0.90499997
0.15889999 0.1682 0.90499997
0.1604 0.1682 0.90499997
0.1618 0.168 0.90399998
0.16339999 0.168 0.90399998
0.16509999 0.1682 0.90499997
0.16689999 0.1684 0.90600002
0.1684 0.1684 0.90600002
0.17020001 0.16859999 0.90700001
0.1769 0.169 0.90899998
0.1785 0.169 0.90899998
0.1798 0.1688 0.90799999
0.1814 0.1688 0.90799999
0.18340001 0.1692 0.91000003
-0.41980001 0.16599999 0.88499999
-0.37709999 0.16680001 0.889
-0.37470001 0.1664 0.88700002
-0.3723 0.16599999 0.88499999
-0.37029999 0.16590001 0.884
-0.368 0.1655 0.88200003
-0.36520001 0.1649 0.87900001
-0.3633 0.1647 0.87800002
-0.35699999 0.16599999 0.88499999
-0.3554 0.16599999 0.88499999
-0.35389999 0.16599999 0.88499999
-0.3527 0.1662 0.88599998
-0.35120001 0.1662 0.88599998
-0.3493 0.16599999 0.88499999
-0.34810001 0.1662 0.88599998
-0.347 0.1664 0.88700002
-0.34509999 0.1662 0.88599998
-0.33970001 0.16590001 0.884
-0.33660001 0.16590001 0.884
-0.33129999 0.1662 0.88599998
-0.33239999 0.17 0.90600002
-0.30239999 0.1681 0.89600003
-0.30050001 0.1679 0.89499998
-0.29710001 0.16769999 0.89399999
-0.29519999 0.1675 0.89300001
-0.29300001 0.1672 0.89099997
-0.29080001 0.16680001 0.889
-0.28889999 0.1666 0.88800001
-0.287 0.1664 0.88700002
-0.28549999 0.1664 0.88700002
-0.2455 0.1696 0.90399998
-0.2437 0.16940001 0.903
-0.2419 0.1692 0.90200001
-0.23999999 0.169 0.90100002
-0.23819999 0.1689 0.89999998
-0.23459999 0.16850001 0.898
-0.2307 0.1679 0.89499998
-0.2291 0.1679 0.89499998
-0.2263 0.1681 0.89600003
-0.22319999 0.1681 0.89600003
-0.2221 0.16850001 0.898
-0.22059999 0.16850001 0.898
-0.2193 0.16869999 0.89899999
-0.21789999 0.1689 0.89999998
-0.2166 0.169 0.90100002
-0.21510001 0.169 0.90100002
-0.20389999 0.1689 0.89999998
-0.2026 0.169 0.90100002
-0.2008 0.1689 0.89999998
-0.1992 0.1689 0.89999998
-0.197 0.1683 0.89700001
-0.1946 0.1675 0.89300001
-0.1926 0.1672 0.89099997
-0.19059999 0.16680001 0.889
-0.18870001 0.1664 0.88700002
-0.1869 0.1662 0.88599998
-0.18520001 0.16599999 0.88499999
-0.183 0.1655 0.88200003
-0.1813 0.1653 0.88099998
-0.18000001 0.1655 0.88200003
-0.1788 0.16590001 0.884
-0.1779 0.1664 0.88700002
-0.17640001 0.1664 0.88700002
-0.17479999 0.1664 0.88700002
-0.1735 0.1666 0.88800001
-0.1706 0.1683 0.89700001
-0.16760001 0.17 0.90600002
-0.14929999 0.15889999 0.847
-0.14749999 0.1585 0.84500003
-0.14569999 0.1582 0.84299999
-0.14390001 0.1578 0.84100002
-0.14210001 0.1574 0.83899999
-0.14030001 0.15700001 0.83700001
-0.13869999 0.1569 0.83600003
-0.13259999 0.1565 0.83399999
-0.1314 0.1569 0.83600003
-0.1305 0.1574 0.83899999
-0.1293 0.1578 0.84100002
-0.12800001 0.15800001 0.84200001
-0.1266 0.15800001 0.84200001
-0.1251 0.15800001 0.84200001
-0.1219 0.1576 0.83999997
-0.1201 0.15719999 0.838
-0.1185 0.15700001 0.83700001
-0.1171 0.15700001 0.83700001
-0.1155 0.1569 0.83600003
-0.1142 0.15700001 0.83700001
-0.1129 0.15719999 0.838
-0.1116 0.1574 0.83899999
-0.1102 0.1576 0.83999997
-0.1088 0.1576 0.83999997
-0.1072 0.1574 0.83899999
-0.0995 0.1567 0.83499998
-0.097999997 0.1567 0.83499998
-0.093699999 0.1567 0.83499998
-0.092299998 0.1569 0.83600003
-0.090999998 0.15700001 0.83700001
-0.089900002 0.1576 0.83999997
-0.088500001 0.1578 0.84100002
-0.0854 0.1574 0.83899999
-0.0836 0.1569 0.83600003
-0.082000002 0.1565 0.83399999
-0.080399998 0.15629999 0.833
-0.078900002 0.1561 0.83200002
-0.077500001 0.1561 0.83200002
-0.075900003 0.1559 0.83099997
-0.074500002 0.1559 0.83099997
-0.073100001 0.1559 0.83099997
-0.071699999 0.1561 0.83200002
-0.0691 0.1569 0.83600003
-0.067900002 0.1574 0.83899999
-0.066600002 0.1578 0.84100002
-0.065099999 0.1576 0.83999997
-0.063500002 0.15719999 0.838
-0.061999999 0.169 0.90100002
-0.060600001 0.16940001 0.903
-0.059 0.1692 0.90200001
-0.057300001 0.1689 0.89999998
-0.0557 0.16869999 0.89899999
-0.054099999 0.16869999 0.89899999
-0.052499998 0.16850001 0.898
-0.050799999 0.1681 0.89600003
-0.049199998 0.1679 0.89499998
-0.047699999 0.1681 0.89600003
-0.046300001 0.16850001 0.898
-0.044799998 0.16869999 0.89899999
-0.043099999 0.16850001 0.898
-0.0416 0.16850001 0.898
-0.040100001 0.16869999 0.89899999
-0.0385 0.16869999 0.89899999
-0.037 0.16869999 0.89899999
-0.035399999 0.16869999 0.89899999
-0.033799998 0.16869999 0.89899999
-0.032299999 0.16869999 0.89899999
-0.0308 0.1689 0.89999998
-0.029200001 0.169 0.90100002
-0.0277 0.169 0.90100002
-0.0262 0.16940001 0.903
-0.024599999 0.1692 0.90200001
-0.0231 0.1696 0.90399998
-0.021500001 0.1698 0.90499997
-0.0199 0.1696 0.90399998
-0.0184 0.1696 0.90399998
-0.016799999 0.1698 0.90499997
-0.0152 0.1698 0.90499997
-0.0137 0.17 0.90600002
-0.0105 0.1698 0.90499997
-0.0089999996 0.1696 0.90399998
-0.0074 0.1692 0.90200001
-0.0057999999 0.1689 0.89999998
-0.0041999999 0.16869999 0.89899999
-0.0027000001 0.16850001 0.898
-0.0011 0.16850001 0.898
0.00039999999 0.16850001 0.898
0.0020000001 0.1689 0.89999998
0.0035999999 0.169 0.90100002
0.0051000002 0.16940001 0.903
0.0066999998 0.16940001 0.903
0.0082999999 0.16940001 0.903
0.0129 0.1689 0.89999998
0.016000001 0.1689 0.89999998
0.0176 0.169 0.90100002
0.0208 0.1696 0.90399998
0.0239 0.1696 0.90399998
0.0255 0.16940001 0.903
0.027000001 0.1692 0.90200001
0.0285 0.169 0.90100002
0.030099999 0.1689 0.89999998
0.031599998 0.16869999 0.89899999
0.033199999 0.16869999 0.89899999
0.034699999 0.16869999 0.89899999
0.0363 0.1689 0.89999998
0.037900001 0.1689 0.89999998
0.039500002 0.169 0.90100002
0.041000001 0.169 0.90100002
0.042599998 0.169 0.90100002
0.044199999 0.1692 0.90200001
0.045899998 0.1696 0.90399998
0.047499999 0.1698 0.90499997
0.0491 0.17 0.90600002
0.050799999 0.17039999 0.90799999
0.052499998 0.1707 0.91000003
0.054000001 0.1705 0.90899998
0.055599999 0.1705 0.90899998
0.058600001 0.17020001 0.90700001
0.0616 0.1698 0.90499997
0.063199997 0.1698 0.90499997
0.0647 0.1698 0.90499997
0.066200003 0.1696 0.90399998
0.067900002 0.1698 0.90499997
0.069600001 0.17020001 0.90700001
0.071199998 0.17020001 0.90700001
0.072700001 0.17020001 0.90700001
0.074299999 0.17020001 0.90700001
0.075900003 0.17020001 0.90700001
0.077500001 0.17039999 0.90799999
0.079099998 0.17039999 0.90799999
0.080799997 0.1705 0.90899998
0.082400002 0.1705 0.90899998
0.083800003 0.17039999 0.90799999
0.085500002 0.1705 0.90899998
0.087099999 0.1705 0.90899998
0.088600002 0.17039999 0.90799999
0.090000004 0.17020001 0.90700001
0.091499999 0.17 0.90600002
0.094800003 0.17020001 0.90700001
0.096199997 0.17 0.90600002
0.0977 0.1698 0.90499997
0.099200003 0.1698 0.90499997
0.101 0.17020001 0.90700001
0.1026 0.17020001 0.90700001
0.1041 0.17 0.90600002
0.1088 0.17 0.90600002
0.1119 0.17 0.90600002
0.1134 0.1698 0.90499997
0.1151 0.17 0.90600002
0.1165 0.1698 0.90499997
0.1179 0.1696 0.90399998
0.1225 0.16940001 0.903
0.1241 0.16940001 0.903
0.12549999 0.1692 0.90200001
0.1269 0.169 0.90100002
0.1285 0.169 0.90100002
0.13 0.169 0.90100002
0.13169999 0.1692 0.90200001
0.13330001 0.1692 0.90200001
0.1363 0.169 0.90100002
0.13959999 0.1692 0.90200001
0.1411 0.1692 0.90200001
0.1425 0.169 0.90100002
0.1441 0.169 0.90100002
0.14569999 0.169 0.90100002
0.1472 0.169 0.90100002
0.1488 0.169 0.90100002
0.1505 0.1692 0.90200001
0.1522 0.16940001 0.903
0.1538 0.16940001 0.903
0.15549999 0.1696 0.90399998
0.1573 0.1698 0.90499997
0.15889999 0.1698 0.90499997
0.1604 0.1698 0.90499997
0.162 0.1698 0.90499997
0.1636 0.1698 0.90499997
0.16509999 0.1698 0.90499997
0.16670001 0.1698 0.90499997
0.1684 0.17 0.90600002
0.17020001 0.17020001 0.90700001
0.1787 0.1707 0.91000003
0.1802 0.1707 0.91000003
0.18359999 0.1709 0.91100001
-0.4016 0.167 0.88200003
-0.37029999 0.1674 0.884
-0.368 0.167 0.88200003
-0.36520001 0.1664 0.87900001
-0.3581 0.1674 0.884
-0.3554 0.16760001 0.88499999
-0.35389999 0.16760001 0.88499999
-0.3524 0.16760001 0.88499999
-0.35080001 0.16760001 0.88499999
-0.3493 0.16760001 0.88499999
-0.34810001 0.16779999 0.88599998
-0.347 0.168 0.88700002
-0.34549999 0.168 0.88700002
-0.34349999 0.16779999 0.88599998
-0.3416 0.16760001 0.88499999
-0.33970001 0.1674 0.884
-0.33239999 0.16760001 0.88499999
-0.33160001 0.168 0.88700002
-0.33149999 0.16949999 0.89499998
-0.3321 0.1714 0.90499997
-0.322 0.171 0.903
-0.30239999 0.1697 0.89600003
-0.29859999 0.1693 0.89399999
-0.29640001 0.1689 0.89200002
-0.29449999 0.16869999 0.89099997
-0.29260001 0.16850001 0.88999999
-0.2904 0.1681 0.88800001
-0.2886 0.168 0.88700002
-0.287 0.168 0.88700002
-0.2852 0.16779999 0.88599998
-0.28400001 0.168 0.88700002
-0.2458 0.1714 0.90499997
-0.244 0.17120001 0.90399998
-0.2421 0.171 0.903
-0.2403 0.1708 0.90200001
-0.2385 0.1706 0.90100002
-0.2367 0.17039999 0.89999998
-0.23459999 0.17 0.898
-0.2325 0.1697 0.89600003
-0.22400001 0.1691 0.89300001
-0.2229 0.16949999 0.89499998
-0.2216 0.1697 0.89600003
-0.2203 0.1699 0.89700001
-0.219 0.17 0.898
-0.2175 0.17 0.898
-0.2164 0.17039999 0.89999998
-0.2148 0.17039999 0.89999998
-0.2023 0.17039999 0.89999998
-0.2008 0.17039999 0.89999998
-0.1992 0.17039999 0.89999998
-0.197 0.1699 0.89700001
-0.1946 0.1691 0.89300001
-0.1926 0.16869999 0.89099997
-0.19059999 0.1683 0.889
-0.18870001 0.168 0.88700002
-0.18709999 0.168 0.88700002
-0.18520001 0.16760001 0.88499999
-0.18189999 0.1674 0.884
-0.1804 0.1674 0.884
-0.17900001 0.16760001 0.88499999
-0.1779 0.168 0.88700002
-0.17659999 0.1681 0.88800001
-0.1752 0.1683 0.889
-0.1662 0.1717 0.90700001
-0.1408 0.1591 0.83999997
-0.1345 0.1585 0.83700001
-0.13339999 0.15889999 0.83899999
-0.1322 0.1592 0.84100002
-0.1311 0.1596 0.84299999
-0.12980001 0.15979999 0.84399998
-0.1285 0.16 0.84500003
-0.127 0.16 0.84500003
-0.12540001 0.15979999 0.84399998
-0.1239 0.15979999 0.84399998
-0.1223 0.1596 0.84299999
-0.1204 0.1591 0.83999997
-0.1174 0.15889999 0.83899999
-0.1158 0.1587 0.838
-0.1145 0.15889999 0.83899999
-0.1132 0.1591 0.83999997
-0.1117 0.1591 0.83999997
-0.1104 0.1592 0.84100002
-0.1089 0.1592 0.84100002
-0.1009 0.15809999 0.83499998
-0.097999997 0.15809999 0.83499998
-0.092299998 0.1583 0.83600003
-0.090800002 0.15809999 0.83499998
-0.088399999 0.1591 0.83999997
-0.086900003 0.1591 0.83999997
-0.085500002 0.1591 0.83999997
-0.083700001 0.1585 0.83700001
-0.082099997 0.15809999 0.83499998
-0.080600001 0.15809999 0.83499998
-0.079000004 0.1577 0.833
-0.077500001 0.1575 0.83200002
-0.075999998 0.1575 0.83200002
-0.074500002 0.1574 0.83099997
-0.073100001 0.1574 0.83099997
-0.071800001 0.1577 0.833
-0.0704 0.15790001 0.83399999
-0.069399998 0.15889999 0.83899999
-0.068300001 0.1596 0.84299999
-0.066799998 0.1596 0.84299999
-0.065300003 0.1596 0.84299999
-0.0638 0.1594 0.84200001
-0.062600002 0.16 0.84500003
-0.063199997 0.1697 0.89600003
-0.061799999 0.17 0.898
-0.060400002 0.17039999 0.89999998
-0.058800001 0.17039999 0.89999998
-0.057300001 0.17039999 0.89999998
-0.0557 0.17020001 0.89899999
-0.054000001 0.17 0.898
-0.0524 0.1699 0.89700001
-0.050799999 0.1697 0.89600003
-0.049199998 0.16949999 0.89499998
-0.047699999 0.1697 0.89600003
-0.0462 0.1699 0.89700001
-0.0447 0.1699 0.89700001
-0.043000001 0.1697 0.89600003
-0.0416 0.17 0.898
-0.040100001 0.17020001 0.89899999
-0.0385 0.17020001 0.89899999
-0.036899999 0.17 0.898
-0.035399999 0.17 0.898
-0.033799998 0.17 0.898
-0.032299999 0.17020001 0.89899999
-0.0308 0.17039999 0.89999998
-0.029200001 0.17039999 0.89999998
-0.0277 0.1708 0.90200001
-0.0262 0.171 0.903
-0.024599999 0.171 0.903
-0.0231 0.1714 0.90499997
-0.021500001 0.1716 0.90600002
-0.02 0.1714 0.90499997
-0.0184 0.1714 0.90499997
-0.016799999 0.1714 0.90499997
-0.0153 0.1716 0.90600002
-0.0137 0.1716 0.90600002
-0.0121 0.1714 0.90499997
-0.0105 0.1714 0.90499997
-0.0089999996 0.1714 0.90499997
-0.0074 0.171 0.903
-0.0057999999 0.17039999 0.89999998
-0.0041999999 0.17 0.898
-0.0027000001 0.1699 0.89700001
-0.0011 0.17 0.898
0.00039999999 0.17020001 0.89899999
0.0020000001 0.17039999 0.89999998
0.0035999999 0.1706 0.90100002
0.0051000002 0.171 0.903
0.0066999998 0.171 0.903
0.0082 0.1708 0.90200001
0.0098000001 0.1706 0.90100002
0.0129 0.17020001 0.89899999
0.0176 0.1706 0.90100002
0.019200001 0.171 0.903
0.0208 0.171 0.903
0.022299999 0.171 0.903
0.0255 0.171 0.903
0.0285 0.1706 0.90100002
0.030099999 0.17039999 0.89999998
0.031599998 0.17039999 0.89999998
0.033199999 0.17039999 0.89999998
0.034699999 0.17039999 0.89999998
0.0363 0.17039999 0.89999998
0.037900001 0.1706 0.90100002
0.0396 0.171 0.903
0.041099999 0.171 0.903
0.0427 0.171 0.903
0.044300001 0.17120001 0.90399998
0.045899998 0.1714 0.90499997
0.047499999 0.1716 0.90600002
0.0491 0.1716 0.90600002
0.050799999 0.1719 0.90799999
0.0539 0.1717 0.90700001
0.055500001 0.1717 0.90700001
0.057 0.1716 0.90600002
0.059999999 0.1714 0.90499997
0.0616 0.1714 0.90499997
0.063100003 0.17120001 0.90399998
0.0647 0.1714 0.90499997
0.066200003 0.17120001 0.90399998
0.069499999 0.1716 0.90600002
0.071199998 0.1717 0.90700001
0.072700001 0.1717 0.90700001
0.074199997 0.1716 0.90600002
0.075900003 0.1717 0.90700001
0.077500001 0.1717 0.90700001
0.079000004 0.1717 0.90700001
0.080700003 0.1719 0.90799999
0.0823 0.1719 0.90799999
0.083800003 0.1719 0.90799999
0.085500002 0.17209999 0.90899998
0.087200001 0.1723 0.91000003
0.088699996 0.17209999 0.90899998
0.090099998 0.1719 0.90799999
0.091600001 0.1717 0.90700001
0.093199998 0.1717 0.90700001
0.094800003 0.1717 0.90700001
0.096199997 0.1716 0.90600002
0.0977 0.1714 0.90499997
0.099200003 0.1714 0.90499997
0.1008 0.1714 0.90499997
0.1025 0.1716 0.90600002
0.104 0.1714 0.90499997
0.1056 0.1716 0.90600002
0.1087 0.1714 0.90499997
0.1134 0.1714 0.90499997
0.1228 0.1714 0.90499997
0.1242 0.17120001 0.90399998
0.1256 0.171 0.903
0.12710001 0.1708 0.90200001
0.1285 0.1706 0.90100002
0.1302 0.1708 0.90200001
0.13169999 0.1708 0.90200001
0.1382 0.171 0.903
0.1397 0.171 0.903
0.14129999 0.171 0.903
0.1427 0.1708 0.90200001
0.1441 0.1706 0.90100002
0.14569999 0.1706 0.90100002
0.1472 0.1706 0.90100002
0.1486 0.17039999 0.89999998
0.15019999 0.17039999 0.89999998
0.1517 0.17039999 0.89999998
0.15350001 0.1706 0.90100002
0.15539999 0.171 0.903
0.1573 0.1714 0.90499997
0.15899999 0.1716 0.90600002
0.1604 0.1714 0.90499997
0.162 0.1714 0.90499997
0.1637 0.1716 0.90600002
0.1653 0.1716 0.90600002
0.16689999 0.1716 0.90600002
0.16859999 0.1717 0.90700001
0.17039999 0.1719 0.90799999
-0.39219999 0.16779999 0.87800002
-0.3671 0.1682 0.88
-0.36399999 0.1674 0.87599999
-0.36160001 0.167 0.87400001
-0.3585 0.1691 0.88499999
-0.3558 0.1693 0.88599998
-0.35429999 0.1693 0.88599998
-0.3527 0.1693 0.88599998
-0.35080001 0.1691 0.88499999
-0.3493 0.1691 0.88499999
-0.34779999 0.1691 0.88499999
-0.34310001 0.1691 0.88499999
-0.3416 0.1691 0.88499999
-0.33970001 0.1689 0.884
-0.3382 0.1689 0.884
-0.33239999 0.1691 0.88499999
-0.33160001 0.16949999 0.88700002
-0.3308 0.1699 0.889
-0.3274 0.17290001 0.90499997
-0.30509999 0.171 0.89499998
-0.3046 0.1716 0.898
-0.3012 0.1714 0.89700001
-0.29890001 0.171 0.89499998
-0.29449999 0.17030001 0.89099997
-0.29229999 0.1699 0.889
-0.29010001 0.16949999 0.88700002
-0.2886 0.16949999 0.88700002
-0.287 0.16949999 0.88700002
-0.28549999 0.16949999 0.88700002
-0.24609999 0.17309999 0.90600002
-0.24420001 0.17290001 0.90499997
-0.24240001 0.1727 0.90399998
-0.2406 0.1726 0.903
-0.2387 0.1724 0.90200001
-0.2369 0.17219999 0.90100002
-0.2351 0.17200001 0.89999998
-0.233 0.1716 0.898
-0.2307 0.171 0.89499998
-0.2289 0.1708 0.89399999
-0.22400001 0.1706 0.89300001
-0.22239999 0.1706 0.89300001
-0.2211 0.1708 0.89399999
-0.2198 0.171 0.89499998
-0.2183 0.171 0.89499998
-0.2165 0.1708 0.89399999
-0.2149 0.1708 0.89399999
-0.2006 0.1718 0.89899999
-0.199 0.1718 0.89899999
-0.19679999 0.17120001 0.89600003
-0.1946 0.1706 0.89300001
-0.1928 0.1705 0.89200002
-0.1908 0.1701 0.88999999
-0.18889999 0.1697 0.88800001
-0.18709999 0.16949999 0.88700002
-0.18539999 0.1693 0.88599998
-0.18359999 0.1691 0.88499999
-0.18189999 0.1689 0.884
-0.1804 0.1689 0.884
-0.17919999 0.1693 0.88599998
-0.1781 0.1697 0.88800001
-0.177 0.1701 0.88999999
-0.1754 0.1701 0.88999999
-0.1733 0.171 0.89499998
-0.133 0.1617 0.84600002
-0.13160001 0.1617 0.84600002
-0.1302 0.1619 0.847
-0.12890001 0.162 0.84799999
-0.12720001 0.1617 0.84600002
-0.1257 0.1617 0.84600002
-0.1239 0.1613 0.84399998
-0.1223 0.1611 0.84299999
-0.1206 0.16069999 0.84100002
-0.1158 0.1601 0.838
-0.1145 0.1603 0.83899999
-0.1118 0.16069999 0.84100002
-0.1104 0.16069999 0.84100002
-0.1089 0.16069999 0.84100002
-0.104 0.15989999 0.83700001
-0.1023 0.1596 0.83499998
-0.099299997 0.1594 0.83399999
-0.096600004 0.1596 0.83499998
-0.095100001 0.1596 0.83499998
-0.092100002 0.1594 0.83399999
-0.090700001 0.1594 0.83399999
-0.088100001 0.15989999 0.83700001
-0.086800002 0.1603 0.83899999
-0.0854 0.1603 0.83899999
-0.083800003 0.1601 0.838
-0.0823 0.15989999 0.83700001
-0.080799997 0.15989999 0.83700001
-0.0792 0.1596 0.83499998
-0.077699997 0.1594 0.83399999
-0.076099999 0.1592 0.833
-0.074600004 0.15899999 0.83200002
-0.073200002 0.1592 0.833
-0.070699997 0.15989999 0.83700001
-0.069600001 0.1609 0.84200001
-0.068400003 0.16150001 0.84500003
-0.065499999 0.16150001 0.84500003
-0.064000003 0.16150001 0.84500003
-0.064400002 0.17030001 0.89099997
-0.063199997 0.171 0.89499998
-0.0616 0.171 0.89499998
-0.0601 0.17120001 0.89600003
-0.057100002 0.1714 0.89700001
-0.0524 0.1714 0.89700001
-0.050799999 0.17120001 0.89600003
-0.0493 0.17120001 0.89600003
-0.047800001 0.1714 0.89700001
-0.046300001 0.1716 0.898
-0.0447 0.1716 0.898
-0.043099999 0.1716 0.898
-0.0416 0.1718 0.89899999
-0.040100001 0.1718 0.89899999
-0.0385 0.1718 0.89899999
-0.036899999 0.1716 0.898
-0.035399999 0.1716 0.898
-0.033799998 0.1718 0.89899999
-0.032299999 0.17200001 0.89999998
-0.0308 0.17200001 0.89999998
-0.029300001 0.1724 0.90200001
-0.027799999 0.1727 0.90399998
-0.0262 0.1727 0.90399998
-0.024599999 0.1727 0.90399998
-0.0231 0.17309999 0.90600002
-0.021500001 0.17309999 0.90600002
-0.02 0.17309999 0.90600002
-0.0184 0.17309999 0.90600002
-0.016799999 0.17309999 0.90600002
-0.0153 0.1733 0.90700001
-0.0137 0.1733 0.90700001
-0.0121 0.17309999 0.90600002
-0.0105 0.17290001 0.90499997
-0.0089999996 0.17290001 0.90499997
-0.0074 0.1726 0.903
-0.0057999999 0.17219999 0.90100002
-0.0041999999 0.17200001 0.89999998
-0.0027000001 0.1716 0.898
-0.0011 0.1718 0.89899999
0.00039999999 0.17200001 0.89999998
0.0020000001 0.17219999 0.90100002
0.0035999999 0.1726 0.903
0.0051000002 0.17290001 0.90499997
0.0066999998 0.1727 0.90399998
0.0082999999 0.1726 0.903
0.0098000001 0.17219999 0.90100002
0.0113 0.1716 0.898
0.0129 0.1714 0.89700001
0.0144 0.1714 0.89700001
0.0208 0.1724 0.90200001
0.022299999 0.1726 0.903
0.0285 0.17219999 0.90100002
0.030099999 0.17200001 0.89999998
0.031599998 0.17200001 0.89999998
0.033199999 0.17200001 0.89999998
0.034699999 0.17200001 0.89999998
0.0363 0.17219999 0.90100002
0.037999999 0.1726 0.903
0.0396 0.1727 0.90399998
0.041200001 0.1727 0.90399998
0.0427 0.1727 0.90399998
0.044300001 0.1727 0.90399998
0.045899998 0.17290001 0.90499997
0.047499999 0.17290001 0.90499997
0.0491 0.17290001 0.90499997
0.050700001 0.17309999 0.90600002
0.052299999 0.1733 0.90700001
0.053800002 0.17290001 0.90499997
0.055300001 0.17290001 0.90499997
0.056899998 0.17290001 0.90499997
0.058400001 0.1727 0.90399998
0.059999999 0.17290001 0.90499997
0.061500002 0.1727 0.90399998
0.063100003 0.1727 0.90399998
0.0647 0.17290001 0.90499997
0.066200003 0.1727 0.90399998
0.067900002 0.17290001 0.90499997
0.069499999 0.17309999 0.90600002
0.071099997 0.17309999 0.90600002
0.0726 0.17290001 0.90499997
0.074199997 0.17290001 0.90499997
0.0757 0.17290001 0.90499997
0.077500001 0.1733 0.90700001
0.079000004 0.1733 0.90700001
0.080700003 0.1735 0.90799999
0.0823 0.1735 0.90799999
0.083899997 0.1737 0.90899998
0.085600004 0.17389999 0.91000003
0.087300003 0.1741 0.91100001
0.088799998 0.17389999 0.91000003
0.090300001 0.17389999 0.91000003
0.091700003 0.1735 0.90799999
0.093199998 0.1733 0.90700001
0.094800003 0.1733 0.90700001
0.096100003 0.17290001 0.90499997
0.0977 0.17290001 0.90499997
0.099200003 0.17290001 0.90499997
0.1009 0.17309999 0.90600002
0.1025 0.17309999 0.90600002
0.104 0.17290001 0.90499997
0.1055 0.17290001 0.90499997
0.1118 0.17290001 0.90499997
0.1134 0.17290001 0.90499997
0.1181 0.17290001 0.90499997
0.1212 0.17290001 0.90499997
0.1228 0.17290001 0.90499997
0.12549999 0.1724 0.90200001
0.12720001 0.1726 0.903
0.1286 0.1724 0.90200001
0.1303 0.1726 0.903
0.1319 0.1726 0.903
0.13500001 0.1726 0.903
0.1397 0.1726 0.903
0.14129999 0.1726 0.903
0.1427 0.1724 0.90200001
0.1441 0.17219999 0.90100002
0.14569999 0.17219999 0.90100002
0.1472 0.17219999 0.90100002
0.1488 0.17219999 0.90100002
0.15019999 0.17200001 0.89999998
0.15189999 0.17219999 0.90100002
0.15360001 0.1724 0.90200001
0.15549999 0.1727 0.90399998
0.1573 0.17290001 0.90499997
0.1592 0.1733 0.90700001
0.1608 0.1733 0.90700001
0.16230001 0.1733 0.90700001
0.1639 0.1733 0.90700001
0.1655 0.1733 0.90700001
0.1671 0.1733 0.90700001
0.16859999 0.1733 0.90700001
0.17039999 0.1735 0.90799999
-0.36269999 0.1683 0.87300003
-0.3608 0.1681 0.87199998
-0.35429999 0.1708 0.88599998
-0.3524 0.1706 0.88499999
-0.35080001 0.1706 0.88499999
-0.3493 0.1706 0.88499999
-0.34779999 0.1706 0.88499999
-0.3466 0.1708 0.88599998
-0.34509999 0.1708 0.88599998
-0.34310001 0.1706 0.88499999
-0.3416 0.1706 0.88499999
-0.34009999 0.1706 0.88499999
-0.33849999 0.1706 0.88499999
-0.3355 0.1706 0.88499999
-0.3328 0.1708 0.88599998
-0.33160001 0.171 0.88700002
-0.33050001 0.17120001 0.88800001
-0.32969999 0.1716 0.88999999
-0.3267 0.1741 0.903
-0.3251 0.1741 0.903
-0.3197 0.1737 0.90100002
-0.30509999 0.1726 0.89499998
-0.3008 0.1728 0.89600003
-0.29449999 0.1718 0.89099997
-0.29229999 0.1714 0.889
-0.29010001 0.171 0.88700002
-0.2886 0.171 0.88700002
-0.287 0.171 0.88700002
-0.2843 0.17120001 0.88800001
-0.2464 0.1749 0.90700001
-0.24420001 0.1745 0.90499997
-0.24240001 0.1743 0.90399998
-0.2406 0.1741 0.903
-0.2387 0.17389999 0.90200001
-0.2369 0.1737 0.90100002
-0.2351 0.1735 0.89999998
-0.2307 0.1726 0.89499998
-0.2237 0.17200001 0.89200002
-0.2209 0.17219999 0.89300001
-0.2193 0.17219999 0.89300001
-0.21780001 0.17219999 0.89300001
-0.21619999 0.17219999 0.89300001
-0.2001 0.17299999 0.89700001
-0.19859999 0.17299999 0.89700001
-0.19679999 0.1728 0.89600003
-0.1948 0.1724 0.89399999
-0.193 0.17219999 0.89300001
-0.1911 0.1718 0.89099997
-0.1891 0.1714 0.889
-0.1873 0.17120001 0.88800001
-0.1856 0.171 0.88700002
-0.184 0.171 0.88700002
-0.1823 0.1708 0.88599998
-0.18080001 0.1708 0.88599998
-0.1794 0.171 0.88700002
-0.1785 0.1716 0.88999999
-0.1772 0.1718 0.89099997
-0.1618 0.1735 0.89999998
-0.1593 0.1726 0.89499998
-0.1318 0.1652 0.85699999
-0.12970001 0.1645 0.85299999
-0.1276 0.1637 0.84899998
-0.126 0.1635 0.84799999
-0.1242 0.1631 0.84600002
-0.1162 0.1622 0.84100002
-0.1118 0.1622 0.84100002
-0.1101 0.1618 0.83899999
-0.104 0.16140001 0.83700001
-0.099600002 0.1612 0.83600003
-0.098099999 0.1612 0.83600003
-0.096600004 0.161 0.83499998
-0.094999999 0.1608 0.83399999
-0.093599997 0.1608 0.83399999
-0.092100002 0.1608 0.83399999
-0.090700001 0.1608 0.83399999
-0.089299999 0.161 0.83499998
-0.088100001 0.16140001 0.83700001
-0.086900003 0.162 0.83999997
-0.085600004 0.1622 0.84100002
-0.084100001 0.1622 0.84100002
-0.082699999 0.1622 0.84100002
-0.081100002 0.162 0.83999997
-0.079599999 0.1618 0.83899999
-0.0779 0.16140001 0.83700001
-0.076300003 0.161 0.83499998
-0.074900001 0.161 0.83499998
-0.073399998 0.161 0.83499998
-0.072099999 0.16140001 0.83700001
-0.070799999 0.1618 0.83899999
-0.068300001 0.1627 0.84399998
-0.067000002 0.1629 0.84500003
-0.065499999 0.1629 0.84500003
-0.064000003 0.1629 0.84500003
-0.066 0.1718 0.89099997
-0.064599998 0.17219999 0.89300001
-0.063299999 0.17299999 0.89700001
-0.050700001 0.1724 0.89399999
-0.049199998 0.1726 0.89499998
-0.047699999 0.1728 0.89600003
-0.0462 0.1728 0.89600003
-0.044599999 0.1726 0.89499998
-0.043000001 0.1728 0.89600003
-0.0416 0.1732 0.898
-0.039999999 0.1732 0.898
-0.0385 0.1732 0.898
-0.036899999 0.1732 0.898
-0.035399999 0.1735 0.89999998
-0.0339 0.1735 0.89999998
-0.032299999 0.1735 0.89999998
-0.0308 0.1737 0.90100002
-0.029300001 0.1743 0.90399998
-0.027799999 0.1745 0.90499997
-0.0262 0.1745 0.90499997
-0.024700001 0.1745 0.90499997
-0.0231 0.17470001 0.90600002
-0.021600001 0.1749 0.90700001
-0.02 0.17470001 0.90600002
-0.0184 0.1745 0.90499997
-0.016799999 0.1745 0.90499997
-0.0153 0.1749 0.90700001
-0.0137 0.1749 0.90700001
-0.0121 0.1749 0.90700001
-0.0105 0.1745 0.90499997
-0.0089999996 0.1745 0.90499997
-0.0074 0.1741 0.903
-0.0057999999 0.1741 0.903
-0.0043000001 0.17389999 0.90200001
-0.0027000001 0.1737 0.90100002
-0.0011 0.1737 0.90100002
0.00039999999 0.17389999 0.90200001
0.0020000001 0.1741 0.903
0.0035999999 0.1745 0.90499997
0.0051000002 0.1745 0.90499997
0.0066999998 0.1741 0.903
0.0082 0.1737 0.90100002
0.0098000001 0.1735 0.89999998
0.0113 0.1732 0.898
0.0129 0.1728 0.89600003
0.0144 0.1728 0.89600003
0.0207 0.1737 0.90100002
0.022299999 0.1737 0.90100002
0.027000001 0.1737 0.90100002
0.0285 0.1737 0.90100002
0.030099999 0.1737 0.90100002
0.0317 0.1737 0.90100002
0.034899998 0.1741 0.903
0.036400001 0.1741 0.903
0.037999999 0.1743 0.90399998
0.039700001 0.17470001 0.90600002
0.041299999 0.17470001 0.90600002
0.042800002 0.17470001 0.90600002
0.044399999 0.1745 0.90499997
0.045899998 0.1745 0.90499997
0.047499999 0.1745 0.90499997
0.048999999 0.1743 0.90399998
0.0506 0.1743 0.90399998
0.052099999 0.1743 0.90399998
0.053599998 0.1741 0.903
0.055199999 0.1741 0.903
0.0568 0.1741 0.903
0.0583 0.1741 0.903
0.059900001 0.1741 0.903
0.061500002 0.1741 0.903
0.063100003 0.1743 0.90399998
0.066299997 0.1745 0.90499997
0.068000004 0.1749 0.90700001
0.069600001 0.1749 0.90700001
0.071099997 0.17470001 0.90600002
0.072700001 0.17470001 0.90600002
0.074199997 0.1745 0.90499997
0.0757 0.1745 0.90499997
0.077299997 0.1745 0.90499997
0.079000004 0.1749 0.90700001
0.080700003 0.1751 0.90799999
0.0823 0.1751 0.90799999
0.083899997 0.1753 0.90899998
0.085600004 0.17550001 0.91000003
0.087300003 0.17569999 0.91100001
0.088799998 0.17550001 0.91000003
0.090300001 0.17550001 0.91000003
0.091700003 0.1751 0.90799999
0.093199998 0.1749 0.90700001
0.094800003 0.1749 0.90700001
0.096100003 0.1745 0.90499997
0.0977 0.1745 0.90499997
0.099200003 0.1745 0.90499997
0.1008 0.1745 0.90499997
0.1024 0.1745 0.90499997
0.1055 0.1745 0.90499997
0.1102 0.1745 0.90499997
0.1118 0.1745 0.90499997
0.1135 0.17470001 0.90600002
0.1168 0.1749 0.90700001
0.1213 0.17470001 0.90600002
0.1228 0.1745 0.90499997
0.1242 0.1743 0.90399998
0.12549999 0.17389999 0.90200001
0.12710001 0.17389999 0.90200001
0.1286 0.17389999 0.90200001
0.1303 0.1741 0.903
0.13169999 0.17389999 0.90200001
0.13330001 0.17389999 0.90200001
0.1349 0.17389999 0.90200001
0.13959999 0.17389999 0.90200001
0.1411 0.17389999 0.90200001
0.1427 0.17389999 0.90200001
0.1443 0.17389999 0.90200001
0.14569999 0.1737 0.90100002
0.14740001 0.17389999 0.90200001
0.1488 0.1737 0.90100002
0.1503 0.1737 0.90100002
0.15189999 0.1737 0.90100002
0.1538 0.1741 0.903
0.1557 0.1745 0.90499997
0.1573 0.1745 0.90499997
0.1592 0.1749 0.90700001
0.1608 0.1749 0.90700001
0.16249999 0.1751 0.90799999
0.1639 0.1749 0.90700001
0.1655 0.1749 0.90700001
0.1672 0.1751 0.90799999
0.1688 0.1751 0.90799999
0.17039999 0.1751 0.90799999
0.18179999 0.17550001 0.91000003
-0.39660001 0.1714 0.88099998
-0.3937 0.1708 0.87800002
-0.35389999 0.17219999 0.88499999
-0.352 0.17200001 0.884
-0.34999999 0.1718 0.88300002
-0.34850001 0.1718 0.88300002
-0.347 0.1726 0.88700002
-0.34549999 0.1726 0.88700002
-0.3439 0.1726 0.88700002
-0.34240001 0.1726 0.88700002
-0.34079999 0.1726 0.88700002
-0.3389 0.1724 0.88599998
-0.33590001 0.1724 0.88599998
-0.33430001 0.1724 0.88599998
-0.33320001 0.1726 0.88700002
-0.33160001 0.1726 0.88700002
-0.3186 0.17470001 0.898
-0.30309999 0.17470001 0.898
-0.29640001 0.1735 0.89200002
-0.29449999 0.1733 0.89099997
-0.292 0.1728 0.88800001
-0.29010001 0.1726 0.88700002
-0.28830001 0.1724 0.88599998
-0.28639999 0.17219999 0.88499999
-0.2845 0.17200001 0.884
-0.28330001 0.17219999 0.88499999
-0.26300001 0.17389999 0.89399999
-0.26199999 0.1743 0.89600003
-0.2474 0.1761 0.90499997
-0.2458 0.1761 0.90499997
-0.2437 0.17569999 0.903
-0.24160001 0.1753 0.90100002
-0.23999999 0.1753 0.90100002
-0.2385 0.1753 0.90100002
-0.2369 0.1753 0.90100002
-0.2351 0.1751 0.89999998
-0.2333 0.1749 0.89899999
-0.22759999 0.1741 0.89499998
-0.2255 0.1737 0.89300001
-0.22400001 0.1737 0.89300001
-0.22220001 0.1735 0.89200002
-0.22059999 0.1735 0.89200002
-0.21879999 0.1733 0.89099997
-0.2173 0.1733 0.89099997
-0.2155 0.1732 0.88999999
-0.212 0.1728 0.88800001
-0.1999 0.1743 0.89600003
-0.1981 0.1741 0.89499998
-0.1963 0.17389999 0.89399999
-0.1946 0.1737 0.89300001
-0.1928 0.1735 0.89200002
-0.1908 0.1732 0.88999999
-0.1891 0.17299999 0.889
-0.1858 0.1728 0.88800001
-0.18430001 0.1728 0.88800001
-0.1825 0.1726 0.88700002
-0.18099999 0.1726 0.88700002
-0.1796 0.1728 0.88800001
-0.1785 0.1732 0.88999999
-0.17739999 0.1735 0.89200002
-0.162 0.1753 0.90100002
-0.15970001 0.1745 0.89700001
-0.1578 0.1741 0.89499998
-0.1461 0.1732 0.88999999
-0.1446 0.1732 0.88999999
-0.14300001 0.1732 0.88999999
-0.14120001 0.1728 0.88800001
-0.13959999 0.1728 0.88800001
-0.13779999 0.1724 0.88599998
-0.13500001 0.1708 0.87800002
-0.132 0.1689 0.86799997
-0.1261 0.1652 0.84899998
-0.1244 0.1648 0.847
-0.1226 0.1644 0.84500003
-0.1211 0.1644 0.84500003
-0.1195 0.16419999 0.84399998
-0.098099999 0.1626 0.83600003
-0.096600004 0.16249999 0.83499998
-0.094999999 0.16230001 0.83399999
-0.093599997 0.16230001 0.83399999
-0.092100002 0.16230001 0.83399999
-0.090800002 0.16249999 0.83499998
-0.089299999 0.16249999 0.83499998
-0.088100001 0.1628 0.83700001
-0.086999997 0.1636 0.84100002
-0.085900001 0.16419999 0.84399998
-0.084399998 0.16419999 0.84399998
-0.082900003 0.164 0.84299999
-0.0814 0.164 0.84299999
-0.079800002 0.1636 0.84100002
-0.078199998 0.16339999 0.83999997
-0.0766 0.163 0.838
-0.075000003 0.1628 0.83700001
-0.073600002 0.1628 0.83700001
-0.072300002 0.16320001 0.83899999
-0.070900001 0.16339999 0.83999997
-0.069799997 0.16419999 0.84399998
-0.068400003 0.1644 0.84500003
-0.067000002 0.1644 0.84500003
-0.065499999 0.1644 0.84500003
-0.064000003 0.1644 0.84500003
-0.066200003 0.17389999 0.89399999
-0.0647 0.1741 0.89499998
-0.0634 0.1749 0.89899999
-0.061999999 0.1751 0.89999998
-0.050799999 0.1741 0.89499998
-0.049199998 0.1741 0.89499998
-0.047800001 0.1745 0.89700001
-0.0462 0.1745 0.89700001
-0.0447 0.1745 0.89700001
-0.043099999 0.17470001 0.898
-0.041700002 0.1753 0.90100002
-0.040199999 0.1753 0.90100002
-0.038600001 0.1753 0.90100002
-0.037 0.1753 0.90100002
-0.035599999 0.17569999 0.903
-0.034000002 0.17569999 0.903
-0.032499999 0.1759 0.90399998
-0.0309 0.1759 0.90399998
-0.0294 0.17649999 0.90700001
-0.027899999 0.17649999 0.90700001
-0.0263 0.17649999 0.90700001
-0.024700001 0.1763 0.90600002
-0.0231 0.17649999 0.90700001
-0.021600001 0.17649999 0.90700001
-0.02 0.1763 0.90600002
-0.0184 0.1761 0.90499997
-0.016799999 0.1761 0.90499997
-0.0152 0.1761 0.90499997
-0.0137 0.1761 0.90499997
-0.0121 0.1761 0.90499997
-0.0105 0.1759 0.90399998
-0.0089999996 0.17569999 0.903
-0.0074 0.17569999 0.903
-0.0043000001 0.17550001 0.90200001
-0.0027000001 0.1753 0.90100002
-0.0011 0.1753 0.90100002
0.00039999999 0.17569999 0.903
0.0020000001 0.17569999 0.903
0.0035999999 0.1759 0.90399998
0.0051000002 0.1759 0.90399998
0.0066999998 0.17550001 0.90200001
0.0082 0.1753 0.90100002
0.0098000001 0.1751 0.89999998
0.0113 0.1743 0.89600003
0.0129 0.1743 0.89600003
0.0176 0.17470001 0.898
0.022299999 0.17550001 0.90200001
0.0285 0.1753 0.90100002
0.030099999 0.1753 0.90100002
0.033300001 0.17569999 0.903
0.034899998 0.17569999 0.903
0.036400001 0.17569999 0.903
0.0381 0.1761 0.90499997
0.039700001 0.17649999 0.90700001
0.041299999 0.17649999 0.90700001
0.0429 0.17649999 0.90700001
0.044399999 0.1763 0.90600002
0.045899998 0.1761 0.90499997
0.047499999 0.1761 0.90499997
0.048900001 0.17569999 0.903
0.050500002 0.17569999 0.903
0.052000001 0.17550001 0.90200001
0.0535 0.1753 0.90100002
0.055100001 0.1753 0.90100002
0.056600001 0.1753 0.90100002
0.0583 0.17569999 0.903
0.059900001 0.17569999 0.903
0.061500002 0.17569999 0.903
0.063000001 0.17569999 0.903
0.0647 0.1761 0.90499997
0.068000004 0.17649999 0.90700001
0.069600001 0.17649999 0.90700001
0.071199998 0.17649999 0.90700001
0.072700001 0.17649999 0.90700001
0.074199997 0.1763 0.90600002
0.075800002 0.1763 0.90600002
0.077500001 0.17649999 0.90700001
0.079000004 0.17649999 0.90700001
0.080700003 0.1767 0.90799999
0.0823 0.1767 0.90799999
0.083800003 0.1767 0.90799999
0.085600004 0.177 0.91000003
0.087200001 0.177 0.91000003
0.088799998 0.177 0.91000003
0.0902 0.1769 0.90899998
0.091600001 0.17649999 0.90700001
0.093099996 0.1763 0.90600002
0.094599999 0.1763 0.90600002
0.096100003 0.1761 0.90499997
0.097499996 0.17569999 0.903
0.099100001 0.1759 0.90399998
0.1008 0.1761 0.90499997
0.1024 0.1761 0.90499997
0.104 0.1761 0.90499997
0.1071 0.1761 0.90499997
0.1087 0.1761 0.90499997
0.1102 0.1761 0.90499997
0.1135 0.1763 0.90600002
0.1199 0.17649999 0.90700001
0.1215 0.17649999 0.90700001
0.1228 0.1761 0.90499997
0.1243 0.1761 0.90499997
0.1256 0.17569999 0.903
0.12720001 0.17569999 0.903
0.1288 0.17569999 0.903
0.1302 0.17550001 0.90200001
0.1332 0.1753 0.90100002
0.13959999 0.17550001 0.90200001
0.1411 0.17550001 0.90200001
0.1427 0.17550001 0.90200001
0.1443 0.17550001 0.90200001
0.14579999 0.17550001 0.90200001
0.14749999 0.17569999 0.903
0.14910001 0.17569999 0.903
0.1505 0.17550001 0.90200001
0.1522 0.17569999 0.903
0.1538 0.17569999 0.903
0.1557 0.1761 0.90499997
0.1575 0.1763 0.90600002
0.1592 0.17649999 0.90700001
0.161 0.1767 0.90799999
0.16249999 0.1767 0.90799999
0.16410001 0.1767 0.90799999
0.1657 0.1767 0.90799999
0.1674 0.1769 0.90899998
0.169 0.1769 0.90899998
0.1708 0.177 0.91000003
0.1723 0.177 0.91000003
-0.4005 0.1733 0.88300002
-0.3994 0.1735 0.884
-0.39700001 0.17309999 0.88200003
-0.39410001 0.1725 0.87900001
-0.3624 0.1741 0.88700002
-0.35620001 0.1741 0.88700002
-0.35429999 0.17389999 0.88599998
-0.35120001 0.17309999 0.88200003
-0.34920001 0.17290001 0.88099998
-0.34810001 0.17309999 0.88200003
-0.3459 0.1743 0.88800001
-0.3439 0.1741 0.88700002
-0.34279999 0.1743 0.88800001
-0.34119999 0.1743 0.88800001
-0.3362 0.1741 0.88700002
-0.33469999 0.1741 0.88700002
-0.33160001 0.1741 0.88700002
-0.3224 0.1741 0.88700002
-0.322 0.17470001 0.88999999
-0.31990001 0.1753 0.89300001
-0.31909999 0.17569999 0.89499998
-0.31639999 0.1759 0.89600003
-0.31369999 0.1753 0.89300001
-0.30340001 0.17649999 0.89899999
-0.29929999 0.1759 0.89600003
-0.2967 0.1753 0.89300001
-0.29449999 0.1749 0.89099997
-0.292 0.1743 0.88800001
-0.29010001 0.1741 0.88700002
-0.2879 0.1737 0.88499999
-0.2861 0.1735 0.884
-0.2845 0.1735 0.884
-0.26269999 0.1753 0.89300001
-0.26199999 0.1759 0.89600003
-0.24789999 0.178 0.90700001
-0.2458 0.1776 0.90499997
-0.2437 0.1772 0.903
-0.24160001 0.1769 0.90100002
-0.23999999 0.1769 0.90100002
-0.2385 0.1769 0.90100002
-0.2335 0.1767 0.89999998
-0.2299 0.1763 0.898
-0.2278 0.1759 0.89600003
-0.226 0.17569999 0.89499998
-0.22400001 0.1753 0.89300001
-0.22220001 0.1751 0.89200002
-0.22040001 0.1749 0.89099997
-0.21879999 0.1749 0.89099997
-0.21709999 0.17470001 0.88999999
-0.215 0.1743 0.88800001
-0.1997 0.17569999 0.89499998
-0.1981 0.17569999 0.89499998
-0.1963 0.17550001 0.89399999
-0.1946 0.1753 0.89300001
-0.1928 0.1751 0.89200002
-0.1911 0.1749 0.89099997
-0.1893 0.17470001 0.88999999
-0.1875 0.1745 0.889
-0.1858 0.1743 0.88800001
-0.1829 0.1745 0.889
-0.1816 0.17470001 0.88999999
-0.18000001 0.17470001 0.88999999
-0.1789 0.1751 0.89200002
-0.1776 0.1753 0.89300001
-0.1639 0.1772 0.903
-0.162 0.1769 0.90100002
-0.16 0.17649999 0.89899999
-0.15800001 0.1759 0.89600003
-0.15620001 0.17569999 0.89499998
-0.1547 0.17569999 0.89499998
-0.153 0.17550001 0.89399999
-0.1514 0.17550001 0.89399999
-0.1499 0.17550001 0.89399999
-0.1481 0.1753 0.89300001
-0.14659999 0.1753 0.89300001
-0.14489999 0.1751 0.89200002
-0.1435 0.1753 0.89300001
-0.1416 0.1749 0.89099997
-0.1399 0.17470001 0.88999999
-0.1381 0.1743 0.88800001
-0.1365 0.1743 0.88800001
-0.127 0.16779999 0.85500002
-0.1242 0.1661 0.84600002
-0.1225 0.1657 0.84399998
-0.1209 0.1655 0.84299999
-0.1193 0.1653 0.84200001
-0.1178 0.1653 0.84200001
