ply
format ascii 1.0
comment PCL generated
element vertex 1686
property float x
property float y
property float z
element camera 0
property float view_px
property float view_py
property float view_pz
property float x_axisx
property float x_axisy
property float x_axisz
property float y_axisx
property float y_axisy
property float y_axisz
property float z_axisx
property float z_axisy
property float z_axisz
property float focal
property float scalex
property float scaley
property float centerx
property float centery
property int viewportx
property int viewporty
property float k1
property float k2
end_header
0.074699998 0.0112 0.89300001
0.076399997 0.0113 0.89499998
0.078100003 0.0113 0.89600003
0.079599999 0.0113 0.89600003
0.081100002 0.0113 0.89499998
0.082900003 0.0113 0.898
0.084700003 0.0113 0.89999998
0.086199999 0.0113 0.89999998
0.087800004 0.0113 0.89999998
0.089299999 0.0113 0.89999998
0.092500001 0.0113 0.89999998
0.095399998 0.0113 0.898
0.096799999 0.0113 0.89700001
0.098399997 0.0113 0.89700001
0.1 0.0113 0.898
0.1015 0.0113 0.89700001
0.1028 0.0113 0.89499998
0.1042 0.0112 0.89399999
0.1059 0.0113 0.89499998
0.1073 0.0112 0.89399999
0.1088 0.0112 0.89300001
0.1103 0.0112 0.89300001
0.112 0.0112 0.89399999
0.1135 0.0112 0.89399999
0.1151 0.0112 0.89399999
0.1165 0.0112 0.89300001
0.1181 0.0112 0.89300001
0.1193 0.0112 0.89099997
0.1209 0.0112 0.89099997
0.1224 0.0112 0.89099997
0.1241 0.0112 0.89200002
0.1257 0.0112 0.89200002
0.12710001 0.0112 0.89099997
0.1287 0.0112 0.89200002
0.1303 0.0112 0.89200002
0.1318 0.0112 0.89200002
0.13339999 0.0112 0.89200002
0.1354 0.0113 0.89499998
0.1375 0.0113 0.89899999
0.13940001 0.0113 0.90100002
0.14129999 0.0114 0.903
0.1428 0.0114 0.903
0.1446 0.0114 0.90399998
0.146 0.0114 0.903
0.1472 0.0113 0.90100002
0.15000001 0.0113 0.89899999
0.1531 0.0113 0.89899999
0.1547 0.0113 0.89899999
0.1564 0.0113 0.89999998
0.15800001 0.0113 0.89999998
0.1595 0.0113 0.89999998
0.1611 0.0113 0.89999998
0.1627 0.0113 0.89999998
0.16419999 0.0113 0.89999998
0.16580001 0.0113 0.89999998
0.1673 0.0113 0.89999998
0.1691 0.0113 0.90100002
0.1708 0.0113 0.90200001
0.17299999 0.0114 0.90499997
0.1745 0.0114 0.90499997
0.1829 0.0111 0.88499999
0.18430001 0.0111 0.884
0.186 0.0111 0.88499999
-0.41479999 0.0127 0.884
-0.38499999 0.0126 0.87900001
-0.38389999 0.0126 0.88
-0.36399999 0.0125 0.87599999
-0.3628 0.0126 0.87699997
-0.3581 0.0127 0.884
-0.35609999 0.0126 0.88300002
-0.3538 0.0126 0.88099998
-0.35229999 0.0126 0.88099998
-0.3504 0.0126 0.88
-0.34810001 0.0126 0.88200003
-0.34470001 0.0127 0.88499999
-0.33849999 0.0127 0.88499999
-0.33660001 0.0127 0.884
-0.33469999 0.0126 0.88300002
-0.3328 0.0126 0.88200003
-0.33199999 0.0127 0.884
-0.33050001 0.0127 0.884
-0.32929999 0.0127 0.88499999
-0.32859999 0.0127 0.88700002
-0.32699999 0.0127 0.88700002
-0.32550001 0.0127 0.88700002
-0.32319999 0.0127 0.88499999
-0.3213 0.0127 0.884
-0.31979999 0.0127 0.884
-0.31720001 0.0126 0.88099998
-0.31380001 0.0125 0.87599999
-0.28150001 0.0127 0.889
-0.2766 0.0127 0.88800001
-0.2757 0.0127 0.88999999
-0.27039999 0.0129 0.898
-0.26820001 0.0128 0.89600003
-0.26640001 0.0128 0.89499998
-0.26449999 0.0128 0.89399999
-0.26300001 0.0128 0.89399999
-0.26109999 0.0128 0.89300001
-0.25929999 0.0128 0.89200002
-0.2577 0.0128 0.89200002
-0.25619999 0.0128 0.89200002
-0.25440001 0.0128 0.89099997
-0.25279999 0.0128 0.89099997
-0.25099999 0.0127 0.88999999
-0.2489 0.0127 0.88800001
-0.2474 0.0127 0.88800001
-0.24529999 0.0127 0.88599998
-0.24349999 0.0127 0.88499999
-0.24160001 0.0127 0.884
-0.23980001 0.0126 0.88300002
-0.23800001 0.0126 0.88200003
-0.2362 0.0126 0.88099998
-0.23469999 0.0126 0.88099998
-0.2332 0.0126 0.88099998
-0.2317 0.0126 0.88099998
-0.2291 0.0126 0.88300002
-0.2279 0.0127 0.884
-0.22660001 0.0127 0.88499999
-0.22499999 0.0127 0.88499999
-0.2235 0.0127 0.88499999
-0.222 0.0127 0.88499999
-0.22040001 0.0127 0.88499999
-0.2189 0.0127 0.88499999
-0.21709999 0.0127 0.884
-0.2156 0.0127 0.884
-0.2138 0.0126 0.88300002
-0.2121 0.0126 0.88200003
-0.2105 0.0126 0.88200003
-0.20900001 0.0126 0.88200003
-0.2075 0.0126 0.88200003
-0.2059 0.0126 0.88200003
-0.2031 0.0126 0.88300002
-0.2018 0.0127 0.884
-0.2005 0.0127 0.88499999
-0.1737 0.0119 0.82999998
-0.17200001 0.0119 0.829
-0.17020001 0.0118 0.82700002
-0.16850001 0.0118 0.82599998
-0.16689999 0.0118 0.82499999
-0.1655 0.0118 0.82499999
-0.1626 0.0118 0.82499999
-0.16140001 0.0118 0.82599998
-0.15989999 0.0118 0.82599998
-0.1585 0.0118 0.82599998
-0.1573 0.0118 0.82700002
-0.1558 0.0118 0.82700002
-0.1548 0.0119 0.829
-0.1533 0.0119 0.829
-0.15189999 0.0119 0.829
-0.1506 0.0119 0.82999998
-0.14920001 0.0119 0.82999998
-0.1476 0.0119 0.829
-0.1462 0.0119 0.829
-0.14489999 0.0119 0.82999998
-0.1435 0.0119 0.82999998
-0.142 0.0119 0.82999998
-0.1407 0.0119 0.83099997
-0.1393 0.0119 0.83099997
-0.13789999 0.0119 0.83099997
-0.1364 0.0119 0.83099997
-0.1348 0.0119 0.82999998
-0.13339999 0.0119 0.82999998
-0.1318 0.0119 0.829
-0.1302 0.0118 0.82800001
-0.1288 0.0118 0.82800001
-0.1275 0.0119 0.829
-0.126 0.0119 0.829
-0.1247 0.0119 0.82999998
-0.1233 0.0119 0.82999998
-0.1219 0.0119 0.82999998
-0.1203 0.0119 0.829
-0.1186 0.0118 0.82700002
-0.117 0.0118 0.82599998
-0.1156 0.0118 0.82599998
-0.114 0.0118 0.82499999
-0.1127 0.0118 0.82599998
-0.1113 0.0118 0.82599998
-0.11 0.0118 0.82700002
-0.1088 0.0119 0.829
-0.1074 0.0119 0.829
-0.1059 0.0119 0.829
-0.1045 0.0119 0.829
-0.103 0.0119 0.829
-0.1017 0.0119 0.82999998
-0.1003 0.0119 0.82999998
-0.098899998 0.0119 0.82999998
-0.097400002 0.0119 0.82999998
-0.096000001 0.0119 0.82999998
-0.094499998 0.0119 0.82999998
-0.093099996 0.0119 0.82999998
-0.091600001 0.0119 0.829
-0.090099998 0.0119 0.829
-0.088699996 0.0119 0.829
-0.087300003 0.0119 0.82999998
-0.086000003 0.0119 0.83099997
-0.084600002 0.0119 0.83099997
-0.083099999 0.0119 0.83099997
-0.081500001 0.0119 0.829
-0.0801 0.0119 0.829
-0.078400001 0.0118 0.82700002
-0.076800004 0.0118 0.82499999
-0.075300001 0.0118 0.824
-0.073799998 0.0118 0.82300001
-0.072300002 0.0118 0.82300001
-0.071000002 0.0118 0.824
-0.069700003 0.0118 0.82599998
-0.055799998 0.0119 0.83200002
-0.054299999 0.0119 0.83099997
-0.052999999 0.0119 0.83200002
-0.051600002 0.0119 0.833
-0.050099999 0.0119 0.833
-0.048700001 0.0119 0.83399999
-0.047400001 0.0119 0.83499998
-0.045899998 0.0119 0.83399999
-0.044399999 0.0119 0.83399999
-0.038400002 0.0119 0.829
-0.037 0.0119 0.829
-0.035599999 0.0119 0.82999998
-0.034200002 0.0119 0.83099997
-0.0328 0.0119 0.83200002
-0.031399999 0.0119 0.83399999
-0.029999999 0.0119 0.83499998
-0.027100001 0.0119 0.83499998
-0.025599999 0.0119 0.83499998
-0.0242 0.0119 0.83399999
-0.0228 0.0119 0.83499998
-0.021299999 0.0119 0.83399999
-0.0198 0.0119 0.833
-0.0184 0.0119 0.833
-0.016899999 0.0119 0.833
-0.0155 0.0119 0.833
-0.0141 0.0119 0.83399999
-0.0126 0.0119 0.83399999
-0.0057999999 0.0128 0.89600003
-0.0041999999 0.0128 0.89499998
-0.0027000001 0.0128 0.89300001
-0.0011 0.0128 0.89499998
0.00039999999 0.0128 0.89600003
0.0020000001 0.0128 0.89700001
0.0035000001 0.0129 0.898
0.0051000002 0.0129 0.89899999
0.0066999998 0.0129 0.89999998
0.0082 0.0129 0.89999998
0.0098000001 0.0129 0.898
0.0113 0.0129 0.898
0.0128 0.0128 0.89499998
0.0144 0.0128 0.89399999
0.015900001 0.0128 0.89300001
0.0174 0.0128 0.89200002
0.018999999 0.0128 0.89099997
0.020500001 0.0127 0.88999999
0.022 0.0127 0.88999999
0.023600001 0.0127 0.88999999
0.0251 0.0127 0.88999999
0.026699999 0.0128 0.89099997
0.028200001 0.0128 0.89099997
0.0298 0.0128 0.89099997
0.031399999 0.0128 0.89399999
0.033 0.0128 0.89600003
0.034699999 0.0129 0.898
0.0363 0.0129 0.89999998
0.037999999 0.0129 0.90200001
0.041299999 0.013 0.90600002
0.042800002 0.013 0.90600002
0.044399999 0.013 0.90499997
0.0458 0.0129 0.903
0.047400001 0.0129 0.903
0.048799999 0.0129 0.90100002
0.0502 0.0129 0.898
0.0515 0.0128 0.89300001
0.052900001 0.0128 0.89099997
0.054400001 0.0127 0.88999999
0.0559 0.0127 0.889
0.057500001 0.0127 0.88999999
0.059099998 0.0128 0.89099997
0.060800001 0.0128 0.89300001
0.0625 0.0128 0.89499998
0.064099997 0.0128 0.89600003
0.065700002 0.0128 0.89600003
0.067100003 0.0128 0.89499998
0.068700001 0.0128 0.89499998
0.070200004 0.0128 0.89399999
0.071599998 0.0128 0.89300001
0.073200002 0.0128 0.89300001
0.074699998 0.0128 0.89300001
0.076399997 0.0128 0.89399999
0.078000002 0.0128 0.89499998
0.079499997 0.0128 0.89499998
0.081100002 0.0128 0.89499998
0.082900003 0.0129 0.898
0.084700003 0.0129 0.89999998
0.086199999 0.0129 0.89999998
0.087800004 0.0129 0.89999998
0.089299999 0.0129 0.89999998
0.090899996 0.0129 0.89999998
0.092500001 0.0129 0.89999998
0.093800001 0.0129 0.898
0.095299996 0.0128 0.89700001
0.096900001 0.0129 0.898
0.098499998 0.0129 0.898
0.1003 0.0129 0.89999998
0.1017 0.0129 0.89899999
0.1029 0.0128 0.89600003
0.1045 0.0128 0.89600003
0.106 0.0128 0.89600003
0.1075 0.0128 0.89499998
0.109 0.0128 0.89499998
0.1106 0.0128 0.89499998
0.1122 0.0128 0.89600003
0.1138 0.0128 0.89600003
0.1153 0.0128 0.89600003
0.1169 0.0128 0.89600003
0.1183 0.0128 0.89499998
0.1197 0.0128 0.89399999
0.1213 0.0128 0.89399999
0.1227 0.0128 0.89300001
0.1244 0.0128 0.89399999
0.1258 0.0128 0.89300001
0.12720001 0.0128 0.89200002
0.1287 0.0128 0.89200002
0.1301 0.0128 0.89099997
0.13169999 0.0128 0.89099997
0.1332 0.0128 0.89099997
0.13510001 0.0128 0.89300001
0.1374 0.0129 0.898
0.1393 0.0129 0.89999998
0.1411 0.0129 0.90200001
0.1428 0.0129 0.903
0.1446 0.0129 0.90399998
0.146 0.0129 0.903
0.1472 0.0129 0.90100002
0.1488 0.0129 0.90100002
0.15019999 0.0129 0.89999998
0.1517 0.0129 0.89999998
0.1533 0.0129 0.89999998
0.1549 0.0129 0.89999998
0.15620001 0.0129 0.89899999
0.1595 0.0129 0.89999998
0.1627 0.0129 0.89999998
0.1638 0.0129 0.898
0.1654 0.0129 0.898
0.167 0.0129 0.898
0.1689 0.0129 0.89999998
0.1706 0.0129 0.90100002
0.1728 0.0129 0.90399998
0.1745 0.013 0.90499997
0.1829 0.0127 0.88499999
0.18430001 0.0127 0.884
0.1858 0.0127 0.884
-0.36199999 0.014 0.875
-0.3565 0.0142 0.884
-0.35420001 0.0142 0.88200003
-0.35229999 0.0141 0.88099998
-0.3504 0.0141 0.88
-0.3443 0.0142 0.884
-0.34279999 0.0142 0.884
-0.3416 0.0142 0.88499999
-0.34009999 0.0142 0.88499999
-0.33849999 0.0142 0.88499999
-0.33660001 0.0142 0.884
-0.33469999 0.0142 0.88300002
-0.33320001 0.0142 0.88300002
-0.33199999 0.0142 0.884
-0.33050001 0.0142 0.884
-0.32929999 0.0142 0.88499999
-0.32859999 0.0142 0.88700002
-0.32699999 0.0142 0.88700002
-0.32550001 0.0142 0.88700002
-0.32429999 0.0142 0.88800001
-0.3224 0.0142 0.88700002
-0.32120001 0.0142 0.88800001
-0.3193 0.0142 0.88700002
-0.27219999 0.0144 0.89899999
-0.27039999 0.0144 0.898
-0.26609999 0.0143 0.89399999
-0.2642 0.0143 0.89300001
-0.2624 0.0143 0.89200002
-0.2608 0.0143 0.89200002
-0.259 0.0143 0.89099997
-0.25749999 0.0143 0.89099997
-0.25560001 0.0143 0.88999999
-0.2538 0.0143 0.889
-0.252 0.0142 0.88800001
-0.2502 0.0142 0.88700002
-0.24779999 0.0142 0.884
-0.24600001 0.0142 0.88300002
-0.24420001 0.0142 0.88200003
-0.24240001 0.0141 0.88099998
-0.24079999 0.0141 0.88099998
-0.23980001 0.0142 0.88300002
-0.23800001 0.0142 0.88200003
-0.23649999 0.0142 0.88200003
-0.235 0.0142 0.88200003
-0.2335 0.0142 0.88200003
-0.23190001 0.0142 0.88200003
-0.2307 0.0142 0.88300002
-0.2279 0.0142 0.884
-0.2263 0.0142 0.884
-0.22480001 0.0142 0.884
-0.2235 0.0142 0.88499999
-0.2217 0.0142 0.884
-0.2202 0.0142 0.884
-0.21870001 0.0142 0.884
-0.21709999 0.0142 0.884
-0.2156 0.0142 0.884
-0.2141 0.0142 0.884
-0.2121 0.0142 0.88200003
-0.2105 0.0142 0.88200003
-0.20919999 0.0142 0.88300002
-0.2077 0.0142 0.88300002
-0.2059 0.0142 0.88200003
-0.2033 0.0142 0.884
-0.1737 0.0133 0.82999998
-0.17200001 0.0133 0.829
-0.17039999 0.0133 0.82800001
-0.16869999 0.0133 0.82700002
-0.1671 0.0133 0.82599998
-0.1655 0.0132 0.82499999
-0.1626 0.0132 0.82499999
-0.1612 0.0132 0.82499999
-0.15970001 0.0132 0.82499999
-0.1585 0.0133 0.82599998
-0.1573 0.0133 0.82700002
-0.1558 0.0133 0.82700002
-0.1548 0.0133 0.829
-0.15350001 0.0133 0.82999998
-0.1521 0.0133 0.82999998
-0.1506 0.0133 0.82999998
-0.149 0.0133 0.829
-0.1476 0.0133 0.829
-0.1462 0.0133 0.829
-0.14470001 0.0133 0.829
-0.1433 0.0133 0.829
-0.1418 0.0133 0.829
-0.1406 0.0133 0.82999998
-0.1393 0.0133 0.83099997
-0.13789999 0.0133 0.83099997
-0.1364 0.0133 0.83099997
-0.1348 0.0133 0.82999998
-0.1332 0.0133 0.829
-0.13160001 0.0133 0.82800001
-0.13 0.0133 0.82700002
-0.1284 0.0133 0.82599998
-0.12720001 0.0133 0.82700002
-0.1257 0.0133 0.82700002
-0.1246 0.0133 0.829
-0.1233 0.0133 0.82999998
-0.1217 0.0133 0.829
-0.1203 0.0133 0.829
-0.1186 0.0133 0.82700002
-0.1171 0.0133 0.82700002
-0.1156 0.0133 0.82599998
-0.1141 0.0133 0.82599998
-0.1127 0.0133 0.82599998
-0.1114 0.0133 0.82700002
-0.11 0.0133 0.82700002
-0.1088 0.0133 0.829
-0.1072 0.0133 0.82800001
-0.1059 0.0133 0.829
-0.1045 0.0133 0.829
-0.1029 0.0133 0.82800001
-0.1016 0.0133 0.829
-0.1003 0.0133 0.82999998
-0.098899998 0.0133 0.82999998
-0.097400002 0.0133 0.82999998
-0.096000001 0.0133 0.82999998
-0.094499998 0.0133 0.82999998
-0.093099996 0.0133 0.82999998
-0.091700003 0.0133 0.82999998
-0.090099998 0.0133 0.829
-0.088799998 0.0133 0.82999998
-0.087300003 0.0133 0.82999998
-0.085900001 0.0133 0.82999998
-0.0845 0.0133 0.82999998
-0.082999997 0.0133 0.82999998
-0.081500001 0.0133 0.829
-0.0801 0.0133 0.829
-0.078400001 0.0133 0.82700002
-0.076899998 0.0133 0.82599998
-0.075499997 0.0133 0.82599998
-0.074000001 0.0132 0.82499999
-0.0726 0.0133 0.82599998
-0.0713 0.0133 0.82700002
-0.07 0.0133 0.829
-0.068599999 0.0133 0.829
-0.055799998 0.0133 0.83200002
-0.054299999 0.0133 0.83099997
-0.052999999 0.0133 0.83200002
-0.0515 0.0133 0.83200002
-0.050099999 0.0134 0.833
-0.048700001 0.0134 0.83399999
-0.047400001 0.0134 0.83499998
-0.045899998 0.0134 0.83399999
-0.044399999 0.0134 0.83399999
-0.039900001 0.0133 0.82999998
-0.038400002 0.0133 0.829
-0.037 0.0133 0.829
-0.035500001 0.0133 0.829
-0.0341 0.0133 0.82999998
-0.032699998 0.0133 0.83099997
-0.031399999 0.0134 0.833
-0.029999999 0.0134 0.83399999
-0.0285 0.0134 0.83399999
-0.027000001 0.0134 0.833
-0.021299999 0.0134 0.833
-0.0198 0.0134 0.833
-0.0184 0.0134 0.833
-0.016899999 0.0134 0.83399999
-0.0155 0.0134 0.83399999
-0.0141 0.0134 0.83399999
-0.0126 0.0134 0.83399999
-0.0112 0.0134 0.83399999
-0.0073000002 0.0144 0.89499998
-0.0057999999 0.0143 0.89399999
-0.0041999999 0.0143 0.89300001
-0.0027000001 0.0143 0.89300001
-0.0011 0.0144 0.89499998
0.00039999999 0.0144 0.89600003
0.0020000001 0.0144 0.898
0.0035999999 0.0144 0.89999998
0.0051000002 0.0144 0.89999998
0.0066999998 0.0145 0.90100002
0.0082 0.0145 0.90100002
0.0098000001 0.0144 0.89899999
0.0113 0.0144 0.89700001
0.0128 0.0144 0.89499998
0.0144 0.0143 0.89300001
0.015900001 0.0143 0.89200002
0.0174 0.0143 0.89099997
0.018999999 0.0143 0.89099997
0.020500001 0.0143 0.88999999
0.022 0.0143 0.889
0.023499999 0.0143 0.889
0.0251 0.0143 0.88999999
0.0266 0.0143 0.88999999
0.028200001 0.0143 0.89099997
0.0298 0.0143 0.89200002
0.031399999 0.0143 0.89300001
0.033 0.0144 0.89600003
0.034699999 0.0144 0.89899999
0.0363 0.0144 0.89999998
0.037999999 0.0145 0.903
0.0396 0.0145 0.90499997
0.041299999 0.0145 0.90600002
0.042800002 0.0145 0.90600002
0.044399999 0.0145 0.90499997
0.0458 0.0145 0.903
0.0473 0.0145 0.90200001
0.048799999 0.0144 0.89999998
0.050099999 0.0144 0.89499998
0.051399998 0.0143 0.89200002
0.052900001 0.0143 0.88999999
0.054400001 0.0143 0.889
0.055799998 0.0142 0.88800001
0.057399999 0.0142 0.88800001
0.059 0.0143 0.88999999
0.060800001 0.0143 0.89300001
0.0625 0.0144 0.89499998
0.064099997 0.0144 0.89600003
0.065700002 0.0144 0.89700001
0.067400001 0.0144 0.898
0.068800002 0.0144 0.89700001
0.070500001 0.0144 0.898
0.071900003 0.0144 0.89600003
0.073299997 0.0144 0.89499998
0.074900001 0.0144 0.89499998
0.076399997 0.0144 0.89499998
0.078000002 0.0144 0.89499998
0.079499997 0.0144 0.89499998
0.081100002 0.0144 0.89499998
0.082800001 0.0144 0.89700001
0.084600002 0.0144 0.89899999
0.086199999 0.0144 0.89999998
0.087800004 0.0144 0.89999998
0.089299999 0.0144 0.89999998
0.090899996 0.0144 0.89999998
0.092500001 0.0144 0.89999998
0.093800001 0.0144 0.898
0.095399998 0.0144 0.898
0.097000003 0.0144 0.89899999
0.098700002 0.0144 0.89999998
0.1004 0.0145 0.90100002
0.1018 0.0144 0.89999998
0.1032 0.0144 0.898
0.1047 0.0144 0.898
0.1061 0.0144 0.89700001
0.1076 0.0144 0.89600003
0.1106 0.0144 0.89499998
0.1122 0.0144 0.89600003
0.1138 0.0144 0.89600003
0.1153 0.0144 0.89600003
0.117 0.0144 0.89700001
0.1187 0.0144 0.898
0.12 0.0144 0.89600003
0.1216 0.0144 0.89600003
0.1231 0.0144 0.89600003
0.1247 0.0144 0.89600003
0.12729999 0.0143 0.89300001
0.1287 0.0143 0.89200002
0.1301 0.0143 0.89099997
0.13169999 0.0143 0.89099997
0.1332 0.0143 0.89099997
0.13510001 0.0143 0.89300001
0.1372 0.0144 0.89700001
0.1393 0.0144 0.89999998
0.1411 0.0145 0.90200001
0.1428 0.0145 0.903
0.1446 0.0145 0.90399998
0.146 0.0145 0.903
0.1472 0.0145 0.90100002
0.1488 0.0145 0.90100002
0.15019999 0.0144 0.89999998
0.1517 0.0144 0.89999998
0.1533 0.0144 0.89999998
0.1547 0.0144 0.89899999
0.15620001 0.0144 0.89899999
0.15800001 0.0144 0.89999998
0.1595 0.0144 0.89999998
0.16249999 0.0144 0.89899999
0.1638 0.0144 0.898
0.167 0.0144 0.898
0.1689 0.0144 0.89999998
0.1706 0.0145 0.90100002
0.1726 0.0145 0.903
0.1742 0.0145 0.903
0.1832 0.0142 0.88599998
0.18430001 0.0142 0.884
0.1858 0.0142 0.884
0.18780001 0.0142 0.88599998
-0.39989999 0.0156 0.875
-0.396 0.0155 0.87300003
-0.39449999 0.0155 0.87300003
-0.391 0.0155 0.87199998
-0.3899 0.0155 0.87300003
-0.35499999 0.015699999 0.884
-0.3527 0.015699999 0.88200003
-0.3504 0.0156 0.88
-0.3488 0.0156 0.88
-0.3477 0.015699999 0.88099998
-0.3443 0.015699999 0.884
-0.33970001 0.015699999 0.884
-0.3328 0.015699999 0.88200003
-0.3317 0.015699999 0.88300002
-0.33050001 0.015699999 0.884
-0.329 0.015699999 0.884
-0.32780001 0.015699999 0.88499999
-0.3263 0.015699999 0.88499999
-0.3247 0.015699999 0.88499999
-0.32390001 0.015799999 0.88700002
-0.3224 0.015799999 0.88700002
-0.32120001 0.015799999 0.88800001
-0.26210001 0.015799999 0.89099997
-0.26030001 0.015799999 0.88999999
-0.25839999 0.015799999 0.889
-0.25690001 0.015799999 0.889
-0.255 0.015799999 0.88800001
-0.24439999 0.015699999 0.88300002
-0.2432 0.015699999 0.884
-0.24160001 0.015699999 0.884
-0.2404 0.015699999 0.88499999
-0.2386 0.015699999 0.884
-0.237 0.015699999 0.884
-0.23549999 0.015699999 0.884
-0.23370001 0.015699999 0.88300002
-0.23190001 0.015699999 0.88200003
-0.2304 0.015699999 0.88200003
-0.2289 0.015699999 0.88200003
-0.2273 0.015699999 0.88200003
-0.22579999 0.015699999 0.88200003
-0.2243 0.015699999 0.88200003
-0.223 0.015699999 0.88300002
-0.22149999 0.015699999 0.88300002
-0.2199 0.015699999 0.88300002
-0.21870001 0.015699999 0.884
-0.21709999 0.015699999 0.884
-0.2156 0.015699999 0.884
-0.2141 0.015699999 0.884
-0.21250001 0.015699999 0.884
-0.21080001 0.015699999 0.88300002
-0.2095 0.015699999 0.884
-0.2079 0.015699999 0.884
-0.2062 0.015699999 0.88300002
-0.2049 0.015699999 0.884
-0.2033 0.015699999 0.884
-0.20200001 0.015699999 0.88499999
-0.1767 0.0148 0.83099997
-0.1751 0.0148 0.82999998
-0.1737 0.0148 0.82999998
-0.17200001 0.0147 0.829
-0.17039999 0.0147 0.82800001
-0.16869999 0.0147 0.82700002
-0.1671 0.0147 0.82599998
-0.164 0.0147 0.82499999
-0.1626 0.0147 0.82499999
-0.16140001 0.0147 0.82599998
-0.15989999 0.0147 0.82599998
-0.1585 0.0147 0.82599998
-0.1573 0.0147 0.82700002
-0.1558 0.0147 0.82700002
-0.1548 0.0147 0.829
-0.1533 0.0147 0.829
-0.1521 0.0148 0.82999998
-0.1505 0.0147 0.829
-0.149 0.0147 0.829
-0.14740001 0.0147 0.82800001
-0.1462 0.0147 0.829
-0.14470001 0.0147 0.829
-0.1433 0.0147 0.829
-0.1418 0.0147 0.829
-0.1406 0.0148 0.82999998
-0.1393 0.0148 0.83099997
-0.13770001 0.0148 0.82999998
-0.1363 0.0148 0.82999998
-0.1347 0.0147 0.829
-0.1329 0.0147 0.82700002
-0.1313 0.0147 0.82599998
-0.12970001 0.0147 0.82499999
-0.12809999 0.0146 0.824
-0.1269 0.0147 0.82499999
-0.12540001 0.0147 0.82499999
-0.1243 0.0147 0.82700002
-0.1229 0.0147 0.82700002
-0.1214 0.0147 0.82700002
-0.12 0.0147 0.82700002
-0.1186 0.0147 0.82700002
-0.1171 0.0147 0.82700002
-0.1156 0.0147 0.82599998
-0.1141 0.0147 0.82599998
-0.1127 0.0147 0.82599998
-0.1114 0.0147 0.82700002
-0.11 0.0147 0.82700002
-0.1085 0.0147 0.82700002
-0.1071 0.0147 0.82700002
-0.1059 0.0147 0.829
-0.1044 0.0147 0.82800001
-0.1029 0.0147 0.82800001
-0.1002 0.0147 0.829
-0.098700002 0.0147 0.829
-0.097400002 0.0148 0.82999998
-0.096000001 0.0148 0.82999998
-0.094499998 0.0148 0.82999998
-0.093099996 0.0148 0.82999998
-0.091700003 0.0148 0.82999998
-0.090099998 0.0147 0.829
-0.088799998 0.0148 0.82999998
-0.087499999 0.0148 0.83099997
-0.086000003 0.0148 0.83099997
-0.0845 0.0148 0.82999998
-0.082999997 0.0148 0.82999998
-0.081600003 0.0148 0.82999998
-0.0801 0.0147 0.829
-0.078500003 0.0147 0.82800001
-0.077 0.0147 0.82700002
-0.075499997 0.0147 0.82599998
-0.074000001 0.0147 0.82599998
-0.072800003 0.0147 0.82800001
-0.071400002 0.0147 0.82800001
-0.07 0.0147 0.829
-0.068599999 0.0148 0.82999998
-0.061500002 0.0148 0.83099997
-0.057300001 0.0148 0.83200002
-0.055799998 0.0148 0.83200002
-0.054299999 0.0148 0.83099997
-0.052999999 0.0148 0.83200002
-0.051600002 0.0148 0.833
-0.050099999 0.0148 0.833
-0.048700001 0.0148 0.83399999
-0.0473 0.0148 0.83399999
-0.045899998 0.0148 0.83399999
-0.044399999 0.0148 0.83399999
-0.0429 0.0148 0.833
-0.038400002 0.0148 0.82999998
-0.037 0.0148 0.82999998
-0.035599999 0.0148 0.82999998
-0.034200002 0.0148 0.83099997
-0.031399999 0.0148 0.833
-0.029999999 0.0148 0.83399999
-0.0285 0.0148 0.833
-0.027000001 0.0148 0.83200002
-0.0184 0.0148 0.833
-0.016899999 0.0148 0.83399999
-0.0155 0.0148 0.83399999
-0.0141 0.0148 0.83499998
-0.0126 0.0148 0.83399999
-0.0097000003 0.0148 0.83499998
-0.0073000002 0.015900001 0.89399999
-0.0057999999 0.015900001 0.89300001
-0.0041999999 0.015900001 0.89300001
-0.0027000001 0.015900001 0.89300001
-0.0011 0.015900001 0.89600003
0.00039999999 0.016000001 0.898
0.0020000001 0.016000001 0.89999998
0.0035999999 0.016000001 0.89999998
0.0051000002 0.016000001 0.90100002
0.0066999998 0.016000001 0.90100002
0.0082 0.016000001 0.90100002
0.0098000001 0.016000001 0.89899999
0.0113 0.016000001 0.898
0.0128 0.015900001 0.89499998
0.0144 0.015900001 0.89399999
0.015900001 0.015900001 0.89300001
0.0174 0.015900001 0.89200002
0.018999999 0.015799999 0.89099997
0.020500001 0.015799999 0.88999999
0.022 0.015799999 0.889
0.023499999 0.015799999 0.88800001
0.0251 0.015799999 0.88999999
0.0266 0.015799999 0.88999999
0.028200001 0.015799999 0.89099997
0.0298 0.015900001 0.89300001
0.031500001 0.015900001 0.89499998
0.033100002 0.015900001 0.89700001
0.034699999 0.016000001 0.89899999
0.0363 0.016000001 0.90100002
0.037999999 0.016000001 0.90200001
0.0396 0.016100001 0.90399998
0.041200001 0.016100001 0.90499997
0.042800002 0.016100001 0.90499997
0.044300001 0.016100001 0.90399998
0.0458 0.016100001 0.903
0.0473 0.016000001 0.90100002
0.048799999 0.016000001 0.89999998
0.050099999 0.015900001 0.89600003
0.0515 0.015900001 0.89300001
0.052900001 0.015799999 0.89099997
0.054400001 0.015799999 0.88999999
0.056000002 0.015799999 0.88999999
0.057500001 0.015799999 0.88999999
0.059099998 0.015799999 0.89099997
0.060899999 0.015900001 0.89399999
0.0625 0.015900001 0.89600003
0.064199999 0.016000001 0.898
0.065800004 0.016000001 0.898
0.067400001 0.016000001 0.898
0.068899997 0.016000001 0.898
0.070500001 0.016000001 0.898
0.071999997 0.016000001 0.898
0.073399998 0.015900001 0.89600003
0.075000003 0.015900001 0.89600003
0.076499999 0.015900001 0.89600003
0.078100003 0.015900001 0.89600003
0.079499997 0.015900001 0.89499998
0.081200004 0.015900001 0.89600003
0.082800001 0.015900001 0.89700001
0.084600002 0.016000001 0.89899999
0.086199999 0.016000001 0.89999998
0.087800004 0.016000001 0.89999998
0.090899996 0.016000001 0.89999998
0.092500001 0.016000001 0.89999998
0.093900003 0.016000001 0.89899999
0.095399998 0.016000001 0.898
0.097099997 0.016000001 0.89999998
0.098700002 0.016000001 0.89999998
0.1004 0.016000001 0.90100002
0.1019 0.016000001 0.90100002
0.1034 0.016000001 0.89999998
0.1048 0.016000001 0.89899999
0.1063 0.016000001 0.898
0.1078 0.016000001 0.898
0.1091 0.015900001 0.89600003
0.1107 0.015900001 0.89600003
0.1122 0.015900001 0.89600003
0.1139 0.015900001 0.89700001
0.1156 0.016000001 0.898
0.1172 0.016000001 0.898
0.119 0.016000001 0.89999998
0.1205 0.016000001 0.89999998
0.1221 0.016000001 0.89999998
0.1238 0.016000001 0.90100002
0.1252 0.016000001 0.89999998
0.1265 0.016000001 0.898
0.1278 0.015900001 0.89600003
0.1303 0.015900001 0.89200002
0.13169999 0.015799999 0.89099997
0.1332 0.015799999 0.89099997
0.13510001 0.015900001 0.89300001
0.1371 0.015900001 0.89600003
0.1391 0.016000001 0.89899999
0.1408 0.016000001 0.89999998
0.1425 0.016000001 0.90100002
0.1443 0.016000001 0.90200001
0.14569999 0.016000001 0.90100002
0.1472 0.016000001 0.90100002
0.1486 0.016000001 0.89999998
0.15019999 0.016000001 0.89999998
0.1517 0.016000001 0.89999998
0.1533 0.016000001 0.89999998
0.1547 0.016000001 0.89899999
0.1561 0.016000001 0.898
0.1576 0.016000001 0.898
0.1592 0.016000001 0.898
0.16069999 0.016000001 0.898
0.1638 0.016000001 0.898
0.1666 0.015900001 0.89600003
0.16869999 0.016000001 0.89899999
0.1705 0.016000001 0.89999998
0.17219999 0.016000001 0.90100002
0.17399999 0.016000001 0.90200001
0.184 0.015799999 0.88999999
0.18449999 0.015699999 0.88499999
0.1864 0.015799999 0.88700002
0.1882 0.015799999 0.88800001
-0.40189999 0.017100001 0.87599999
-0.39930001 0.017100001 0.87699997
-0.39300001 0.017000001 0.87300003
-0.3915 0.017000001 0.87300003
-0.39039999 0.017100001 0.87400001
-0.35499999 0.017200001 0.884
-0.3527 0.017200001 0.88200003
-0.35080001 0.017200001 0.88099998
-0.34920001 0.017200001 0.88099998
-0.34349999 0.017200001 0.88200003
-0.34119999 0.017200001 0.884
-0.33970001 0.017200001 0.884
-0.3382 0.017200001 0.884
-0.33629999 0.017200001 0.88300002
-0.33430001 0.017200001 0.88200003
-0.3317 0.017200001 0.88300002
-0.33050001 0.017200001 0.884
-0.329 0.017200001 0.884
-0.32780001 0.0173 0.88499999
-0.3247 0.0173 0.88499999
-0.32390001 0.0173 0.88700002
-0.3224 0.0173 0.88700002
-0.32120001 0.0173 0.88800001
-0.2633 0.0174 0.88999999
-0.2597 0.0173 0.88800001
-0.2563 0.0173 0.88700002
-0.24089999 0.0173 0.88700002
-0.2386 0.017200001 0.884
-0.237 0.017200001 0.884
-0.23549999 0.017200001 0.884
-0.23370001 0.017200001 0.88300002
-0.23190001 0.017200001 0.88200003
-0.2304 0.017200001 0.88200003
-0.2286 0.017200001 0.88099998
-0.2271 0.017200001 0.88099998
-0.2256 0.017200001 0.88099998
-0.22400001 0.017200001 0.88099998
-0.2228 0.017200001 0.88200003
-0.2212 0.017200001 0.88200003
-0.21969999 0.017200001 0.88200003
-0.2184 0.017200001 0.88300002
-0.21709999 0.017200001 0.884
-0.2156 0.017200001 0.884
-0.2141 0.017200001 0.884
-0.21250001 0.017200001 0.884
-0.211 0.017200001 0.884
-0.2097 0.0173 0.88499999
-0.2079 0.017200001 0.884
-0.2049 0.017200001 0.884
-0.2033 0.017200001 0.884
-0.20200001 0.0173 0.88499999
-0.17839999 0.0162 0.83200002
-0.1767 0.0162 0.83099997
-0.1753 0.0162 0.83099997
-0.1737 0.0162 0.82999998
-0.17219999 0.0162 0.82999998
-0.1706 0.0162 0.829
-0.1689 0.0162 0.82800001
-0.1673 0.016100001 0.82700002
-0.1657 0.016100001 0.82599998
-0.16419999 0.016100001 0.82599998
-0.1628 0.016100001 0.82599998
-0.16140001 0.016100001 0.82599998
-0.15989999 0.016100001 0.82599998
-0.1585 0.016100001 0.82599998
-0.1573 0.016100001 0.82700002
-0.1558 0.016100001 0.82700002
-0.1548 0.0162 0.829
-0.1533 0.0162 0.829
-0.15189999 0.0162 0.829
-0.1505 0.0162 0.829
-0.1488 0.0162 0.82800001
-0.1476 0.0162 0.829
-0.1462 0.0162 0.829
-0.14470001 0.0162 0.829
-0.1435 0.0162 0.82999998
-0.142 0.0162 0.82999998
-0.1406 0.0162 0.82999998
-0.1393 0.0162 0.83099997
-0.13770001 0.0162 0.82999998
-0.13609999 0.0162 0.829
-0.1345 0.0162 0.82800001
-0.1329 0.016100001 0.82700002
-0.1311 0.016100001 0.82499999
-0.1296 0.016100001 0.824
-0.1278 0.016000001 0.82200003
-0.12639999 0.016000001 0.82200003
-0.1251 0.016100001 0.82300001
-0.1237 0.016100001 0.82300001
-0.1223 0.016100001 0.82300001
-0.121 0.016100001 0.824
-0.1199 0.016100001 0.82599998
-0.1186 0.016100001 0.82700002
-0.1171 0.016100001 0.82700002
-0.1156 0.016100001 0.82599998
-0.1141 0.016100001 0.82599998
-0.1128 0.016100001 0.82700002
-0.1115 0.0162 0.82800001
-0.1101 0.0162 0.82800001
-0.1087 0.0162 0.82800001
-0.1072 0.0162 0.82800001
-0.1059 0.0162 0.829
-0.1045 0.0162 0.829
-0.103 0.0162 0.829
-0.1016 0.0162 0.829
-0.1002 0.0162 0.829
-0.098700002 0.0162 0.829
-0.097400002 0.0162 0.82999998
-0.096000001 0.0162 0.82999998
-0.094700001 0.0162 0.83099997
-0.093199998 0.0162 0.83099997
-0.091700003 0.0162 0.82999998
-0.0902 0.0162 0.82999998
-0.088799998 0.0162 0.82999998
-0.087300003 0.0162 0.82999998
-0.085900001 0.0162 0.82999998
-0.0845 0.0162 0.82999998
-0.082999997 0.0162 0.82999998
-0.081600003 0.0162 0.82999998
-0.080200002 0.0162 0.82999998
-0.078699999 0.0162 0.82999998
-0.077200003 0.0162 0.829
-0.0757 0.0162 0.829
-0.074199997 0.0162 0.82800001
-0.072999999 0.0162 0.82999998
-0.071400002 0.0162 0.829
-0.062899999 0.0162 0.82999998
-0.061500002 0.0162 0.82999998
-0.058600001 0.0162 0.83099997
-0.0572 0.0162 0.83099997
-0.055799998 0.0162 0.83099997
-0.054299999 0.0162 0.83099997
-0.052900001 0.0162 0.83099997
-0.0515 0.0162 0.83200002
-0.050000001 0.0162 0.83099997
-0.048700001 0.0163 0.833
-0.0473 0.0163 0.83399999
-0.045899998 0.0163 0.83399999
-0.044500001 0.0163 0.83499998
-0.043000001 0.0163 0.83399999
-0.0385 0.0162 0.83099997
-0.037 0.0162 0.83099997
-0.035599999 0.0162 0.82999998
-0.034200002 0.0162 0.83099997
-0.0328 0.0162 0.83200002
-0.031399999 0.0163 0.833
-0.029999999 0.0163 0.83399999
-0.0285 0.0163 0.83399999
-0.027000001 0.0163 0.833
-0.0184 0.0163 0.83399999
-0.016899999 0.0163 0.83399999
-0.0155 0.0163 0.83499998
-0.0141 0.0163 0.83499998
-0.0126 0.0163 0.83499998
-0.0112 0.0163 0.83499998
-0.0097000003 0.0163 0.83499998
-0.0073000002 0.0174 0.89099997
-0.0057000001 0.0174 0.89099997
-0.0041999999 0.0174 0.89200002
-0.0027000001 0.0174 0.89200002
-0.0011 0.0175 0.89499998
0.00039999999 0.0175 0.89700001
0.0020000001 0.0175 0.89899999
0.0035999999 0.0176 0.89999998
0.0051000002 0.0176 0.89999998
0.0066999998 0.0176 0.89999998
0.0082 0.0175 0.898
0.0097000003 0.0175 0.89600003
0.0113 0.0175 0.89499998
0.0128 0.0174 0.89399999
0.0144 0.0174 0.89399999
0.015900001 0.0174 0.89300001
0.0175 0.0174 0.89300001
0.018999999 0.0174 0.89300001
0.020500001 0.0174 0.89200002
0.022 0.0174 0.89099997
0.023600001 0.0174 0.88999999
0.0251 0.0174 0.89099997
0.026699999 0.0174 0.89200002
0.0283 0.0174 0.89300001
0.029899999 0.0175 0.89499998
0.031500001 0.0175 0.89600003
0.033100002 0.0175 0.898
0.034699999 0.0175 0.89899999
0.0363 0.0176 0.89999998
0.037900001 0.0176 0.89999998
0.041099999 0.0176 0.90200001
0.042599998 0.0176 0.90200001
0.044199999 0.0176 0.90200001
0.045699999 0.0176 0.90100002
0.047200002 0.0176 0.89999998
0.048700001 0.0175 0.898
0.050099999 0.0175 0.89499998
0.051399998 0.0174 0.89200002
0.052900001 0.0174 0.89099997
0.056000002 0.0174 0.88999999
0.057500001 0.0174 0.88999999
0.0592 0.0174 0.89200002
0.060899999 0.0174 0.89399999
0.0625 0.0175 0.89600003
0.064199999 0.0175 0.898
0.065800004 0.0175 0.898
0.067400001 0.0175 0.89899999
0.068999998 0.0175 0.89899999
0.070500001 0.0175 0.89899999
0.072099999 0.0175 0.89899999
0.073600002 0.0175 0.898
0.075099997 0.0175 0.89700001
0.076700002 0.0175 0.898
0.078100003 0.0175 0.89600003
0.079499997 0.0175 0.89499998
0.081200004 0.0175 0.89600003
0.082699999 0.0175 0.89600003
0.0845 0.0175 0.898
0.086199999 0.0176 0.89999998
0.087800004 0.0176 0.89999998
0.089299999 0.0176 0.89999998
0.090899996 0.0176 0.89999998
0.092399999 0.0175 0.89899999
0.093800001 0.0175 0.898
0.095299996 0.0175 0.89700001
0.096900001 0.0175 0.898
0.0986 0.0175 0.89899999
0.1003 0.0176 0.89999998
0.1018 0.0176 0.89999998
0.1034 0.0176 0.89999998
0.1049 0.0176 0.89999998
0.1063 0.0175 0.898
0.1077 0.0175 0.89700001
0.1091 0.0175 0.89600003
0.1106 0.0175 0.89499998
0.1122 0.0175 0.89600003
0.1138 0.0175 0.89600003
0.1155 0.0175 0.89700001
0.1173 0.0175 0.89899999
0.1191 0.0176 0.90100002
0.1208 0.0176 0.90200001
0.1225 0.0176 0.903
0.1241 0.0176 0.903
0.1292 0.0175 0.89499998
0.1304 0.0174 0.89300001
0.1318 0.0174 0.89200002
0.1332 0.0174 0.89099997
0.13510001 0.0174 0.89300001
0.1371 0.0175 0.89600003
0.1389 0.0175 0.898
0.14049999 0.0175 0.898
0.1424 0.0176 0.89999998
0.1441 0.0176 0.90100002
0.14569999 0.0176 0.90100002
0.1471 0.0176 0.89999998
0.14839999 0.0175 0.89899999
0.15000001 0.0175 0.89899999
0.1517 0.0176 0.89999998
0.1533 0.0176 0.89999998
0.1549 0.0176 0.89999998
0.1561 0.0175 0.898
0.1576 0.0175 0.898
0.1592 0.0175 0.898
0.1619 0.0175 0.89600003
0.1635 0.0175 0.89600003
0.1649 0.0175 0.89499998
0.1662 0.0174 0.89399999
0.1681 0.0175 0.89600003
0.1701 0.0175 0.898
0.1718 0.0175 0.89899999
0.1736 0.0176 0.89999998
0.18529999 0.0173 0.889
0.18709999 0.0174 0.88999999
0.18880001 0.0174 0.89099997
-0.41569999 0.0185 0.87300003
-0.41460001 0.0186 0.87400001
-0.39579999 0.0186 0.87599999
-0.39390001 0.0186 0.875
-0.3919 0.0186 0.87400001
-0.38890001 0.0186 0.87400001
-0.3531 0.0188 0.88300002
-0.3477 0.0187 0.88099998
-0.34580001 0.0187 0.88
-0.34470001 0.0187 0.88099998
-0.34310001 0.0187 0.88099998
-0.3382 0.0188 0.884
-0.33660001 0.0188 0.884
-0.33469999 0.0188 0.88300002
-0.33320001 0.0188 0.88300002
-0.33199999 0.0188 0.884
-0.33050001 0.0188 0.884
-0.329 0.0188 0.884
-0.32780001 0.0188 0.88499999
-0.3263 0.0188 0.88499999
-0.3247 0.0188 0.88499999
-0.32390001 0.0188 0.88700002
-0.32159999 0.0189 0.889
-0.2394 0.0188 0.88700002
-0.23729999 0.0188 0.88499999
-0.2358 0.0188 0.88499999
-0.234 0.0188 0.884
-0.23190001 0.0187 0.88200003
-0.23010001 0.0187 0.88099998
-0.2281 0.0187 0.87900001
-0.22660001 0.0187 0.87900001
-0.22499999 0.0187 0.87900001
-0.2235 0.0187 0.87900001
-0.22220001 0.0187 0.88
-0.221 0.0187 0.88099998
-0.21969999 0.0187 0.88200003
-0.21870001 0.0188 0.884
-0.21709999 0.0188 0.884
-0.2156 0.0188 0.884
-0.2141 0.0188 0.884
-0.21250001 0.0188 0.884
-0.211 0.0188 0.884
-0.2097 0.0188 0.88499999
-0.20819999 0.0188 0.88499999
-0.20640001 0.0188 0.884
-0.2049 0.0188 0.884
-0.2033 0.0188 0.884
-0.2018 0.0188 0.884
-0.2001 0.0188 0.88300002
-0.1807 0.0178 0.83600003
-0.1788 0.0177 0.83399999
-0.1772 0.0177 0.833
-0.17550001 0.0177 0.83200002
-0.17389999 0.0177 0.83099997
-0.17219999 0.0176 0.82999998
-0.1706 0.0176 0.829
-0.1691 0.0176 0.829
-0.1673 0.0176 0.82700002
-0.1655 0.0175 0.82499999
-0.1638 0.0175 0.824
-0.16240001 0.0175 0.824
-0.161 0.0175 0.824
-0.1596 0.0175 0.824
-0.15809999 0.0175 0.824
-0.1567 0.0175 0.824
-0.15549999 0.0175 0.82499999
-0.1542 0.0175 0.82599998
-0.153 0.0176 0.82700002
-0.1515 0.0176 0.82700002
-0.15009999 0.0176 0.82700002
-0.1485 0.0175 0.82599998
-0.1472 0.0176 0.82700002
-0.14579999 0.0176 0.82700002
-0.1445 0.0176 0.82800001
-0.1433 0.0176 0.829
-0.1418 0.0176 0.829
-0.1406 0.0176 0.82999998
-0.1391 0.0176 0.82999998
-0.1375 0.0176 0.829
-0.13609999 0.0176 0.829
-0.13429999 0.0176 0.82700002
-0.1327 0.0175 0.82599998
-0.131 0.0175 0.824
-0.1292 0.0175 0.82200003
-0.1275 0.0174 0.81999999
-0.1259 0.0174 0.81900001
-0.1245 0.0174 0.81900001
-0.1231 0.0174 0.81900001
-0.1214 0.0174 0.81699997
-0.1203 0.0174 0.81900001
-0.119 0.0174 0.81999999
-0.1181 0.0175 0.824
-0.1167 0.0175 0.824
-0.1154 0.0175 0.82499999
-0.114 0.0175 0.82499999
-0.1128 0.0176 0.82700002
-0.1115 0.0176 0.82800001
-0.1102 0.0176 0.829
-0.1088 0.0176 0.829
-0.1075 0.0176 0.82999998
-0.106 0.0176 0.82999998
-0.1045 0.0176 0.829
-0.103 0.0176 0.829
-0.1016 0.0176 0.829
-0.1002 0.0176 0.829
-0.098700002 0.0176 0.829
-0.097400002 0.0176 0.82999998
-0.096100003 0.0177 0.83099997
-0.094700001 0.0177 0.83099997
-0.093199998 0.0177 0.83099997
-0.091700003 0.0176 0.82999998
-0.090099998 0.0176 0.829
-0.088699996 0.0176 0.829
-0.087200001 0.0176 0.829
-0.0858 0.0176 0.829
-0.084399998 0.0176 0.829
-0.082900003 0.0176 0.829
-0.081500001 0.0176 0.829
-0.0801 0.0176 0.829
-0.078599997 0.0176 0.829
-0.077100001 0.0176 0.82800001
-0.0757 0.0176 0.829
-0.074299999 0.0176 0.829
-0.072999999 0.0176 0.82999998
-0.064300001 0.0176 0.82999998
-0.062899999 0.0176 0.82999998
-0.061500002 0.0176 0.82999998
-0.0601 0.0177 0.83099997
-0.058600001 0.0177 0.83099997
-0.0572 0.0177 0.83099997
-0.055799998 0.0177 0.83200002
-0.054400001 0.0177 0.83200002
-0.052999999 0.0177 0.83200002
-0.051600002 0.0177 0.833
-0.050099999 0.0177 0.833
-0.048700001 0.0177 0.83399999
-0.047400001 0.0177 0.83499998
-0.046 0.0178 0.83700001
-0.044599999 0.0178 0.83700001
-0.043000001 0.0177 0.83499998
-0.041499998 0.0177 0.833
-0.037 0.0177 0.83099997
-0.035599999 0.0176 0.82999998
-0.0341 0.0176 0.82999998
-0.032699998 0.0176 0.82999998
-0.031300001 0.0177 0.83099997
-0.029899999 0.0177 0.833
-0.0284 0.0177 0.83200002
-0.027000001 0.0177 0.83200002
-0.025599999 0.0177 0.83200002
-0.0241 0.0177 0.83200002
-0.022700001 0.0177 0.833
-0.021299999 0.0177 0.833
-0.0198 0.0177 0.833
-0.0184 0.0177 0.83399999
-0.016899999 0.0177 0.83399999
-0.0141 0.0178 0.83600003
-0.0126 0.0177 0.83499998
-0.0112 0.0177 0.83499998
-0.0097000003 0.0177 0.83499998
-0.0073000002 0.0189 0.889
-0.0057000001 0.0189 0.88999999
-0.0041999999 0.0189 0.88999999
-0.0027000001 0.0189 0.89099997
-0.0011 0.018999999 0.89300001
0.00039999999 0.018999999 0.89600003
0.0020000001 0.019099999 0.898
0.0035999999 0.019099999 0.89999998
0.0051000002 0.019099999 0.89999998
0.0066999998 0.019099999 0.89999998
0.0082 0.019099999 0.898
0.0097000003 0.018999999 0.89600003
0.0113 0.018999999 0.89499998
0.0128 0.018999999 0.89399999
0.0144 0.018999999 0.89499998
0.015900001 0.018999999 0.89499998
0.0175 0.018999999 0.89499998
0.018999999 0.018999999 0.89499998
0.0206 0.018999999 0.89399999
0.0221 0.018999999 0.89300001
0.023600001 0.018999999 0.89300001
0.0252 0.018999999 0.89399999
0.026799999 0.018999999 0.89399999
0.0284 0.018999999 0.89499998
0.029899999 0.018999999 0.89600003
0.031500001 0.019099999 0.89700001
0.033100002 0.019099999 0.898
0.034699999 0.019099999 0.898
0.037900001 0.019099999 0.89999998
0.039500002 0.019099999 0.90100002
0.041000001 0.019099999 0.90100002
0.042599998 0.019099999 0.90100002
0.044100001 0.019099999 0.89999998
0.045699999 0.019099999 0.89999998
0.0471 0.019099999 0.898
0.048599999 0.018999999 0.89600003
0.050000001 0.018999999 0.89300001
0.051399998 0.0189 0.89099997
0.052900001 0.0189 0.89099997
0.054400001 0.0189 0.88999999
0.056000002 0.0189 0.88999999
0.057500001 0.0189 0.88999999
0.0592 0.0189 0.89200002
0.060899999 0.018999999 0.89499998
0.0625 0.018999999 0.89600003
0.064199999 0.019099999 0.898
0.065899998 0.019099999 0.89899999
0.067500003 0.019099999 0.89999998
0.0691 0.019099999 0.89999998
0.070600003 0.019099999 0.89999998
0.0722 0.019099999 0.89999998
0.073600002 0.019099999 0.898
0.075099997 0.019099999 0.898
0.076700002 0.019099999 0.898
0.078100003 0.018999999 0.89600003
0.079599999 0.018999999 0.89600003
0.081200004 0.018999999 0.89600003
0.082800001 0.019099999 0.89700001
0.0845 0.019099999 0.898
0.086199999 0.019099999 0.89999998
0.087800004 0.019099999 0.89999998
0.089299999 0.019099999 0.89999998
0.090800002 0.019099999 0.89899999
0.092399999 0.019099999 0.89899999
0.093800001 0.019099999 0.898
0.0955 0.019099999 0.89899999
0.097099997 0.019099999 0.89999998
0.098700002 0.019099999 0.89999998
0.1003 0.019099999 0.89999998
0.1018 0.019099999 0.89999998
0.1033 0.019099999 0.89899999
0.1047 0.019099999 0.898
0.1061 0.019099999 0.89700001
0.1075 0.018999999 0.89499998
0.109 0.018999999 0.89499998
0.1106 0.018999999 0.89499998
0.1121 0.018999999 0.89499998
0.1138 0.018999999 0.89600003
0.1156 0.019099999 0.898
0.1175 0.019099999 0.90100002
0.1192 0.019200001 0.90200001
0.1209 0.019200001 0.903
0.1243 0.019200001 0.90499997
0.1258 0.019200001 0.90399998
0.12819999 0.019099999 0.89899999
0.1293 0.018999999 0.89600003
0.13060001 0.018999999 0.89399999
0.132 0.018999999 0.89300001
0.1332 0.0189 0.89099997
0.13510001 0.018999999 0.89300001
0.13689999 0.018999999 0.89499998
0.1388 0.019099999 0.89700001
0.14049999 0.019099999 0.898
0.14210001 0.019099999 0.898
0.14380001 0.019099999 0.89899999
0.1453 0.019099999 0.89899999
0.14669999 0.019099999 0.898
0.14830001 0.019099999 0.898
0.15000001 0.019099999 0.89899999
0.1517 0.019099999 0.89999998
0.1533 0.019099999 0.89999998
0.1547 0.019099999 0.89899999
0.1561 0.019099999 0.898
0.1576 0.019099999 0.898
0.15899999 0.019099999 0.89700001
0.1602 0.018999999 0.89499998
0.16159999 0.018999999 0.89399999
0.1629 0.018999999 0.89300001
0.1645 0.018999999 0.89300001
0.16599999 0.018999999 0.89300001
0.168 0.018999999 0.89499998
0.1699 0.019099999 0.89700001
0.1716 0.019099999 0.898
0.1734 0.019099999 0.89899999
0.1751 0.019099999 0.89999998
0.1769 0.019099999 0.90100002
0.1855 0.0189 0.88999999
0.1873 0.0189 0.89099997
-0.41420001 0.02 0.87
-0.39919999 0.020199999 0.88
-0.39719999 0.020199999 0.87900001
-0.39480001 0.020199999 0.87699997
-0.39230001 0.020099999 0.875
-0.39039999 0.020099999 0.87400001
-0.38839999 0.020099999 0.87300003
-0.3439 0.020199999 0.87900001
-0.3423 0.020199999 0.87900001
-0.34079999 0.020199999 0.87900001
-0.3405 0.020300001 0.88200003
-0.33930001 0.020300001 0.88300002
-0.3382 0.020300001 0.884
-0.33660001 0.020300001 0.884
-0.33320001 0.020300001 0.88300002
-0.33199999 0.020300001 0.884
-0.33050001 0.020300001 0.884
-0.329 0.020300001 0.884
-0.3274 0.020300001 0.884
-0.32589999 0.020300001 0.884
-0.32440001 0.020300001 0.884
-0.32319999 0.020300001 0.88499999
-0.3224 0.020400001 0.88700002
-0.32120001 0.020400001 0.88800001
-0.2379 0.020400001 0.88700002
-0.236 0.020400001 0.88599998
-0.2342 0.020300001 0.88499999
-0.2322 0.020300001 0.88300002
-0.23010001 0.020199999 0.88099998
-0.2281 0.020199999 0.87900001
-0.2263 0.020199999 0.87800002
-0.22499999 0.020199999 0.87900001
-0.2235 0.020199999 0.87900001
-0.222 0.020199999 0.87900001
-0.221 0.020199999 0.88099998
-0.2199 0.020300001 0.88300002
-0.21870001 0.020300001 0.884
-0.2174 0.020300001 0.88499999
-0.2158 0.020300001 0.88499999
-0.21430001 0.020300001 0.88499999
-0.2128 0.020300001 0.88499999
-0.2112 0.020300001 0.88499999
-0.2097 0.020300001 0.88499999
-0.20819999 0.020300001 0.88499999
-0.2066 0.020300001 0.88499999
-0.2049 0.020300001 0.884
-0.2031 0.020300001 0.88300002
-0.2014 0.020300001 0.88200003
-0.1786 0.019099999 0.833
-0.1772 0.019099999 0.833
-0.17550001 0.019099999 0.83200002
-0.17389999 0.019099999 0.83099997
-0.1724 0.019099999 0.83099997
-0.1708 0.019099999 0.82999998
-0.1691 0.018999999 0.829
-0.1673 0.018999999 0.82700002
-0.1657 0.018999999 0.82599998
-0.1638 0.0189 0.824
-0.1622 0.0189 0.82300001
-0.1608 0.0189 0.82300001
-0.1592 0.0189 0.82200003
-0.1577 0.0189 0.82200003
-0.15629999 0.0189 0.82200003
-0.1551 0.0189 0.82300001
-0.1538 0.0189 0.824
-0.15260001 0.018999999 0.82499999
-0.1513 0.018999999 0.82599998
-0.1497 0.018999999 0.82499999
-0.1481 0.0189 0.824
-0.1471 0.018999999 0.82599998
-0.14579999 0.018999999 0.82700002
-0.14470001 0.018999999 0.829
-0.1435 0.019099999 0.82999998
-0.142 0.019099999 0.82999998
-0.1406 0.019099999 0.82999998
-0.1391 0.019099999 0.82999998
-0.1375 0.018999999 0.829
-0.13590001 0.018999999 0.82800001
-0.13420001 0.018999999 0.82599998
-0.13259999 0.018999999 0.82499999
-0.13079999 0.0189 0.82300001
-0.12909999 0.0189 0.82099998
-0.1274 0.0188 0.81900001
-0.1258 0.0188 0.81800002
-0.1242 0.0188 0.81699997
-0.1212 0.0187 0.81599998
-0.1198 0.0187 0.81599998
-0.1185 0.0188 0.81699997
-0.1176 0.0188 0.81999999
-0.1164 0.0189 0.82200003
-0.1154 0.018999999 0.82499999
-0.1143 0.018999999 0.82700002
-0.1131 0.018999999 0.829
-0.1117 0.018999999 0.829
-0.1104 0.019099999 0.82999998
-0.1089 0.019099999 0.82999998
-0.1075 0.019099999 0.82999998
-0.106 0.019099999 0.82999998
-0.1046 0.019099999 0.82999998
-0.103 0.018999999 0.829
-0.1016 0.018999999 0.829
-0.1002 0.018999999 0.829
-0.098899998 0.019099999 0.82999998
-0.097400002 0.019099999 0.82999998
-0.096100003 0.019099999 0.83099997
-0.094800003 0.019099999 0.83200002
-0.093199998 0.019099999 0.83099997
-0.091799997 0.019099999 0.83099997
-0.0902 0.019099999 0.82999998
-0.088799998 0.019099999 0.82999998
-0.087300003 0.019099999 0.82999998
-0.0858 0.018999999 0.829
-0.084399998 0.018999999 0.829
-0.082900003 0.018999999 0.829
-0.081500001 0.018999999 0.829
-0.0801 0.018999999 0.829
-0.078599997 0.018999999 0.829
-0.077200003 0.018999999 0.829
-0.075800002 0.019099999 0.82999998
-0.0744 0.019099999 0.82999998
-0.064300001 0.019099999 0.82999998
-0.062799998 0.018999999 0.829
-0.0614 0.018999999 0.829
-0.059999999 0.019099999 0.82999998
-0.058600001 0.019099999 0.82999998
-0.057100002 0.019099999 0.82999998
-0.055799998 0.019099999 0.83099997
-0.054299999 0.019099999 0.83099997
-0.052900001 0.019099999 0.83099997
-0.0515 0.019099999 0.83200002
-0.050099999 0.019099999 0.833
-0.048700001 0.019200001 0.83399999
-0.047400001 0.019200001 0.83499998
-0.046 0.019200001 0.83600003
-0.044500001 0.019200001 0.83600003
-0.043000001 0.019200001 0.83499998
-0.041499998 0.019099999 0.833
-0.035599999 0.019099999 0.82999998
-0.0341 0.019099999 0.82999998
-0.032699998 0.019099999 0.82999998
-0.0241 0.019099999 0.83200002
-0.022700001 0.019099999 0.833
-0.0184 0.019200001 0.83399999
-0.017000001 0.019200001 0.83499998
-0.0155 0.019200001 0.83499998
-0.0141 0.019200001 0.83499998
-0.0126 0.019200001 0.83399999
-0.0112 0.019200001 0.83399999
-0.0057000001 0.020400001 0.88700002
-0.0041999999 0.020400001 0.88800001
-0.0027000001 0.020400001 0.88999999
-0.0011 0.020500001 0.89099997
0.00039999999 0.0206 0.89499998
0.0020000001 0.0206 0.89700001
0.0035999999 0.0207 0.89999998
0.0051000002 0.0207 0.89999998
0.0066999998 0.0207 0.89899999
0.0082 0.0206 0.898
0.0097000003 0.0206 0.89600003
0.0113 0.0206 0.89499998
0.0128 0.020500001 0.89399999
0.0144 0.020500001 0.89399999
0.015900001 0.0206 0.89499998
0.0175 0.0206 0.89499998
0.018999999 0.0206 0.89499998
0.0206 0.020500001 0.89399999
0.0221 0.020500001 0.89399999
0.023700001 0.0206 0.89499998
0.0253 0.0206 0.89600003
0.026799999 0.0206 0.89600003
0.0284 0.0206 0.89700001
0.029999999 0.0206 0.898
0.031599998 0.0207 0.89899999
0.033199999 0.0207 0.89999998
0.034699999 0.0207 0.89999998
0.0363 0.0207 0.89999998
0.039500002 0.0207 0.90100002
0.041099999 0.0207 0.90200001
0.042599998 0.0207 0.90100002
0.044199999 0.0207 0.90100002
0.045600001 0.0207 0.89899999
0.0471 0.0206 0.898
0.048599999 0.0206 0.89600003
0.050000001 0.020500001 0.89300001
0.051399998 0.020500001 0.89200002
0.052900001 0.020500001 0.89099997
0.054400001 0.020400001 0.88999999
0.056000002 0.020400001 0.88999999
0.057599999 0.020500001 0.89099997
0.0592 0.020500001 0.89300001
0.060899999 0.0206 0.89499998
0.0625 0.0206 0.89600003
0.064199999 0.0206 0.898
0.065899998 0.0207 0.89899999
0.067400001 0.0207 0.89899999
0.068999998 0.0207 0.89899999
0.070500001 0.0206 0.898
0.0722 0.0207 0.89999998
0.073700003 0.0207 0.89999998
0.075199999 0.0207 0.89899999
0.076700002 0.0206 0.898
0.078199998 0.0206 0.898
0.079899997 0.0207 0.89899999
0.081500001 0.0207 0.89999998
0.082999997 0.0207 0.89899999
0.084700003 0.0207 0.89999998
0.086300001 0.0207 0.90100002
0.087899998 0.0207 0.90100002
0.089299999 0.0207 0.89999998
0.090899996 0.0207 0.89999998
0.092500001 0.0207 0.89999998
0.093900003 0.0207 0.89899999
0.0955 0.0207 0.89899999
0.097099997 0.0207 0.89999998
0.098700002 0.0207 0.89999998
0.1003 0.0207 0.89999998
0.1018 0.0207 0.89999998
0.1033 0.0207 0.89899999
0.1047 0.0206 0.898
0.1061 0.0206 0.89700001
0.1076 0.0206 0.89600003
0.109 0.0206 0.89499998
0.1106 0.0206 0.89499998
0.1121 0.0206 0.89499998
0.1138 0.0206 0.89600003
0.1156 0.0206 0.898
0.1174 0.0207 0.89999998
0.1191 0.0207 0.90100002
0.12710001 0.0207 0.90200001
0.12819999 0.0207 0.89899999
0.1292 0.0206 0.89499998
0.1303 0.020500001 0.89200002
0.13169999 0.020500001 0.89099997
0.1332 0.020500001 0.89099997
0.1348 0.020500001 0.89099997
