ply
format ascii 1.0
comment PCL generated
element vertex 1469
property float x
property float y
property float z
element camera 0
property float view_px
property float view_py
property float view_pz
property float x_axisx
property float x_axisy
property float x_axisz
property float y_axisx
property float y_axisy
property float y_axisz
property float z_axisx
property float z_axisy
property float z_axisz
property float focal
property float scalex
property float scaley
property float centerx
property float centery
property int viewportx
property int viewporty
property float k1
property float k2
end_header
0.0097000003 -0.0832 0.89300001
0.0113 -0.083099999 0.89200002
0.0128 -0.082999997 0.89099997
0.0143 -0.082999997 0.89099997
0.015900001 -0.082900003 0.88999999
0.0174 -0.082900003 0.88999999
0.0189 -0.082900003 0.88999999
0.020500001 -0.082900003 0.88999999
0.022 -0.082800001 0.889
0.023499999 -0.082699999 0.88800001
0.025 -0.082599998 0.88700002
0.0266 -0.082699999 0.88800001
0.028100001 -0.082699999 0.88800001
0.0297 -0.082699999 0.88800001
0.031199999 -0.082699999 0.88800001
0.0328 -0.082800001 0.889
0.034400001 -0.082999997 0.89099997
0.0359 -0.082999997 0.89099997
0.037500001 -0.082999997 0.89099997
0.039000001 -0.082999997 0.89099997
0.040600002 -0.082999997 0.89099997
0.042100001 -0.082999997 0.89099997
0.043699998 -0.083099999 0.89200002
0.045200001 -0.082900003 0.88999999
0.046700001 -0.082900003 0.88999999
0.0528 -0.082699999 0.88800001
0.057300001 -0.082599998 0.88700002
0.058800001 -0.082599998 0.88700002
0.0603 -0.082500003 0.88599998
0.061799999 -0.082400002 0.88499999
0.063199997 -0.0823 0.884
0.093199998 -0.083099999 0.89200002
0.094700001 -0.083099999 0.89200002
0.096199997 -0.082999997 0.89099997
0.097800002 -0.083099999 0.89200002
0.099399999 -0.083099999 0.89200002
0.1013 -0.083400004 0.89499998
0.1028 -0.083400004 0.89499998
0.1044 -0.083400004 0.89499998
0.106 -0.083499998 0.89600003
0.1076 -0.083499998 0.89600003
0.1094 -0.0836 0.898
0.1112 -0.083800003 0.89999998
0.1127 -0.083800003 0.89999998
0.1143 -0.083800003 0.89999998
0.1157 -0.083700001 0.89899999
0.1172 -0.0836 0.898
0.1186 -0.083499998 0.89700001
0.1331 -0.082900003 0.88999999
0.1348 -0.082999997 0.89099997
0.1366 -0.0832 0.89300001
0.13850001 -0.083400004 0.89499998
0.14 -0.083400004 0.89499998
0.1417 -0.083499998 0.89600003
0.1436 -0.0836 0.898
0.1452 -0.0836 0.898
0.14659999 -0.083499998 0.89700001
0.1476 -0.083300002 0.89399999
0.1488 -0.083099999 0.89200002
0.1506 -0.0832 0.89300001
0.1521 -0.0832 0.89300001
0.15360001 -0.0832 0.89300001
0.15539999 -0.083300002 0.89399999
0.1569 -0.083300002 0.89399999
0.1583 -0.0832 0.89300001
0.1602 -0.083400004 0.89499998
0.16230001 -0.0836 0.898
0.16419999 -0.083800003 0.89999998
0.16580001 -0.083800003 0.89999998
0.1662 -0.083300002 0.89399999
0.167 -0.082900003 0.88999999
0.16859999 -0.082900003 0.88999999
0.1701 -0.082900003 0.88999999
0.1716 -0.082900003 0.88999999
0.1732 -0.082900003 0.88999999
-0.38679999 -0.0792 0.866
-0.36300001 -0.080499999 0.88099998
-0.3565 -0.080399998 0.88
-0.3538 -0.080499999 0.88099998
-0.34470001 -0.080899999 0.88499999
-0.34240001 -0.081100002 0.88700002
-0.34009999 -0.080899999 0.88499999
-0.3382 -0.080799997 0.884
-0.33660001 -0.080799997 0.884
-0.3351 -0.080799997 0.884
-0.33239999 -0.080499999 0.88099998
-0.329 -0.0801 0.87599999
-0.32749999 -0.0801 0.87599999
-0.32710001 -0.080300003 0.87900001
-0.32249999 -0.080700003 0.88300002
-0.3213 -0.080799997 0.884
-0.31909999 -0.080600001 0.88200003
-0.31490001 -0.080300003 0.87900001
-0.3123 -0.0801 0.87599999
-0.30970001 -0.079800002 0.87300003
-0.30790001 -0.079700001 0.87199998
-0.30669999 -0.079800002 0.87300003
-0.30590001 -0.079999998 0.875
-0.30289999 -0.080799997 0.884
-0.30140001 -0.080799997 0.884
-0.2965 -0.080700003 0.88300002
-0.2949 -0.080700003 0.88300002
-0.29339999 -0.080700003 0.88300002
-0.28299999 -0.080799997 0.884
-0.28080001 -0.080600001 0.88200003
-0.2793 -0.080600001 0.88200003
-0.27779999 -0.080600001 0.88200003
-0.27590001 -0.080499999 0.88099998
-0.2744 -0.080499999 0.88099998
-0.27289999 -0.080499999 0.88099998
-0.2714 -0.080499999 0.88099998
-0.2692 -0.080300003 0.87900001
-0.2674 -0.080300003 0.87800002
-0.26440001 -0.080300003 0.87800002
-0.2631 -0.080300003 0.87900001
-0.26159999 -0.080300003 0.87900001
-0.26010001 -0.080300003 0.87900001
-0.2586 -0.080300003 0.87900001
-0.25670001 -0.080300003 0.87800002
-0.25490001 -0.080200002 0.87699997
-0.25310001 -0.0801 0.87599999
-0.25130001 -0.079999998 0.875
-0.248 -0.079899997 0.87400001
-0.24349999 -0.079899997 0.87400001
-0.22499999 -0.080300003 0.87900001
-0.22400001 -0.080499999 0.88099998
-0.2217 -0.080799997 0.884
-0.2199 -0.080700003 0.88300002
-0.2182 -0.080600001 0.88200003
-0.2166 -0.080600001 0.88200003
-0.2149 -0.080499999 0.88099998
-0.2133 -0.080499999 0.88099998
-0.21179999 -0.080499999 0.88099998
-0.2103 -0.080499999 0.88099998
-0.2079 -0.080799997 0.884
-0.20640001 -0.080799997 0.884
-0.2051 -0.080899999 0.88499999
-0.20379999 -0.081 0.88599998
-0.2025 -0.081100002 0.88700002
-0.1882 -0.080899999 0.88499999
-0.1867 -0.080899999 0.88499999
-0.18520001 -0.080899999 0.88499999
-0.1838 -0.081 0.88599998
-0.1823 -0.081 0.88599998
-0.1806 -0.080899999 0.88499999
-0.17900001 -0.080899999 0.88499999
-0.17730001 -0.080799997 0.884
-0.1758 -0.080799997 0.884
-0.1742 -0.080799997 0.884
-0.1725 -0.080700003 0.88300002
-0.1708 -0.080600001 0.88200003
-0.16940001 -0.080700003 0.88300002
-0.1681 -0.080799997 0.884
-0.1666 -0.080799997 0.884
-0.16500001 -0.080799997 0.884
-0.1635 -0.080799997 0.884
-0.162 -0.080799997 0.884
-0.1604 -0.080799997 0.884
-0.1587 -0.080700003 0.88300002
-0.15549999 -0.080600001 0.88200003
-0.153 -0.080899999 0.88499999
-0.1514 -0.080899999 0.88499999
-0.1499 -0.080899999 0.88499999
-0.1468 -0.080899999 0.88499999
-0.1453 -0.080899999 0.88499999
-0.1436 -0.080799997 0.884
-0.1402 -0.080600001 0.88200003
-0.13850001 -0.080499999 0.88099998
-0.1353 -0.080399998 0.88
-0.1336 -0.080300003 0.87900001
-0.1321 -0.080300003 0.87900001
-0.13060001 -0.080300003 0.87900001
-0.1292 -0.080399998 0.88
-0.1278 -0.080499999 0.88099998
-0.12630001 -0.080499999 0.88099998
-0.1248 -0.080499999 0.88099998
-0.1233 -0.080499999 0.88099998
-0.1217 -0.080499999 0.88099998
-0.1203 -0.080600001 0.88200003
-0.1188 -0.080600001 0.88200003
-0.1171 -0.080499999 0.88099998
-0.1156 -0.080499999 0.88099998
-0.1142 -0.080600001 0.88200003
-0.1129 -0.080799997 0.884
-0.1115 -0.080899999 0.88499999
-0.1099 -0.080799997 0.884
-0.1084 -0.080799997 0.884
-0.1068 -0.080799997 0.884
-0.1052 -0.080700003 0.88300002
-0.1034 -0.080499999 0.88099998
-0.1019 -0.080499999 0.88099998
-0.1004 -0.080499999 0.88099998
-0.098800004 -0.080499999 0.88099998
-0.0973 -0.080499999 0.88099998
-0.095799997 -0.080499999 0.88099998
-0.094400004 -0.080600001 0.88200003
-0.092900001 -0.080700003 0.88300002
-0.091399997 -0.080700003 0.88300002
-0.090000004 -0.080799997 0.884
-0.086900003 -0.080799997 0.884
-0.0854 -0.080799997 0.884
-0.083700001 -0.080700003 0.88300002
-0.082099997 -0.080600001 0.88200003
-0.080499999 -0.080499999 0.88099998
-0.078900002 -0.080399998 0.88
-0.077399999 -0.080499999 0.88099998
-0.075900003 -0.080499999 0.88099998
-0.074500002 -0.080600001 0.88200003
-0.073100001 -0.080799997 0.884
-0.071699999 -0.080899999 0.88499999
-0.070200004 -0.081 0.88599998
-0.068800002 -0.081100002 0.88700002
-0.067199998 -0.081100002 0.88700002
-0.065800004 -0.081200004 0.88800001
-0.064199999 -0.081200004 0.88800001
-0.062700003 -0.081200004 0.88800001
-0.061099999 -0.081200004 0.88800001
-0.059599999 -0.081200004 0.88800001
-0.0581 -0.081200004 0.88800001
-0.056499999 -0.081100002 0.88700002
-0.054900002 -0.081 0.88599998
-0.050299998 -0.081100002 0.88700002
-0.048799999 -0.081100002 0.88700002
-0.047200002 -0.081100002 0.88700002
-0.045699999 -0.081100002 0.88700002
-0.044199999 -0.081200004 0.88800001
-0.042599998 -0.081100002 0.88700002
-0.041099999 -0.081100002 0.88700002
-0.039500002 -0.081 0.88599998
-0.037999999 -0.081100002 0.88700002
-0.036499999 -0.081100002 0.88700002
-0.034899998 -0.081100002 0.88700002
-0.033399999 -0.081100002 0.88700002
-0.0319 -0.081200004 0.88800001
-0.030400001 -0.081200004 0.88800001
-0.0288 -0.081299998 0.889
-0.0273 -0.081200004 0.88800001
-0.0242 -0.081200004 0.88800001
-0.022700001 -0.081299998 0.889
-0.021199999 -0.0814 0.88999999
-0.0196 -0.0814 0.89099997
-0.018100001 -0.0814 0.89099997
-0.0166 -0.081500001 0.89200002
-0.015 -0.081600003 0.89300001
-0.0135 -0.081600003 0.89300001
-0.012 -0.081600003 0.89300001
-0.0104 -0.081500001 0.89200002
-0.0088 -0.081500001 0.89200002
-0.0073000002 -0.0814 0.89099997
-0.0057000001 -0.0814 0.89099997
-0.0041999999 -0.0814 0.89099997
-0.0027000001 -0.081500001 0.89200002
-0.0011 -0.081600003 0.89300001
0.00039999999 -0.081699997 0.89399999
0.0020000001 -0.081799999 0.89499998
0.0035000001 -0.082000002 0.89700001
0.0051000002 -0.082000002 0.89700001
0.0066 -0.081799999 0.89499998
0.0082 -0.081600003 0.89300001
0.0097000003 -0.081500001 0.89200002
0.0112 -0.0814 0.89099997
0.0128 -0.0814 0.89099997
0.0143 -0.0814 0.88999999
0.015799999 -0.081299998 0.889
0.0174 -0.0814 0.88999999
0.0189 -0.0814 0.88999999
0.020500001 -0.081299998 0.889
0.022 -0.081200004 0.88800001
0.023499999 -0.081200004 0.88800001
0.025 -0.081100002 0.88700002
0.0266 -0.081100002 0.88700002
0.028100001 -0.081100002 0.88700002
0.0296 -0.081100002 0.88700002
0.031199999 -0.081100002 0.88700002
0.032699998 -0.081200004 0.88800001
0.034400001 -0.0814 0.88999999
0.0359 -0.0814 0.89099997
0.037500001 -0.0814 0.89099997
0.039099999 -0.081500001 0.89200002
0.040600002 -0.0814 0.89099997
0.042199999 -0.081500001 0.89200002
0.043699998 -0.0814 0.89099997
0.045200001 -0.0814 0.88999999
0.046700001 -0.0814 0.88999999
0.048099998 -0.081200004 0.88800001
0.049699999 -0.081200004 0.88800001
0.0513 -0.081299998 0.889
0.0528 -0.081200004 0.88800001
0.054200001 -0.081100002 0.88700002
0.055799998 -0.081100002 0.88700002
0.057300001 -0.081100002 0.88700002
0.058800001 -0.081100002 0.88700002
0.060199998 -0.080899999 0.88499999
0.061700001 -0.080799997 0.884
0.063199997 -0.080799997 0.884
0.0647 -0.080700003 0.88300002
0.066299997 -0.080799997 0.884
0.077299997 -0.081100002 0.88700002
0.086800002 -0.0814 0.88999999
0.088399999 -0.0814 0.89099997
0.089900002 -0.0814 0.88999999
0.091399997 -0.0814 0.88999999
0.093000002 -0.0814 0.88999999
0.094499998 -0.0814 0.88999999
0.096100003 -0.0814 0.88999999
0.097599998 -0.0814 0.88999999
0.099100001 -0.0814 0.88999999
0.1009 -0.081500001 0.89200002
0.1023 -0.0814 0.89099997
0.1041 -0.081600003 0.89300001
0.1058 -0.081699997 0.89399999
0.1075 -0.081799999 0.89499998
0.1091 -0.081900001 0.89600003
0.1109 -0.082099997 0.898
0.1126 -0.082199998 0.89899999
0.1143 -0.0823 0.89999998
0.1157 -0.082199998 0.89899999
0.1172 -0.082099997 0.898
0.1187 -0.082099997 0.898
0.1203 -0.082099997 0.898
0.1217 -0.082000002 0.89700001
0.123 -0.081799999 0.89499998
0.1245 -0.081799999 0.89499998
0.1258 -0.081600003 0.89300001
0.12720001 -0.081500001 0.89200002
0.1287 -0.081500001 0.89200002
0.1301 -0.0814 0.89099997
0.13169999 -0.0814 0.89099997
0.1332 -0.0814 0.89099997
0.1349 -0.081500001 0.89200002
0.1366 -0.081600003 0.89300001
0.1383 -0.081699997 0.89399999
0.1399 -0.081699997 0.89399999
0.14139999 -0.081699997 0.89399999
0.1433 -0.081900001 0.89600003
0.14470001 -0.081799999 0.89499998
0.1462 -0.081799999 0.89499998
0.1476 -0.081699997 0.89399999
0.149 -0.081600003 0.89300001
0.1507 -0.081699997 0.89399999
0.1524 -0.081799999 0.89499998
0.154 -0.081799999 0.89499998
0.15549999 -0.081799999 0.89499998
0.15710001 -0.081799999 0.89499998
0.1585 -0.081699997 0.89399999
0.16 -0.081699997 0.89399999
0.1617 -0.081799999 0.89499998
0.16329999 -0.081799999 0.89499998
0.16429999 -0.081500001 0.89200002
0.1655 -0.0814 0.88999999
0.1701 -0.0814 0.88999999
0.1715 -0.081299998 0.889
0.17299999 -0.081299998 0.889
0.17470001 -0.0814 0.88999999
0.1763 -0.0814 0.88999999
-0.3847 -0.077799998 0.86799997
-0.3836 -0.0779 0.86900002
-0.3538 -0.079000004 0.88099998
-0.3405 -0.079499997 0.88599998
-0.33849999 -0.079400003 0.88499999
-0.33660001 -0.079300001 0.884
-0.3351 -0.079300001 0.884
-0.32789999 -0.078599997 0.87699997
-0.3267 -0.078699999 0.87800002
-0.3256 -0.0788 0.87900001
-0.32210001 -0.079099998 0.88200003
-0.3206 -0.079099998 0.88200003
-0.31869999 -0.079000004 0.88099998
-0.3168 -0.078900002 0.88
-0.31459999 -0.078699999 0.87800002
-0.3123 -0.078599997 0.87599999
-0.31009999 -0.078400001 0.87400001
-0.3082 -0.078299999 0.87300003
-0.3071 -0.078400001 0.87400001
-0.30630001 -0.078599997 0.87599999
-0.30140001 -0.079300001 0.884
-0.29429999 -0.079000004 0.88099998
-0.29030001 -0.0792 0.88300002
-0.28080001 -0.079099998 0.88200003
-0.27900001 -0.079000004 0.88099998
-0.2775 -0.079000004 0.88099998
-0.27590001 -0.079000004 0.88099998
-0.2744 -0.079000004 0.88099998
-0.27289999 -0.079000004 0.88099998
-0.2714 -0.079000004 0.88099998
-0.2692 -0.0788 0.87900001
-0.26769999 -0.0788 0.87900001
-0.26589999 -0.078699999 0.87800002
-0.264 -0.078599997 0.87699997
-0.26280001 -0.078699999 0.87800002
-0.2613 -0.078699999 0.87800002
-0.25979999 -0.078699999 0.87800002
-0.25830001 -0.078699999 0.87800002
-0.25670001 -0.078699999 0.87800002
-0.2552 -0.078699999 0.87800002
-0.25369999 -0.078699999 0.87800002
-0.25189999 -0.078599997 0.87699997
-0.25040001 -0.078599997 0.87699997
-0.24860001 -0.078599997 0.87599999
-0.24680001 -0.078500003 0.875
-0.22499999 -0.0788 0.87900001
-0.2243 -0.079099998 0.88200003
-0.2233 -0.079300001 0.884
-0.222 -0.079400003 0.88499999
-0.2202 -0.079300001 0.884
-0.2184 -0.0792 0.88300002
-0.2166 -0.079099998 0.88200003
-0.2149 -0.079000004 0.88099998
-0.2133 -0.079000004 0.88099998
-0.21179999 -0.079000004 0.88099998
-0.2105 -0.079099998 0.88200003
-0.2079 -0.079300001 0.884
-0.20640001 -0.079300001 0.884
-0.2051 -0.079400003 0.88499999
-0.20379999 -0.079499997 0.88599998
-0.1955 -0.079800002 0.88999999
-0.1935 -0.079599999 0.88800001
-0.1919 -0.079599999 0.88800001
-0.18539999 -0.079499997 0.88599998
-0.184 -0.079499997 0.88700002
-0.1825 -0.079499997 0.88700002
-0.1806 -0.079400003 0.88499999
-0.17900001 -0.079400003 0.88499999
-0.17730001 -0.079300001 0.884
-0.1758 -0.079300001 0.884
-0.1742 -0.079300001 0.884
-0.1723 -0.079099998 0.88200003
-0.1708 -0.079099998 0.88200003
-0.16940001 -0.0792 0.88300002
-0.1681 -0.079300001 0.884
-0.1666 -0.079300001 0.884
-0.16500001 -0.079300001 0.884
-0.1635 -0.079300001 0.884
-0.162 -0.079300001 0.884
-0.1603 -0.0792 0.88300002
-0.1586 -0.079099998 0.88200003
-0.15719999 -0.0792 0.88300002
-0.15549999 -0.079099998 0.88200003
-0.1541 -0.0792 0.88300002
-0.15279999 -0.079300001 0.884
-0.1499 -0.079400003 0.88499999
-0.14839999 -0.079400003 0.88499999
-0.1468 -0.079400003 0.88499999
-0.1451 -0.079300001 0.884
-0.1436 -0.079300001 0.884
-0.1417 -0.079099998 0.88200003
-0.14 -0.079000004 0.88099998
-0.1384 -0.078900002 0.88
-0.13519999 -0.0788 0.87900001
-0.1336 -0.0788 0.87900001
-0.132 -0.078699999 0.87800002
-0.13060001 -0.0788 0.87900001
-0.12909999 -0.0788 0.87900001
-0.1275 -0.0788 0.87900001
-0.12620001 -0.078900002 0.88
-0.1246 -0.078900002 0.88
-0.123 -0.0788 0.87900001
-0.1215 -0.0788 0.87900001
-0.1199 -0.0788 0.87900001
-0.1184 -0.0788 0.87900001
-0.1169 -0.0788 0.87900001
-0.1154 -0.0788 0.87900001
-0.114 -0.078900002 0.88
-0.1127 -0.079099998 0.88200003
-0.1114 -0.079300001 0.884
-0.1099 -0.079300001 0.884
-0.1084 -0.079300001 0.884
-0.1068 -0.079300001 0.884
-0.1052 -0.0792 0.88300002
-0.1035 -0.079099998 0.88200003
-0.102 -0.079099998 0.88200003
-0.1004 -0.079000004 0.88099998
-0.098800004 -0.079000004 0.88099998
-0.097199999 -0.078900002 0.88
-0.095700003 -0.078900002 0.88
-0.0942 -0.079000004 0.88099998
-0.092699997 -0.079000004 0.88099998
-0.091200002 -0.079000004 0.88099998
-0.0898 -0.079099998 0.88200003
-0.088200003 -0.079099998 0.88200003
-0.0867 -0.079099998 0.88200003
-0.085199997 -0.079099998 0.88200003
-0.0836 -0.079099998 0.88200003
-0.082099997 -0.079099998 0.88200003
-0.080499999 -0.079000004 0.88099998
-0.078699999 -0.078699999 0.87800002
-0.077299997 -0.0788 0.87900001
-0.075800002 -0.078900002 0.88
-0.074500002 -0.079099998 0.88200003
-0.073200002 -0.079400003 0.88499999
-0.071699999 -0.079400003 0.88499999
-0.070299998 -0.079499997 0.88700002
-0.068800002 -0.079499997 0.88700002
-0.067199998 -0.079499997 0.88700002
-0.065800004 -0.079599999 0.88800001
-0.064199999 -0.079599999 0.88800001
-0.062700003 -0.079599999 0.88800001
-0.061099999 -0.079599999 0.88800001
-0.059599999 -0.079599999 0.88800001
-0.0581 -0.079599999 0.88800001
-0.056499999 -0.079599999 0.88800001
-0.053399999 -0.079499997 0.88700002
-0.051800001 -0.079499997 0.88700002
-0.050299998 -0.079499997 0.88700002
-0.048799999 -0.079499997 0.88700002
-0.047200002 -0.079499997 0.88700002
-0.045699999 -0.079499997 0.88700002
-0.044199999 -0.079499997 0.88700002
-0.041099999 -0.079499997 0.88700002
-0.039500002 -0.079499997 0.88599998
-0.037999999 -0.079499997 0.88700002
-0.036499999 -0.079499997 0.88700002
-0.034899998 -0.079499997 0.88700002
-0.033399999 -0.079499997 0.88599998
-0.0319 -0.079499997 0.88700002
-0.0288 -0.079599999 0.88800001
-0.0273 -0.079599999 0.88800001
-0.025699999 -0.079599999 0.88800001
-0.0242 -0.079599999 0.88800001
-0.021199999 -0.079800002 0.88999999
-0.018100001 -0.079899997 0.89099997
-0.0166 -0.079899997 0.89099997
-0.015 -0.0801 0.89300001
-0.0135 -0.0801 0.89300001
-0.012 -0.0801 0.89300001
-0.0104 -0.079999998 0.89200002
-0.0088 -0.079899997 0.89099997
-0.0073000002 -0.079899997 0.89099997
-0.0057000001 -0.079899997 0.89099997
-0.0041999999 -0.079899997 0.89099997
-0.0027000001 -0.079999998 0.89200002
-0.0011 -0.0801 0.89300001
0.00039999999 -0.0801 0.89300001
0.0020000001 -0.080200002 0.89399999
0.0035000001 -0.080300003 0.89600003
0.0051000002 -0.080300003 0.89600003
0.0066 -0.0801 0.89300001
0.0082 -0.079999998 0.89200002
0.0097000003 -0.079899997 0.89099997
0.0112 -0.079800002 0.88999999
0.0128 -0.079800002 0.88999999
0.0143 -0.079700001 0.889
0.015799999 -0.079700001 0.889
0.0174 -0.079700001 0.889
0.0189 -0.079800002 0.88999999
0.020500001 -0.079700001 0.889
0.022 -0.079599999 0.88800001
0.023499999 -0.079599999 0.88800001
0.0251 -0.079599999 0.88800001
0.0266 -0.079499997 0.88700002
0.028100001 -0.079499997 0.88700002
0.0296 -0.079499997 0.88599998
0.031199999 -0.079499997 0.88700002
0.032699998 -0.079599999 0.88800001
0.034400001 -0.079800002 0.88999999
0.0359 -0.079899997 0.89099997
0.037500001 -0.079899997 0.89099997
0.039000001 -0.079899997 0.89099997
0.040600002 -0.079899997 0.89099997
0.042100001 -0.079899997 0.89099997
0.043699998 -0.079899997 0.89099997
0.045200001 -0.079800002 0.88999999
0.046599999 -0.079700001 0.889
0.048099998 -0.079499997 0.88700002
0.049699999 -0.079599999 0.88800001
0.0528 -0.079599999 0.88800001
0.054299999 -0.079599999 0.88800001
0.055799998 -0.079499997 0.88700002
0.057300001 -0.079499997 0.88700002
0.058800001 -0.079499997 0.88700002
0.0603 -0.079499997 0.88599998
0.061700001 -0.079300001 0.884
0.063199997 -0.079300001 0.884
0.066200003 -0.0792 0.88300002
0.0678 -0.0792 0.88300002
0.069399998 -0.079300001 0.884
0.071000002 -0.079400003 0.88499999
0.072499998 -0.079400003 0.88499999
0.074000001 -0.079400003 0.88499999
0.075599998 -0.079400003 0.88499999
0.077100001 -0.079400003 0.88499999
0.078599997 -0.079400003 0.88499999
0.080200002 -0.079400003 0.88499999
0.081799999 -0.079499997 0.88599998
0.083400004 -0.079499997 0.88700002
0.085100003 -0.079599999 0.88800001
0.0867 -0.079700001 0.889
0.088299997 -0.079800002 0.88999999
0.089900002 -0.079800002 0.88999999
0.091300003 -0.079700001 0.889
0.093000002 -0.079800002 0.88999999
0.094499998 -0.079800002 0.88999999
0.096100003 -0.079800002 0.88999999
0.097599998 -0.079800002 0.88999999
0.099100001 -0.079800002 0.88999999
0.1008 -0.079899997 0.89099997
0.1023 -0.079899997 0.89099997
0.104 -0.079999998 0.89200002
0.1057 -0.0801 0.89300001
0.1073 -0.080200002 0.89399999
0.109 -0.080300003 0.89499998
0.1108 -0.080399998 0.89700001
0.1125 -0.080499999 0.898
0.1143 -0.080700003 0.89999998
0.1159 -0.080700003 0.89999998
0.1173 -0.080600001 0.89899999
0.119 -0.080700003 0.89999998
0.1205 -0.080700003 0.89999998
0.122 -0.080600001 0.89899999
0.1234 -0.080499999 0.898
0.1249 -0.080499999 0.898
0.12620001 -0.080300003 0.89600003
0.1275 -0.080200002 0.89399999
0.12890001 -0.0801 0.89300001
0.1301 -0.079899997 0.89099997
0.13169999 -0.079899997 0.89099997
0.1332 -0.079899997 0.89099997
0.1348 -0.079899997 0.89099997
0.1366 -0.0801 0.89300001
0.13850001 -0.080300003 0.89499998
0.1399 -0.080200002 0.89399999
0.1416 -0.080300003 0.89499998
0.1433 -0.080300003 0.89600003
0.14470001 -0.080300003 0.89499998
0.1462 -0.080300003 0.89499998
0.14749999 -0.0801 0.89300001
0.1488 -0.079999998 0.89200002
0.15360001 -0.0801 0.89300001
0.1552 -0.0801 0.89300001
0.1567 -0.0801 0.89300001
0.1583 -0.0801 0.89300001
0.15979999 -0.0801 0.89300001
0.16140001 -0.0801 0.89300001
0.1628 -0.079999998 0.89200002
0.1639 -0.079800002 0.88999999
0.1653 -0.079700001 0.889
0.16859999 -0.079800002 0.88999999
0.1716 -0.079800002 0.88999999
0.1732 -0.079800002 0.88999999
0.17470001 -0.079800002 0.88999999
0.1763 -0.079800002 0.88999999
0.1778 -0.079800002 0.88999999
-0.4118 -0.076300003 0.86799997
-0.41069999 -0.076399997 0.86900002
-0.40970001 -0.076499999 0.87
-0.4012 -0.076300003 0.86799997
-0.38499999 -0.076700002 0.87199998
-0.38339999 -0.076700002 0.87199998
-0.38 -0.0766 0.87099999
-0.3416 -0.077799998 0.88499999
-0.33849999 -0.077799998 0.88499999
-0.33660001 -0.077699997 0.884
-0.33430001 -0.077600002 0.88200003
-0.31830001 -0.077399999 0.88
-0.31639999 -0.077299997 0.87900001
-0.31490001 -0.077299997 0.87900001
-0.31299999 -0.077200003 0.87800002
-0.31150001 -0.077200003 0.87800002
-0.3096 -0.077100001 0.87699997
-0.30880001 -0.077299997 0.87900001
-0.308 -0.077500001 0.88099998
-0.30649999 -0.077500001 0.88099998
-0.2958 -0.077500001 0.88099998
-0.29429999 -0.077500001 0.88099998
-0.29269999 -0.077500001 0.88099998
-0.2915 -0.077600002 0.88200003
-0.29069999 -0.077699997 0.884
-0.28299999 -0.077699997 0.884
-0.28119999 -0.077699997 0.88300002
-0.27900001 -0.077500001 0.88099998
-0.2775 -0.077500001 0.88099998
-0.27559999 -0.077399999 0.88
-0.27410001 -0.077399999 0.88
-0.27289999 -0.077500001 0.88099998
-0.27070001 -0.077299997 0.87900001
-0.26890001 -0.077200003 0.87800002
-0.2674 -0.077200003 0.87800002
-0.26530001 -0.077 0.87599999
-0.26370001 -0.077 0.87599999
-0.2622 -0.077 0.87599999
-0.26069999 -0.077 0.87599999
-0.2595 -0.077100001 0.87699997
-0.25799999 -0.077100001 0.87699997
-0.25619999 -0.077 0.87599999
-0.25459999 -0.077 0.87599999
-0.25310001 -0.077 0.87599999
-0.2516 -0.077 0.87599999
-0.2509 -0.077299997 0.87900001
-0.2491 -0.077200003 0.87800002
-0.2473 -0.077100001 0.87699997
-0.2273 -0.077 0.87599999
-0.22499999 -0.077299997 0.87900001
-0.223 -0.077699997 0.88300002
-0.2217 -0.077699997 0.884
-0.2202 -0.077699997 0.884
-0.2166 -0.077600002 0.88200003
-0.2149 -0.077500001 0.88099998
-0.2133 -0.077500001 0.88099998
-0.21179999 -0.077500001 0.88099998
-0.2105 -0.077600002 0.88200003
-0.20900001 -0.077600002 0.88200003
-0.2075 -0.077600002 0.88200003
-0.20640001 -0.077699997 0.884
-0.2036 -0.077799998 0.88499999
-0.2007 -0.0779 0.88599998
-0.1919 -0.078100003 0.88800001
-0.1902 -0.078000002 0.88700002
-0.18870001 -0.078000002 0.88700002
-0.1838 -0.0779 0.88599998
-0.1823 -0.0779 0.88599998
-0.1806 -0.077799998 0.88499999
-0.17900001 -0.077799998 0.88499999
-0.17730001 -0.077699997 0.884
-0.1758 -0.077699997 0.884
-0.1742 -0.077699997 0.884
-0.1725 -0.077699997 0.88300002
-0.171 -0.077699997 0.88300002
-0.1696 -0.077699997 0.884
-0.1681 -0.077699997 0.884
-0.1666 -0.077699997 0.884
-0.16500001 -0.077699997 0.884
-0.1635 -0.077699997 0.884
-0.162 -0.077699997 0.884
-0.1604 -0.077699997 0.884
-0.1587 -0.077699997 0.88300002
-0.15719999 -0.077699997 0.88300002
-0.15549999 -0.077600002 0.88200003
-0.1514 -0.077799998 0.88499999
-0.1499 -0.077799998 0.88499999
-0.14820001 -0.077699997 0.884
-0.14669999 -0.077699997 0.884
-0.1451 -0.077699997 0.884
-0.1433 -0.077600002 0.88200003
-0.1416 -0.077500001 0.88099998
-0.1399 -0.077399999 0.88
-0.1367 -0.077299997 0.87900001
-0.13519999 -0.077299997 0.87900001
-0.1338 -0.077399999 0.88
-0.1321 -0.077299997 0.87900001
-0.13060001 -0.077299997 0.87900001
-0.12909999 -0.077299997 0.87900001
-0.1275 -0.077299997 0.87900001
-0.1259 -0.077200003 0.87800002
-0.1244 -0.077200003 0.87800002
-0.1227 -0.077100001 0.87699997
-0.121 -0.077 0.87599999
-0.1195 -0.077 0.87599999
-0.1183 -0.077200003 0.87800002
-0.1167 -0.077200003 0.87800002
-0.1154 -0.077299997 0.87900001
-0.1141 -0.077500001 0.88099998
-0.1127 -0.077600002 0.88200003
-0.1114 -0.077699997 0.884
-0.1099 -0.077699997 0.884
-0.1084 -0.077699997 0.884
-0.1068 -0.077699997 0.884
-0.1052 -0.077699997 0.88300002
-0.1035 -0.077600002 0.88200003
-0.102 -0.077600002 0.88200003
-0.1004 -0.077500001 0.88099998
-0.098800004 -0.077500001 0.88099998
-0.097199999 -0.077399999 0.88
-0.095600002 -0.077299997 0.87900001
-0.093999997 -0.077299997 0.87900001
-0.092500001 -0.077299997 0.87900001
-0.090999998 -0.077299997 0.87900001
-0.089500003 -0.077299997 0.87900001
-0.088 -0.077399999 0.88
-0.085100003 -0.077500001 0.88099998
-0.0836 -0.077500001 0.88099998
-0.082000002 -0.077500001 0.88099998
-0.080399998 -0.077399999 0.88
-0.078699999 -0.077200003 0.87800002
-0.077299997 -0.077299997 0.87900001
-0.075800002 -0.077399999 0.88
-0.074500002 -0.077600002 0.88200003
-0.073200002 -0.077799998 0.88499999
-0.071699999 -0.077799998 0.88499999
-0.070299998 -0.078000002 0.88700002
-0.068800002 -0.078000002 0.88700002
-0.067199998 -0.078000002 0.88700002
-0.065800004 -0.078100003 0.88800001
-0.064199999 -0.078100003 0.88800001
-0.062700003 -0.078100003 0.88800001
-0.061099999 -0.078100003 0.88800001
-0.059599999 -0.078100003 0.88800001
-0.0581 -0.078199998 0.889
-0.056499999 -0.078100003 0.88800001
-0.055 -0.078100003 0.88800001
-0.053399999 -0.078100003 0.88800001
-0.051800001 -0.078000002 0.88700002
-0.050299998 -0.078000002 0.88700002
-0.048700001 -0.0779 0.88599998
-0.0471 -0.077799998 0.88499999
-0.045600001 -0.0779 0.88599998
-0.042599998 -0.0779 0.88599998
-0.041099999 -0.078000002 0.88700002
-0.039500002 -0.0779 0.88599998
-0.037999999 -0.0779 0.88599998
-0.036400001 -0.0779 0.88599998
-0.034899998 -0.077799998 0.88499999
-0.033300001 -0.077799998 0.88499999
-0.0319 -0.078000002 0.88700002
-0.030300001 -0.078000002 0.88700002
-0.0288 -0.078100003 0.88800001
-0.0273 -0.078100003 0.88800001
-0.025699999 -0.078100003 0.88800001
-0.021199999 -0.078299999 0.88999999
-0.0196 -0.078299999 0.88999999
-0.0166 -0.078400001 0.89099997
-0.015 -0.078400001 0.89099997
-0.0135 -0.078400001 0.89099997
-0.0119 -0.078400001 0.89200002
-0.0104 -0.078400001 0.89099997
-0.0088 -0.078400001 0.89099997
-0.0073000002 -0.078400001 0.89099997
-0.0057000001 -0.078400001 0.89099997
-0.0041999999 -0.078400001 0.89200002
-0.0027000001 -0.078500003 0.89300001
-0.0011 -0.078599997 0.89399999
0.00039999999 -0.078599997 0.89399999
0.0020000001 -0.078599997 0.89399999
0.0035000001 -0.078699999 0.89499998
0.0051000002 -0.078699999 0.89499998
0.0066 -0.078500003 0.89300001
0.0081000002 -0.078400001 0.89099997
0.0097000003 -0.078400001 0.89099997
0.0112 -0.078299999 0.88999999
0.0128 -0.078299999 0.88999999
0.0143 -0.078199998 0.889
0.015799999 -0.078199998 0.889
0.0174 -0.078199998 0.889
0.0189 -0.078299999 0.88999999
0.020500001 -0.078299999 0.88999999
0.022 -0.078199998 0.889
0.023499999 -0.078199998 0.889
0.0251 -0.078100003 0.88800001
0.0266 -0.078100003 0.88800001
0.028100001 -0.078100003 0.88800001
0.0296 -0.078000002 0.88700002
0.031199999 -0.078000002 0.88700002
0.032699998 -0.078100003 0.88800001
0.034299999 -0.078199998 0.889
0.0359 -0.078400001 0.89099997
0.037500001 -0.078400001 0.89099997
0.039000001 -0.078400001 0.89099997
0.040600002 -0.078400001 0.89099997
0.042100001 -0.078400001 0.89099997
0.043699998 -0.078400001 0.89200002
0.045200001 -0.078299999 0.88999999
0.046599999 -0.078100003 0.88800001
0.048099998 -0.078000002 0.88700002
0.049699999 -0.078100003 0.88800001
0.051199999 -0.078100003 0.88800001
0.0528 -0.078100003 0.88800001
0.054299999 -0.078100003 0.88800001
0.055799998 -0.078100003 0.88800001
0.057399999 -0.078100003 0.88800001
0.058800001 -0.078000002 0.88700002
0.060400002 -0.078000002 0.88700002
0.061799999 -0.077799998 0.88499999
0.063299999 -0.077799998 0.88499999
0.064800002 -0.077799998 0.88499999
0.067900002 -0.077799998 0.88499999
0.069399998 -0.077799998 0.88499999
0.071000002 -0.077799998 0.88499999
0.072499998 -0.077799998 0.88499999
0.074000001 -0.077799998 0.88499999
0.075599998 -0.077799998 0.88499999
0.077100001 -0.077799998 0.88499999
0.078599997 -0.077699997 0.884
0.080200002 -0.077799998 0.88499999
0.081799999 -0.0779 0.88599998
0.083400004 -0.078000002 0.88700002
0.085100003 -0.078100003 0.88800001
0.086599998 -0.078100003 0.88800001
0.088200003 -0.078199998 0.889
0.0898 -0.078199998 0.889
0.091300003 -0.078199998 0.889
0.092900001 -0.078199998 0.889
0.094400004 -0.078199998 0.889
0.096000001 -0.078199998 0.889
0.097599998 -0.078299999 0.88999999
0.099299997 -0.078400001 0.89099997
0.1008 -0.078400001 0.89099997
0.1023 -0.078400001 0.89099997
0.104 -0.078400001 0.89200002
0.1056 -0.078400001 0.89200002
0.1072 -0.078500003 0.89300001
0.1089 -0.078599997 0.89399999
0.1107 -0.0788 0.89600003
0.1125 -0.079000004 0.898
0.1142 -0.079099998 0.89899999
0.1156 -0.079000004 0.898
0.1172 -0.079000004 0.898
0.119 -0.079099998 0.89999998
0.1205 -0.079099998 0.89999998
0.1221 -0.079099998 0.89999998
0.1235 -0.079099998 0.89899999
0.1249 -0.079000004 0.898
0.12620001 -0.0788 0.89600003
0.1276 -0.078699999 0.89499998
0.12890001 -0.078500003 0.89300001
0.1301 -0.078400001 0.89099997
0.13169999 -0.078400001 0.89099997
0.1331 -0.078299999 0.88999999
0.1348 -0.078400001 0.89099997
0.1366 -0.078500003 0.89300001
0.1383 -0.078599997 0.89399999
0.14 -0.078699999 0.89499998
0.1416 -0.078699999 0.89499998
0.1433 -0.0788 0.89600003
0.14480001 -0.0788 0.89600003
0.1461 -0.078599997 0.89399999
0.15189999 -0.078400001 0.89200002
0.15360001 -0.078500003 0.89300001
0.1567 -0.078500003 0.89300001
0.15809999 -0.078400001 0.89200002
0.15970001 -0.078400001 0.89200002
0.1612 -0.078400001 0.89200002
0.1639 -0.078299999 0.88999999
0.16680001 -0.078199998 0.889
0.1734 -0.078400001 0.89099997
0.1751 -0.078400001 0.89200002
0.1767 -0.078400001 0.89200002
-0.41119999 -0.075000003 0.87
-0.40970001 -0.075000003 0.87
-0.3854 -0.075300001 0.87300003
-0.38389999 -0.075300001 0.87300003
-0.35690001 -0.075000003 0.87
-0.3554 -0.075000003 0.87
-0.35389999 -0.075000003 0.87
-0.32139999 -0.075499997 0.87599999
-0.32100001 -0.075800002 0.87900001
-0.31720001 -0.075999998 0.88099998
-0.31560001 -0.075999998 0.88099998
-0.3141 -0.075999998 0.88099998
-0.31220001 -0.075900003 0.88
-0.3107 -0.075900003 0.88
-0.30950001 -0.075999998 0.88099998
-0.30840001 -0.075999998 0.88200003
-0.30219999 -0.075999998 0.88200003
-0.30070001 -0.075999998 0.88200003
-0.29820001 -0.075800002 0.87900001
-0.29629999 -0.0757 0.87800002
-0.29480001 -0.0757 0.87800002
-0.29359999 -0.075800002 0.87900001
-0.2924 -0.075900003 0.88
-0.2915 -0.075999998 0.88200003
-0.29069999 -0.076200001 0.884
-0.28049999 -0.075999998 0.88099998
-0.278 -0.0757 0.87800002
-0.27649999 -0.0757 0.87800002
-0.27469999 -0.075599998 0.87699997
-0.2735 -0.0757 0.87800002
-0.27200001 -0.0757 0.87800002
-0.2701 -0.075599998 0.87699997
-0.2683 -0.075499997 0.87599999
-0.26679999 -0.075499997 0.87599999
-0.26530001 -0.075499997 0.87599999
-0.26339999 -0.075400002 0.875
-0.2622 -0.075499997 0.87599999
-0.26069999 -0.075499997 0.87599999
-0.25920001 -0.075499997 0.87599999
-0.25830001 -0.0757 0.87800002
-0.25639999 -0.075599998 0.87699997
-0.25490001 -0.075599998 0.87699997
-0.25369999 -0.0757 0.87800002
-0.25220001 -0.0757 0.87800002
-0.2509 -0.075800002 0.87900001
-0.2494 -0.075800002 0.87900001
-0.2476 -0.0757 0.87800002
-0.2464 -0.075800002 0.87900001
-0.2448 -0.075800002 0.87900001
-0.237 -0.0757 0.87800002
-0.23370001 -0.075599998 0.87699997
-0.2281 -0.075800002 0.87900001
-0.22679999 -0.075900003 0.88
-0.2256 -0.075999998 0.88099998
-0.2243 -0.075999998 0.88200003
-0.2233 -0.076200001 0.884
-0.222 -0.076300003 0.88499999
-0.2184 -0.076099999 0.88300002
-0.2166 -0.075999998 0.88200003
-0.21510001 -0.075999998 0.88200003
-0.2133 -0.075999998 0.88099998
-0.2121 -0.075999998 0.88200003
-0.2105 -0.075999998 0.88200003
-0.20919999 -0.076099999 0.88300002
-0.2077 -0.076099999 0.88300002
-0.2062 -0.076099999 0.88300002
-0.2044 -0.075999998 0.88200003
-0.2031 -0.076099999 0.88300002
-0.2016 -0.076099999 0.88300002
-0.19239999 -0.076700002 0.88999999
-0.1904 -0.0766 0.88800001
-0.1856 -0.076499999 0.88700002
-0.184 -0.076499999 0.88700002
-0.1823 -0.076399997 0.88599998
-0.1806 -0.076300003 0.88499999
-0.1788 -0.076200001 0.884
-0.17730001 -0.076200001 0.884
-0.1758 -0.076200001 0.884
-0.1742 -0.076200001 0.884
-0.1727 -0.076200001 0.884
-0.1696 -0.076200001 0.884
-0.1681 -0.076200001 0.884
-0.1666 -0.076200001 0.884
-0.16500001 -0.076200001 0.884
-0.1635 -0.076200001 0.884
-0.162 -0.076200001 0.884
-0.1604 -0.076200001 0.884
-0.1587 -0.076099999 0.88300002
-0.15719999 -0.076099999 0.88300002
-0.15549999 -0.075999998 0.88200003
-0.1541 -0.076099999 0.88300002
-0.153 -0.076300003 0.88499999
-0.1514 -0.076300003 0.88499999
-0.1499 -0.076300003 0.88499999
-0.14820001 -0.076200001 0.884
-0.14669999 -0.076200001 0.884
-0.145 -0.076099999 0.88300002
-0.1433 -0.075999998 0.88200003
-0.1416 -0.075999998 0.88099998
-0.1397 -0.075800002 0.87900001
-0.1381 -0.0757 0.87800002
-0.13500001 -0.0757 0.87800002
-0.1336 -0.075800002 0.87900001
-0.1323 -0.075900003 0.88
-0.13070001 -0.075900003 0.88
-0.12909999 -0.075800002 0.87900001
-0.1275 -0.075800002 0.87900001
-0.126 -0.075800002 0.87900001
-0.1226 -0.075499997 0.87599999
-0.121 -0.075499997 0.87599999
-0.1197 -0.075599998 0.87699997
-0.1184 -0.075800002 0.87900001
-0.117 -0.075900003 0.88
-0.1142 -0.075999998 0.88200003
-0.1128 -0.076099999 0.88300002
-0.1114 -0.076200001 0.884
-0.11 -0.076300003 0.88499999
-0.1084 -0.076200001 0.884
-0.1068 -0.076200001 0.884
-0.1052 -0.076099999 0.88300002
-0.1035 -0.075999998 0.88200003
-0.102 -0.075999998 0.88200003
-0.1005 -0.075999998 0.88200003
-0.098800004 -0.075999998 0.88099998
-0.097099997 -0.075800002 0.87900001
-0.095399998 -0.0757 0.87800002
-0.093900003 -0.0757 0.87800002
-0.092399999 -0.0757 0.87800002
-0.090899996 -0.0757 0.87800002
-0.089500003 -0.075800002 0.87900001
-0.087899998 -0.075800002 0.87900001
-0.086599998 -0.075999998 0.88099998
-0.085100003 -0.075999998 0.88099998
-0.082099997 -0.075999998 0.88200003
-0.080499999 -0.075999998 0.88099998
-0.0788 -0.075800002 0.87900001
-0.077399999 -0.075900003 0.88
-0.075999998 -0.075999998 0.88200003
-0.074600004 -0.076099999 0.88300002
-0.073200002 -0.076300003 0.88499999
-0.071699999 -0.076399997 0.88599998
-0.070299998 -0.076499999 0.88700002
-0.068800002 -0.0766 0.88800001
-0.067299999 -0.0766 0.88800001
-0.065800004 -0.0766 0.88800001
-0.064199999 -0.0766 0.88800001
-0.062600002 -0.076499999 0.88700002
-0.061099999 -0.076499999 0.88700002
-0.059500001 -0.076499999 0.88700002
-0.0581 -0.0766 0.88800001
-0.056499999 -0.0766 0.88800001
-0.055 -0.0766 0.88800001
-0.053399999 -0.0766 0.88800001
-0.051899999 -0.0766 0.88800001
-0.0504 -0.0766 0.88800001
-0.048799999 -0.076499999 0.88700002
-0.0471 -0.076300003 0.88499999
-0.045600001 -0.076399997 0.88599998
-0.044199999 -0.076499999 0.88700002
-0.042599998 -0.076399997 0.88599998
-0.041099999 -0.076499999 0.88700002
-0.039500002 -0.076399997 0.88599998
-0.037900001 -0.076300003 0.88499999
-0.036400001 -0.076300003 0.88499999
-0.0348 -0.076200001 0.884
-0.033300001 -0.076200001 0.884
-0.031800002 -0.076399997 0.88599998
-0.030300001 -0.076300003 0.88499999
-0.0288 -0.076499999 0.88700002
-0.0272 -0.076499999 0.88700002
-0.025699999 -0.0766 0.88800001
-0.0242 -0.0766 0.889
-0.0211 -0.0766 0.889
-0.0196 -0.076700002 0.88999999
-0.018100001 -0.076700002 0.88999999
-0.0166 -0.076800004 0.89099997
-0.0135 -0.076800004 0.89099997
-0.0119 -0.076800004 0.89099997
-0.0104 -0.076800004 0.89099997
-0.0088 -0.076800004 0.89099997
-0.0073000002 -0.076800004 0.89099997
-0.0057999999 -0.076899998 0.89200002
-0.0041999999 -0.077100001 0.89399999
-0.0027000001 -0.077200003 0.89600003
-0.0011 -0.077200003 0.89600003
0.00039999999 -0.077200003 0.89600003
0.0020000001 -0.077200003 0.89600003
0.0035000001 -0.077200003 0.89600003
0.0051000002 -0.077200003 0.89499998
0.0066 -0.077 0.89300001
0.0081000002 -0.076800004 0.89099997
0.0097000003 -0.076700002 0.88999999
0.0112 -0.076700002 0.88999999
0.0128 -0.0766 0.889
0.0143 -0.0766 0.889
0.015799999 -0.0766 0.889
0.0174 -0.0766 0.889
0.0189 -0.0766 0.889
0.020500001 -0.076700002 0.88999999
0.022 -0.0766 0.889
0.023499999 -0.0766 0.889
0.0251 -0.0766 0.889
0.0266 -0.0766 0.889
0.028200001 -0.0766 0.889
0.0297 -0.0766 0.88800001
0.031199999 -0.0766 0.88800001
0.0328 -0.0766 0.889
0.034400001 -0.076700002 0.88999999
0.0359 -0.076800004 0.89099997
0.037500001 -0.076800004 0.89099997
0.039000001 -0.076700002 0.88999999
0.040600002 -0.076800004 0.89099997
0.042100001 -0.076700002 0.88999999
0.0436 -0.076700002 0.88999999
0.0451 -0.0766 0.88800001
0.046500001 -0.076499999 0.88700002
0.048099998 -0.076499999 0.88700002
0.049699999 -0.0766 0.88800001
0.051199999 -0.0766 0.88800001
0.0528 -0.0766 0.88800001
0.054299999 -0.0766 0.88800001
0.0559 -0.0766 0.889
0.057399999 -0.0766 0.88800001
0.058899999 -0.0766 0.88800001
0.060400002 -0.0766 0.88800001
0.061900001 -0.076499999 0.88700002
0.063500002 -0.076499999 0.88700002
0.064900003 -0.076399997 0.88599998
0.066399999 -0.076300003 0.88499999
0.067900002 -0.076300003 0.88499999
0.069399998 -0.076300003 0.88499999
0.071000002 -0.076300003 0.88499999
0.072499998 -0.076300003 0.88499999
0.074000001 -0.076300003 0.88499999
0.075599998 -0.076300003 0.88499999
0.077 -0.076200001 0.884
0.078599997 -0.076200001 0.884
0.0801 -0.076200001 0.884
0.081699997 -0.076300003 0.88499999
0.083300002 -0.076399997 0.88599998
0.085100003 -0.0766 0.88800001
0.086599998 -0.0766 0.88800001
0.088200003 -0.0766 0.88800001
0.0898 -0.0766 0.889
0.091399997 -0.076700002 0.88999999
0.093000002 -0.076700002 0.88999999
0.094499998 -0.076700002 0.88999999
0.096100003 -0.076700002 0.88999999
0.0977 -0.076800004 0.89099997
0.099299997 -0.076800004 0.89099997
0.1009 -0.076899998 0.89200002
0.1023 -0.076800004 0.89099997
0.104 -0.076899998 0.89200002
0.1057 -0.077 0.89300001
0.1072 -0.077 0.89300001
0.1088 -0.077 0.89300001
0.1106 -0.077200003 0.89499998
0.1124 -0.077299997 0.89700001
0.114 -0.077399999 0.898
0.1155 -0.077299997 0.89700001
0.117 -0.077299997 0.89700001
0.1187 -0.077399999 0.898
0.1204 -0.077500001 0.89899999
0.1218 -0.077399999 0.898
0.1232 -0.077299997 0.89700001
0.1247 -0.077200003 0.89600003
0.1259 -0.077100001 0.89399999
0.12729999 -0.077 0.89300001
0.1286 -0.076800004 0.89099997
0.13 -0.076700002 0.88999999
0.13150001 -0.076700002 0.88999999
0.1331 -0.076700002 0.88999999
0.1348 -0.076800004 0.89099997
0.1365 -0.076899998 0.89200002
0.1382 -0.077 0.89300001
0.1397 -0.077 0.89300001
0.14139999 -0.077100001 0.89399999
0.14309999 -0.077200003 0.89499998
0.1445 -0.077100001 0.89399999
0.14569999 -0.076899998 0.89200002
0.15019999 -0.076800004 0.89099997
0.15180001 -0.076800004 0.89099997
0.1533 -0.076800004 0.89099997
0.155 -0.076899998 0.89200002
0.1566 -0.076899998 0.89200002
0.15809999 -0.076899998 0.89200002
0.1595 -0.076800004 0.89099997
0.1626 -0.076800004 0.89099997
0.16859999 -0.076700002 0.88999999
0.17030001 -0.076800004 0.89099997
0.17380001 -0.077 0.89300001
0.1753 -0.077 0.89300001
0.1771 -0.077100001 0.89399999
0.17839999 -0.077 0.89300001
0.1813 -0.076899998 0.89200002
0.1824 -0.076700002 0.88999999
-0.4007 -0.0735 0.87
-0.38339999 -0.073700003 0.87199998
-0.38240001 -0.073700003 0.87300003
-0.3804 -0.073700003 0.87199998
-0.37850001 -0.073600002 0.87099999
-0.3757 -0.073299997 0.86799997
-0.35499999 -0.073399998 0.86900002
-0.31720001 -0.0744 0.88099998
-0.31600001 -0.074500002 0.88200003
-0.3145 -0.074500002 0.88200003
-0.31290001 -0.074500002 0.88200003
-0.3114 -0.074500002 0.88200003
-0.30989999 -0.074500002 0.88200003
-0.3053 -0.074500002 0.88200003
-0.30340001 -0.0744 0.88099998
-0.29710001 -0.074000001 0.87599999
-0.29530001 -0.073899999 0.875
-0.29409999 -0.074000001 0.87599999
-0.29359999 -0.074299999 0.87900001
-0.2924 -0.074299999 0.88
-0.2771 -0.073899999 0.875
-0.27489999 -0.073700003 0.87300003
-0.27340001 -0.073700003 0.87300003
-0.27250001 -0.073899999 0.875
-0.27160001 -0.074100003 0.87699997
-0.26980001 -0.074000001 0.87599999
-0.2683 -0.074000001 0.87599999
-0.26710001 -0.074100003 0.87699997
-0.26589999 -0.074199997 0.87800002
-0.26370001 -0.074000001 0.87599999
-0.2622 -0.074000001 0.87599999
-0.26069999 -0.074000001 0.87599999
-0.25979999 -0.074199997 0.87800002
-0.25830001 -0.074199997 0.87800002
-0.257 -0.074299999 0.87900001
-0.25549999 -0.074299999 0.87900001
-0.25400001 -0.074299999 0.87900001
-0.2525 -0.074299999 0.87900001
-0.25150001 -0.0744 0.88099998
-0.25 -0.0744 0.88099998
-0.24789999 -0.074299999 0.87900001
-0.2464 -0.074299999 0.87900001
-0.2448 -0.074299999 0.87900001
-0.24330001 -0.074299999 0.87900001
-0.2418 -0.074299999 0.87900001
-0.23999999 -0.074199997 0.87800002
-0.2388 -0.074299999 0.87900001
-0.23720001 -0.074299999 0.87900001
-0.236 -0.074299999 0.88
-0.23270001 -0.074299999 0.87900001
-0.2314 -0.074299999 0.88
-0.2289 -0.074500002 0.88200003
-0.2273 -0.074500002 0.88200003
-0.22579999 -0.074500002 0.88200003
-0.22480001 -0.074699998 0.884
-0.2235 -0.0748 0.88499999
-0.22040001 -0.0748 0.88499999
-0.21709999 -0.074699998 0.884
-0.2154 -0.074600004 0.88300002
-0.2123 -0.074600004 0.88300002
-0.21080001 -0.074600004 0.88300002
-0.20919999 -0.074600004 0.88300002
-0.2077 -0.074600004 0.88300002
-0.2062 -0.074600004 0.88300002
-0.2044 -0.074500002 0.88200003
-0.20290001 -0.074500002 0.88200003
-0.20110001 -0.0744 0.88099998
-0.19939999 -0.074299999 0.88
-0.18889999 -0.075000003 0.88800001
-0.18709999 -0.074900001 0.88700002
-0.1856 -0.074900001 0.88700002
-0.1838 -0.0748 0.88599998
-0.1821 -0.0748 0.88499999
-0.1804 -0.074699998 0.884
-0.1788 -0.074699998 0.884
-0.1771 -0.074600004 0.88300002
-0.17560001 -0.074600004 0.88300002
-0.17399999 -0.074600004 0.88300002
-0.1727 -0.074699998 0.884
-0.17120001 -0.074699998 0.884
-0.1696 -0.074699998 0.884
-0.1681 -0.074699998 0.884
-0.1666 -0.074699998 0.884
-0.16500001 -0.074699998 0.884
-0.1635 -0.074699998 0.884
-0.1618 -0.074600004 0.88300002
-0.1603 -0.074600004 0.88300002
-0.1587 -0.074600004 0.88300002
-0.1574 -0.074699998 0.884
-0.15549999 -0.074500002 0.88200003
-0.1543 -0.074699998 0.884
-0.153 -0.0748 0.88499999
-0.1514 -0.0748 0.88499999
-0.1499 -0.0748 0.88499999
-0.14839999 -0.0748 0.88499999
-0.14669999 -0.074699998 0.884
-0.1451 -0.074699998 0.884
-0.1433 -0.074500002 0.88200003
-0.1416 -0.0744 0.88099998
-0.1397 -0.074299999 0.87900001
-0.1381 -0.074199997 0.87800002
-0.1362 -0.074000001 0.87599999
-0.13500001 -0.074199997 0.87800002
-0.1338 -0.074299999 0.88
-0.1323 -0.074299999 0.88
-0.13070001 -0.074299999 0.88
-0.12909999 -0.074299999 0.87900001
-0.1275 -0.074299999 0.87900001
-0.1259 -0.074199997 0.87800002
-0.1241 -0.074000001 0.87599999
-0.1224 -0.073899999 0.875
-0.121 -0.074000001 0.87599999
-0.1198 -0.074199997 0.87800002
-0.1184 -0.074299999 0.87900001
-0.1171 -0.0744 0.88099998
-0.1158 -0.074500002 0.88200003
-0.1142 -0.074500002 0.88200003
-0.1114 -0.074699998 0.884
-0.1099 -0.074699998 0.884
-0.1082 -0.074600004 0.88300002
-0.1066 -0.074500002 0.88200003
-0.1052 -0.074600004 0.88300002
-0.1035 -0.074500002 0.88200003
-0.102 -0.074500002 0.88200003
-0.1005 -0.074500002 0.88200003
-0.098800004 -0.0744 0.88099998
-0.097199999 -0.074299999 0.88
-0.095600002 -0.074299999 0.87900001
-0.093999997 -0.074299999 0.87900001
-0.092399999 -0.074199997 0.87800002
-0.090999998 -0.074299999 0.87900001
-0.089599997 -0.074299999 0.88
-0.088100001 -0.0744 0.88099998
-0.0867 -0.074500002 0.88200003
-0.085199997 -0.074500002 0.88200003
-0.082199998 -0.074600004 0.88300002
-0.080600001 -0.074500002 0.88200003
-0.078900002 -0.074299999 0.88
-0.077500001 -0.074500002 0.88200003
-0.075999998 -0.074500002 0.88200003
-0.074600004 -0.074699998 0.884
-0.073299997 -0.0748 0.88599998
-0.071800001 -0.074900001 0.88700002
-0.0704 -0.075000003 0.88800001
-0.068800002 -0.075000003 0.88800001
-0.067299999 -0.075000003 0.88800001
-0.065800004 -0.075000003 0.88800001
-0.064199999 -0.075000003 0.88800001
-0.062600002 -0.074900001 0.88700002
-0.061000001 -0.0748 0.88599998
-0.059500001 -0.0748 0.88599998
-0.057999998 -0.074900001 0.88700002
-0.056499999 -0.075000003 0.88800001
-0.055 -0.075000003 0.88800001
-0.053399999 -0.075000003 0.88800001
-0.051800001 -0.074900001 0.88700002
-0.050299998 -0.074900001 0.88700002
-0.048700001 -0.0748 0.88599998
-0.0471 -0.0748 0.88499999
-0.045600001 -0.0748 0.88499999
-0.044100001 -0.0748 0.88499999
-0.0425 -0.0748 0.88499999
-0.041000001 -0.0748 0.88499999
-0.039500002 -0.0748 0.88499999
-0.037900001 -0.0748 0.88499999
-0.036400001 -0.0748 0.88499999
-0.034899998 -0.0748 0.88499999
-0.033300001 -0.0748 0.88499999
-0.031800002 -0.0748 0.88599998
-0.030300001 -0.0748 0.88499999
-0.0288 -0.074900001 0.88700002
-0.0272 -0.074900001 0.88700002
-0.025699999 -0.075000003 0.88800001
-0.0242 -0.075000003 0.88800001
-0.022700001 -0.075000003 0.88800001
-0.018100001 -0.075199999 0.88999999
-0.0165 -0.075199999 0.88999999
-0.015 -0.075199999 0.88999999
-0.0135 -0.075199999 0.88999999
-0.0119 -0.075300001 0.89099997
-0.0104 -0.075300001 0.89099997
-0.0088 -0.075300001 0.89099997
-0.0073000002 -0.075300001 0.89099997
-0.0057999999 -0.075400002 0.89300001
-0.0041999999 -0.075599998 0.89499998
-0.0027000001 -0.0757 0.89600003
-0.0011 -0.0757 0.89600003
0.00039999999 -0.0757 0.89600003
0.0020000001 -0.075599998 0.89499998
0.0035000001 -0.075599998 0.89499998
0.0066 -0.075400002 0.89200002
0.0081000002 -0.075300001 0.89099997
0.0097000003 -0.075199999 0.88999999
0.0112 -0.075099997 0.889
0.0128 -0.075099997 0.889
0.0143 -0.075000003 0.88800001
0.015799999 -0.075099997 0.889
0.0174 -0.075000003 0.88800001
0.0189 -0.075099997 0.889
0.020500001 -0.075199999 0.88999999
0.022 -0.075199999 0.88999999
0.023600001 -0.075199999 0.88999999
0.0251 -0.075199999 0.88999999
0.0266 -0.075199999 0.88999999
0.028200001 -0.075199999 0.88999999
0.0297 -0.075099997 0.889
0.031199999 -0.075000003 0.88800001
0.0328 -0.075199999 0.88999999
0.034400001 -0.075199999 0.88999999
0.0359 -0.075300001 0.89099997
0.0374 -0.075199999 0.88999999
0.039000001 -0.075199999 0.88999999
0.0405 -0.075199999 0.88999999
0.042100001 -0.075199999 0.88999999
0.0436 -0.075199999 0.88999999
0.0451 -0.075000003 0.88800001
0.046500001 -0.074900001 0.88700002
0.048099998 -0.074900001 0.88700002
0.049600001 -0.074900001 0.88700002
0.051199999 -0.075000003 0.88800001
0.0528 -0.075000003 0.88800001
0.054400001 -0.075099997 0.889
0.0559 -0.075099997 0.889
0.057399999 -0.075099997 0.889
0.059 -0.075199999 0.88999999
0.060600001 -0.075199999 0.88999999
0.061999999 -0.075000003 0.88800001
0.063500002 -0.075000003 0.88800001
0.064999998 -0.074900001 0.88700002
0.066500001 -0.0748 0.88599998
0.067900002 -0.0748 0.88499999
0.069399998 -0.0748 0.88499999
0.071000002 -0.0748 0.88499999
0.072499998 -0.0748 0.88499999
0.074000001 -0.0748 0.88499999
0.075499997 -0.074699998 0.884
0.077100001 -0.0748 0.88499999
0.078599997 -0.0748 0.88499999
0.080200002 -0.0748 0.88499999
0.081799999 -0.0748 0.88599998
0.083400004 -0.074900001 0.88700002
0.085100003 -0.075000003 0.88800001
0.086599998 -0.075000003 0.88800001
0.088200003 -0.075000003 0.88800001
0.091399997 -0.075199999 0.88999999
0.093000002 -0.075199999 0.88999999
0.094499998 -0.075199999 0.88999999
0.096100003 -0.075199999 0.88999999
