ply
format ascii 1.0
comment PCL generated
element vertex 1629
property float x
property float y
property float z
element camera 0
property float view_px
property float view_py
property float view_pz
property float x_axisx
property float x_axisy
property float x_axisz
property float y_axisx
property float y_axisy
property float y_axisz
property float z_axisx
property float z_axisy
property float z_axisz
property float focal
property float scalex
property float scaley
property float centerx
property float centery
property int viewportx
property int viewporty
property float k1
property float k2
end_header
-0.0113 0.1578 0.84100002
-0.0098000001 0.1584 0.84399998
-0.0083999997 0.1587 0.84600002
-0.0068999999 0.1591 0.84799999
-0.0055 0.15970001 0.85100001
-0.0040000002 0.1604 0.85500002
-0.0026 0.1608 0.85699999
-0.0011 0.1612 0.85900003
0.00039999999 0.1617 0.86199999
0.0019 0.1612 0.85900003
0.0034 0.1608 0.85699999
-0.16509999 0.16 0.84500003
-0.16339999 0.15979999 0.84399998
-0.1612 0.1591 0.83999997
-0.1595 0.15889999 0.83899999
-0.15790001 0.1587 0.838
-0.15629999 0.1585 0.83700001
-0.1548 0.1585 0.83700001
-0.1532 0.1583 0.83600003
-0.1479 0.15889999 0.83899999
-0.14650001 0.15889999 0.83899999
-0.14480001 0.1587 0.838
-0.1436 0.15889999 0.83899999
-0.1419 0.1587 0.838
-0.14049999 0.1587 0.838
-0.1389 0.1585 0.83700001
-0.1372 0.1583 0.83600003
-0.1314 0.1583 0.83600003
-0.13 0.1583 0.83600003
-0.1287 0.1585 0.83700001
-0.1276 0.15889999 0.83899999
-0.1261 0.15889999 0.83899999
-0.1249 0.1592 0.84100002
-0.1235 0.1592 0.84100002
-0.122 0.1592 0.84100002
-0.1209 0.1596 0.84299999
-0.1194 0.1596 0.84299999
-0.1177 0.1592 0.84100002
-0.1159 0.15889999 0.83899999
-0.1142 0.1585 0.83700001
-0.1125 0.15809999 0.83499998
-0.1109 0.15790001 0.83399999
-0.1092 0.1575 0.83200002
-0.1076 0.1574 0.83099997
-0.1062 0.1574 0.83099997
-0.1032 0.15719999 0.82999998
-0.1017 0.15719999 0.82999998
-0.084399998 0.15979999 0.84399998
-0.081 0.15889999 0.83899999
-0.079499997 0.1587 0.838
-0.0779 0.1585 0.83700001
-0.076399997 0.1583 0.83600003
-0.0735 0.1583 0.83600003
-0.072099999 0.1585 0.83700001
-0.070799999 0.1587 0.838
-0.069399998 0.15889999 0.83899999
-0.068000004 0.1591 0.83999997
-0.066600002 0.1591 0.83999997
-0.064999998 0.15889999 0.83899999
-0.0634 0.1585 0.83700001
-0.061900001 0.1583 0.83600003
-0.060400002 0.15809999 0.83499998
-0.058800001 0.1577 0.833
-0.057300001 0.1575 0.83200002
-0.055799998 0.1575 0.83200002
-0.054400001 0.1575 0.83200002
-0.053300001 0.1587 0.838
-0.051899999 0.15889999 0.83899999
-0.0504 0.1585 0.83700001
-0.048900001 0.1583 0.83600003
-0.047400001 0.1583 0.83600003
-0.045899998 0.15809999 0.83499998
-0.044399999 0.15790001 0.83399999
-0.0429 0.1577 0.833
-0.041499998 0.1577 0.833
-0.040100001 0.15790001 0.83399999
-0.038699999 0.15809999 0.83499998
-0.0372 0.15809999 0.83499998
-0.035799999 0.15809999 0.83499998
-0.034400001 0.1585 0.83700001
-0.033 0.1587 0.838
-0.030099999 0.1587 0.838
-0.0286 0.1587 0.838
-0.0272 0.15889999 0.83899999
-0.025900001 0.1594 0.84200001
-0.0244 0.1596 0.84299999
-0.023 0.1596 0.84299999
-0.021500001 0.1596 0.84299999
-0.02 0.1596 0.84299999
-0.0186 0.1596 0.84299999
-0.017100001 0.1594 0.84200001
-0.0156 0.1592 0.84100002
-0.0142 0.1592 0.84100002
-0.0127 0.1592 0.84100002
-0.0113 0.1594 0.84200001
-0.0098000001 0.15979999 0.84399998
-0.0083999997 0.1602 0.84600002
-0.0055 0.16150001 0.85299999
-0.0040000002 0.1619 0.85500002
-0.0026 0.1621 0.85600001
-0.0011 0.1627 0.85900003
0.00039999999 0.163 0.861
0.0019 0.163 0.861
0.0034 0.163 0.861
-0.1662 0.1611 0.84299999
-0.1647 0.1611 0.84299999
-0.1628 0.16069999 0.84100002
-0.161 0.1603 0.83899999
-0.1594 0.1601 0.838
-0.1577 0.15989999 0.83700001
-0.1561 0.15979999 0.83600003
-0.15440001 0.1596 0.83499998
-0.153 0.1596 0.83499998
-0.1452 0.1605 0.83999997
-0.14229999 0.1605 0.83999997
-0.1406 0.1603 0.83899999
-0.139 0.1601 0.838
-0.1372 0.15979999 0.83600003
-0.13600001 0.15989999 0.83700001
-0.1345 0.15989999 0.83700001
-0.13160001 0.15989999 0.83700001
-0.13 0.15979999 0.83600003
-0.1285 0.15979999 0.83600003
-0.12729999 0.15989999 0.83700001
-0.1258 0.15989999 0.83700001
-0.1245 0.1601 0.838
-0.123 0.1601 0.838
-0.1216 0.1601 0.838
-0.1204 0.1605 0.83999997
-0.1191 0.16069999 0.84100002
-0.1175 0.1605 0.83999997
-0.1158 0.1601 0.838
-0.1142 0.15989999 0.83700001
-0.1127 0.15989999 0.83700001
-0.1109 0.1594 0.83399999
-0.1093 0.1592 0.833
-0.1077 0.15899999 0.83200002
-0.1062 0.15880001 0.83099997
-0.1032 0.1586 0.82999998
-0.084399998 0.1613 0.84399998
-0.081 0.1603 0.83899999
-0.079499997 0.1601 0.838
-0.0779 0.15989999 0.83700001
-0.076300003 0.1596 0.83499998
-0.073399998 0.1596 0.83499998
-0.070699997 0.15989999 0.83700001
-0.069300003 0.1601 0.838
-0.067900002 0.1601 0.838
-0.066399999 0.1601 0.838
-0.064900003 0.15989999 0.83700001
-0.063299999 0.15979999 0.83600003
-0.061799999 0.1594 0.83399999
-0.0603 0.1594 0.83399999
-0.058800001 0.1592 0.833
-0.057300001 0.15899999 0.83200002
-0.055799998 0.15899999 0.83200002
-0.054499999 0.1592 0.833
-0.053300001 0.15989999 0.83700001
-0.051899999 0.1601 0.838
-0.0504 0.15989999 0.83700001
-0.048799999 0.1596 0.83499998
-0.047400001 0.15979999 0.83600003
-0.045899998 0.1596 0.83499998
-0.044399999 0.1594 0.83399999
-0.0429 0.1592 0.833
-0.041499998 0.1592 0.833
-0.040100001 0.1594 0.83399999
-0.038699999 0.15979999 0.83600003
-0.037300002 0.15989999 0.83700001
-0.0359 0.15989999 0.83700001
-0.034499999 0.1601 0.838
-0.033 0.1603 0.83899999
-0.031599998 0.1603 0.83899999
-0.0286 0.1601 0.838
-0.0273 0.1605 0.83999997
-0.025900001 0.1609 0.84200001
-0.0244 0.1611 0.84299999
-0.023 0.1611 0.84299999
-0.021500001 0.1613 0.84399998
-0.02 0.1611 0.84299999
-0.0186 0.1611 0.84299999
-0.017100001 0.1611 0.84299999
-0.0156 0.1609 0.84200001
-0.0142 0.16069999 0.84100002
-0.0127 0.1609 0.84200001
-0.0113 0.1611 0.84299999
-0.0098000001 0.16150001 0.84500003
-0.0083999997 0.1617 0.84600002
-0.0055 0.1628 0.852
-0.0040000002 0.16320001 0.85399997
-0.0024999999 0.16320001 0.85399997
-0.0011 0.164 0.85799998
-0.1639 0.1618 0.83899999
-0.16249999 0.1618 0.83899999
-0.1608 0.16159999 0.838
-0.1594 0.16159999 0.838
-0.1577 0.16140001 0.83700001
-0.15629999 0.16140001 0.83700001
-0.1548 0.16140001 0.83700001
-0.1534 0.16140001 0.83700001
-0.15189999 0.16140001 0.83700001
-0.1508 0.1618 0.83899999
-0.1428 0.16249999 0.84299999
-0.141 0.1622 0.84100002
-0.139 0.16159999 0.838
-0.1374 0.16140001 0.83700001
-0.13600001 0.16140001 0.83700001
-0.1345 0.16140001 0.83700001
-0.1331 0.16140001 0.83700001
-0.1318 0.16159999 0.838
-0.1302 0.16140001 0.83700001
-0.1287 0.16140001 0.83700001
-0.1274 0.16159999 0.838
-0.1258 0.16140001 0.83700001
-0.1244 0.16140001 0.83700001
-0.1226 0.161 0.83499998
-0.1212 0.161 0.83499998
-0.1197 0.161 0.83499998
-0.1185 0.16140001 0.83700001
-0.1171 0.16140001 0.83700001
-0.1156 0.16140001 0.83700001
-0.1142 0.16140001 0.83700001
-0.1126 0.1612 0.83600003
-0.111 0.161 0.83499998
-0.1093 0.16060001 0.833
-0.1077 0.1604 0.83200002
-0.1063 0.1604 0.83200002
-0.1047 0.1602 0.83099997
-0.1032 0.16 0.82999998
-0.084299996 0.16249999 0.84299999
-0.082599998 0.162 0.83999997
-0.080899999 0.16159999 0.838
-0.079499997 0.16159999 0.838
-0.0779 0.16140001 0.83700001
-0.076399997 0.1612 0.83600003
-0.074900001 0.161 0.83499998
-0.073399998 0.161 0.83499998
-0.072099999 0.16140001 0.83700001
-0.070699997 0.16140001 0.83700001
-0.069200002 0.16140001 0.83700001
-0.067900002 0.16159999 0.838
-0.066399999 0.16159999 0.838
-0.064900003 0.16140001 0.83700001
-0.063299999 0.1612 0.83600003
-0.061799999 0.1608 0.83399999
-0.058800001 0.16060001 0.833
-0.055799998 0.1602 0.83099997
-0.054400001 0.1604 0.83200002
-0.053100001 0.161 0.83499998
-0.051899999 0.16159999 0.838
-0.0504 0.16140001 0.83700001
-0.048900001 0.16140001 0.83700001
-0.047499999 0.16140001 0.83700001
-0.046 0.1612 0.83600003
-0.044500001 0.161 0.83499998
-0.043000001 0.1608 0.83399999
-0.041499998 0.1608 0.83399999
-0.040100001 0.161 0.83499998
-0.038800001 0.16159999 0.838
-0.0374 0.1618 0.83899999
-0.0359 0.1618 0.83899999
-0.034499999 0.162 0.83999997
-0.031599998 0.162 0.83999997
-0.0287 0.1618 0.83899999
-0.0273 0.1622 0.84100002
-0.025900001 0.16240001 0.84200001
-0.0244 0.16249999 0.84299999
-0.023 0.16249999 0.84299999
-0.021500001 0.1627 0.84399998
-0.02 0.16249999 0.84299999
-0.0186 0.16249999 0.84299999
-0.017100001 0.16249999 0.84299999
-0.015699999 0.16249999 0.84299999
-0.0142 0.16240001 0.84200001
-0.0127 0.16240001 0.84200001
-0.0113 0.16249999 0.84299999
-0.0098000001 0.1629 0.84500003
-0.0083999997 0.1631 0.84600002
-0.0068999999 0.1635 0.84799999
-0.0055 0.1639 0.85000002
-0.0040000002 0.1647 0.85399997
-0.0024999999 0.1645 0.85299999
-0.0011 0.1649 0.85500002
0.00039999999 0.1656 0.85900003
-0.35299999 0.171 0.87900001
-0.1654 0.16320001 0.83899999
-0.1637 0.163 0.838
-0.16230001 0.163 0.838
-0.1608 0.163 0.838
-0.1594 0.163 0.838
-0.15790001 0.163 0.838
-0.1565 0.163 0.838
-0.155 0.163 0.838
-0.15350001 0.163 0.838
-0.1521 0.163 0.838
-0.1508 0.16320001 0.83899999
-0.14839999 0.1638 0.84200001
-0.1376 0.163 0.838
-0.13600001 0.1628 0.83700001
-0.1345 0.1628 0.83700001
-0.1331 0.1628 0.83700001
-0.1318 0.163 0.838
-0.1303 0.163 0.838
-0.1287 0.1628 0.83700001
-0.12729999 0.1628 0.83700001
-0.1258 0.1628 0.83700001
-0.1242 0.1626 0.83600003
-0.1226 0.16249999 0.83499998
-0.121 0.16230001 0.83399999
-0.1194 0.1621 0.833
-0.1181 0.16230001 0.83399999
-0.1168 0.16249999 0.83499998
-0.1155 0.1626 0.83600003
-0.1139 0.16249999 0.83499998
-0.1125 0.16249999 0.83499998
-0.1109 0.16230001 0.83399999
-0.1093 0.1621 0.833
-0.1079 0.1621 0.833
-0.1032 0.16150001 0.82999998
-0.1017 0.16150001 0.82999998
-0.086099997 0.1646 0.84600002
-0.084399998 0.16419999 0.84399998
-0.082599998 0.16339999 0.83999997
-0.081 0.16320001 0.83899999
-0.079499997 0.163 0.838
-0.076300003 0.16249999 0.83499998
-0.074900001 0.16249999 0.83499998
-0.073399998 0.16249999 0.83499998
-0.071999997 0.1626 0.83600003
-0.070699997 0.1628 0.83700001
-0.069200002 0.1628 0.83700001
-0.0678 0.1628 0.83700001
-0.066399999 0.163 0.838
-0.064900003 0.1628 0.83700001
-0.063299999 0.1626 0.83600003
-0.061799999 0.16230001 0.83399999
-0.060199998 0.1621 0.833
-0.058699999 0.1619 0.83200002
-0.0572 0.1617 0.83099997
-0.055799998 0.1617 0.83099997
-0.054299999 0.1617 0.83099997
-0.052999999 0.1619 0.83200002
-0.051899999 0.163 0.838
-0.050700001 0.164 0.84299999
-0.0493 0.164 0.84299999
-0.047800001 0.1638 0.84200001
-0.0462 0.16339999 0.83999997
-0.044599999 0.163 0.838
-0.043099999 0.1628 0.83700001
-0.0416 0.1626 0.83600003
-0.040199999 0.1628 0.83700001
-0.038899999 0.16320001 0.83899999
-0.0374 0.16339999 0.83999997
-0.035999998 0.16339999 0.83999997
-0.034600001 0.1636 0.84100002
-0.033100002 0.1636 0.84100002
-0.0317 0.1636 0.84100002
-0.030200001 0.16339999 0.83999997
-0.0287 0.16339999 0.83999997
-0.0273 0.1636 0.84100002
-0.025900001 0.164 0.84299999
-0.0244 0.164 0.84299999
-0.023 0.164 0.84299999
-0.021500001 0.164 0.84299999
-0.02 0.164 0.84299999
-0.0186 0.164 0.84299999
-0.0156 0.1638 0.84200001
-0.0142 0.1636 0.84100002
-0.0127 0.1636 0.84100002
-0.0113 0.1638 0.84200001
-0.0098000001 0.16419999 0.84399998
-0.0083999997 0.16419999 0.84399998
-0.0068999999 0.1646 0.84600002
-0.0040000002 0.1654 0.85000002
-0.0024999999 0.1654 0.85000002
-0.0011 0.1656 0.85100001
0.00039999999 0.1662 0.85399997
-0.35299999 0.1725 0.87900001
-0.3515 0.1725 0.87900001
-0.1629 0.1637 0.83399999
-0.1621 0.16429999 0.83700001
-0.16060001 0.16429999 0.83700001
-0.1595 0.1647 0.83899999
-0.15809999 0.1647 0.83899999
-0.1566 0.1647 0.83899999
-0.1556 0.16509999 0.84100002
-0.1541 0.16509999 0.84100002
-0.15260001 0.16509999 0.84100002
-0.1512 0.16509999 0.84100002
-0.1497 0.16509999 0.84100002
-0.13429999 0.16410001 0.83600003
-0.1331 0.16429999 0.83700001
-0.13160001 0.16429999 0.83700001
-0.1303 0.1645 0.838
-0.1287 0.16429999 0.83700001
-0.12729999 0.16429999 0.83700001
-0.1257 0.16410001 0.83600003
-0.1241 0.1639 0.83499998
-0.1225 0.1637 0.83399999
-0.1209 0.1635 0.833
-0.1194 0.1635 0.833
-0.118 0.1635 0.833
-0.1154 0.1639 0.83499998
-0.1139 0.1639 0.83499998
-0.1126 0.16410001 0.83600003
-0.111 0.1639 0.83499998
-0.1095 0.1637 0.83399999
-0.1046 0.1629 0.82999998
-0.1017 0.1629 0.82999998
-0.1003 0.1629 0.82999998
-0.094499998 0.1629 0.82999998
-0.093099996 0.1629 0.82999998
-0.086099997 0.1661 0.84600002
-0.084299996 0.1655 0.84299999
-0.082599998 0.1649 0.83999997
-0.081 0.1647 0.83899999
-0.079400003 0.16429999 0.83700001
-0.077799998 0.16410001 0.83600003
-0.076300003 0.1639 0.83499998
-0.071999997 0.1639 0.83499998
-0.070699997 0.16429999 0.83700001
-0.0691 0.16410001 0.83600003
-0.0678 0.16429999 0.83700001
-0.066399999 0.1645 0.838
-0.064900003 0.16429999 0.83700001
-0.063299999 0.16410001 0.83600003
-0.061799999 0.1639 0.83499998
-0.0603 0.1637 0.83399999
-0.058800001 0.1635 0.833
-0.0572 0.1631 0.83099997
-0.055799998 0.1631 0.83099997
-0.054299999 0.1631 0.83099997
-0.052999999 0.1635 0.833
-0.052099999 0.16509999 0.84100002
-0.050900001 0.1661 0.84600002
-0.049400002 0.1661 0.84600002
-0.046399999 0.1657 0.84399998
-0.044799998 0.16509999 0.84100002
-0.043200001 0.1647 0.83899999
-0.041700002 0.1645 0.838
-0.0403 0.1645 0.838
-0.038899999 0.1647 0.83899999
-0.0374 0.1649 0.83999997
-0.035999998 0.1649 0.83999997
-0.034600001 0.16509999 0.84100002
-0.033199999 0.1655 0.84299999
-0.0317 0.16509999 0.84100002
-0.0287 0.16509999 0.84100002
-0.0273 0.16509999 0.84100002
-0.025900001 0.1655 0.84299999
-0.0244 0.1655 0.84299999
-0.023 0.1655 0.84299999
-0.021500001 0.1655 0.84299999
-0.02 0.1655 0.84299999
-0.0186 0.1655 0.84299999
-0.017100001 0.1653 0.84200001
-0.015699999 0.1655 0.84299999
-0.0127 0.16509999 0.84100002
-0.0113 0.1653 0.84200001
-0.0098000001 0.16509999 0.84100002
-0.0082999999 0.16509999 0.84100002
-0.0055 0.16590001 0.84500003
-0.0040000002 0.1666 0.84899998
0.00039999999 0.16760001 0.85399997
-0.164 0.1648 0.83200002
-0.1627 0.16500001 0.833
-0.1617 0.1653 0.83499998
-0.1604 0.1655 0.83600003
-0.1592 0.1657 0.83700001
-0.1577 0.1657 0.83700001
-0.1565 0.16590001 0.838
-0.1556 0.1665 0.84100002
-0.15260001 0.1665 0.84100002
-0.14659999 0.1663 0.83999997
-0.13869999 0.1655 0.83600003
-0.1371 0.1653 0.83499998
-0.1356 0.1653 0.83499998
-0.13420001 0.1653 0.83499998
-0.1327 0.1653 0.83499998
-0.1314 0.1655 0.83600003
-0.1302 0.1657 0.83700001
-0.1285 0.1655 0.83600003
-0.1269 0.1653 0.83499998
-0.12549999 0.1653 0.83499998
-0.1241 0.1653 0.83499998
-0.1209 0.16500001 0.833
-0.1193 0.1648 0.83200002
-0.118 0.16500001 0.833
-0.1165 0.16500001 0.833
-0.1152 0.1652 0.83399999
-0.1139 0.1653 0.83499998
-0.1125 0.1653 0.83499998
-0.1109 0.1652 0.83399999
-0.1047 0.1646 0.83099997
-0.1019 0.1646 0.83099997
-0.094499998 0.1644 0.82999998
-0.093199998 0.1646 0.83099997
-0.091899998 0.1648 0.83200002
-0.090400003 0.1648 0.83200002
-0.083899997 0.1661 0.83899999
-0.082400002 0.16590001 0.838
-0.080799997 0.1657 0.83700001
-0.079400003 0.1657 0.83700001
-0.077699997 0.1653 0.83499998
-0.076300003 0.1653 0.83499998
-0.071999997 0.1655 0.83600003
-0.070699997 0.1657 0.83700001
-0.069200002 0.1657 0.83700001
-0.067900002 0.16590001 0.838
-0.066500001 0.1661 0.83899999
-0.064999998 0.1661 0.83899999
-0.0634 0.1657 0.83700001
-0.061799999 0.1653 0.83499998
-0.057300001 0.1648 0.83200002
-0.055799998 0.1646 0.83099997
-0.054299999 0.1646 0.83099997
-0.052999999 0.1648 0.83200002
-0.051800001 0.1657 0.83700001
-0.050700001 0.16689999 0.84299999
-0.049400002 0.1673 0.84500003
-0.047899999 0.1673 0.84500003
-0.046300001 0.16689999 0.84299999
-0.044799998 0.1665 0.84100002
-0.043299999 0.1663 0.83999997
-0.0418 0.1663 0.83999997
-0.0403 0.1661 0.83899999
-0.038899999 0.1663 0.83999997
-0.0374 0.1663 0.83999997
-0.035999998 0.1665 0.84100002
-0.033199999 0.16689999 0.84299999
-0.0317 0.16689999 0.84299999
-0.030200001 0.16670001 0.84200001
-0.0287 0.1665 0.84100002
-0.0273 0.16670001 0.84200001
-0.025900001 0.16689999 0.84299999
-0.0244 0.16670001 0.84200001
-0.0229 0.1665 0.84100002
-0.021500001 0.1665 0.84100002
-0.0185 0.1663 0.83999997
-0.0113 0.16670001 0.84200001
-0.0098000001 0.1665 0.84100002
-0.0082999999 0.1665 0.84100002
-0.0068999999 0.1665 0.84100002
-0.0054000001 0.1671 0.84399998
-0.1656 0.1664 0.833
-0.16419999 0.1664 0.833
-0.1629 0.1666 0.83399999
-0.1621 0.1672 0.83700001
-0.1604 0.167 0.83600003
-0.1592 0.1672 0.83700001
-0.1577 0.1672 0.83700001
-0.1565 0.1674 0.838
-0.15539999 0.16779999 0.83999997
-0.1539 0.16779999 0.83999997
-0.14300001 0.167 0.83600003
-0.14139999 0.16680001 0.83499998
-0.14 0.16680001 0.83499998
-0.1371 0.16680001 0.83499998
-0.1356 0.16680001 0.83499998
-0.13420001 0.16680001 0.83499998
-0.1329 0.167 0.83600003
-0.13160001 0.1672 0.83700001
-0.1302 0.1672 0.83700001
-0.1287 0.1672 0.83700001
-0.1269 0.16680001 0.83499998
-0.12549999 0.16680001 0.83499998
-0.1239 0.1666 0.83399999
-0.1191 0.16599999 0.83099997
-0.1178 0.1662 0.83200002
-0.1164 0.1662 0.83200002
-0.1151 0.1664 0.833
-0.1138 0.1666 0.83399999
-0.1123 0.1666 0.83399999
-0.1109 0.1666 0.83399999
-0.1064 0.1664 0.833
-0.1049 0.1662 0.83200002
-0.1034 0.1662 0.83200002
-0.102 0.1662 0.83200002
-0.093599997 0.1666 0.83399999
-0.092 0.1664 0.833
-0.090599999 0.1664 0.833
-0.083800003 0.1674 0.838
-0.082400002 0.1674 0.838
-0.080799997 0.1672 0.83700001
-0.079400003 0.1672 0.83700001
-0.077699997 0.16680001 0.83499998
-0.076300003 0.16680001 0.83499998
-0.072099999 0.1672 0.83700001
-0.070699997 0.1672 0.83700001
-0.069200002 0.1672 0.83700001
-0.067900002 0.1674 0.838
-0.066500001 0.16760001 0.83899999
-0.064999998 0.16760001 0.83899999
-0.0634 0.1672 0.83700001
-0.061799999 0.16680001 0.83499998
-0.060199998 0.1664 0.833
-0.058699999 0.1662 0.83200002
-0.0572 0.16599999 0.83099997
-0.0557 0.16580001 0.82999998
-0.054299999 0.16599999 0.83099997
-0.052999999 0.1664 0.833
-0.051899999 0.1674 0.838
-0.050799999 0.16859999 0.84399998
-0.049400002 0.169 0.84600002
-0.047899999 0.1688 0.84500003
-0.046399999 0.16859999 0.84399998
-0.044799998 0.1682 0.84200001
-0.043299999 0.168 0.84100002
-0.041900001 0.168 0.84100002
-0.040399998 0.168 0.84100002
-0.038899999 0.168 0.84100002
-0.037500001 0.168 0.84100002
-0.035999998 0.168 0.84100002
-0.034699999 0.1684 0.84299999
-0.033199999 0.1684 0.84299999
-0.0317 0.1684 0.84299999
-0.030200001 0.1682 0.84200001
-0.0288 0.1682 0.84200001
-0.0274 0.1684 0.84299999
-0.025900001 0.1684 0.84299999
-0.0244 0.1682 0.84200001
-0.0229 0.16779999 0.83999997
-0.021400001 0.16760001 0.83899999
-0.0199 0.1672 0.83700001
-0.017000001 0.16680001 0.83499998
-0.0112 0.1674 0.838
-0.0098000001 0.1674 0.838
-0.0082999999 0.16760001 0.83899999
-0.0068999999 0.16779999 0.83999997
-0.0054000001 0.1682 0.84200001
-0.41800001 0.1769 0.87800002
-0.16580001 0.168 0.83399999
-0.1644 0.168 0.83399999
-0.1631 0.1682 0.83499998
-0.1621 0.16859999 0.83700001
-0.16060001 0.16859999 0.83700001
-0.1592 0.16859999 0.83700001
-0.1575 0.1684 0.83600003
-0.1561 0.1684 0.83600003
-0.1552 0.169 0.83899999
-0.1539 0.1693 0.83999997
-0.1523 0.169 0.83899999
-0.1463 0.1688 0.838
-0.14139999 0.1682 0.83499998
-0.1398 0.168 0.83399999
-0.1384 0.168 0.83399999
-0.13420001 0.1682 0.83499998
-0.1329 0.1684 0.83600003
-0.13160001 0.16859999 0.83700001
-0.1302 0.16859999 0.83700001
-0.1285 0.1684 0.83600003
-0.1269 0.1682 0.83499998
-0.12549999 0.1682 0.83499998
-0.1239 0.168 0.83399999
-0.1151 0.16779999 0.833
-0.1123 0.168 0.83399999
-0.1109 0.168 0.83399999
-0.1095 0.168 0.83399999
-0.1079 0.16779999 0.833
-0.1064 0.16779999 0.833
-0.105 0.16779999 0.833
-0.1034 0.16760001 0.83200002
-0.1021 0.16779999 0.833
-0.097800002 0.16779999 0.833
-0.094899997 0.16779999 0.833
-0.092 0.16779999 0.833
-0.090400003 0.16760001 0.83200002
-0.088200003 0.1688 0.838
-0.0854 0.169 0.83899999
-0.083800003 0.1688 0.838
-0.082500003 0.169 0.83899999
-0.081 0.169 0.83899999
-0.079599999 0.169 0.83899999
-0.0779 0.16859999 0.83700001
-0.074900001 0.1684 0.83600003
-0.073600002 0.16859999 0.83700001
-0.070699997 0.16859999 0.83700001
-0.069200002 0.16859999 0.83700001
-0.0678 0.16859999 0.83700001
-0.066500001 0.169 0.83899999
-0.064999998 0.169 0.83899999
-0.063500002 0.1688 0.838
-0.061799999 0.1682 0.83499998
-0.058800001 0.16779999 0.833
-0.057300001 0.16760001 0.83200002
-0.055799998 0.1674 0.83099997
-0.054400001 0.16760001 0.83200002
-0.052999999 0.16779999 0.833
-0.050700001 0.1699 0.84299999
-0.049400002 0.17030001 0.84500003
-0.047899999 0.17030001 0.84500003
-0.046399999 0.1701 0.84399998
-0.0449 0.1699 0.84299999
-0.043400001 0.1697 0.84200001
-0.041900001 0.16949999 0.84100002
-0.040399998 0.1693 0.83999997
-0.038899999 0.169 0.83899999
-0.0374 0.169 0.83899999
-0.035999998 0.1693 0.83999997
-0.034600001 0.16949999 0.84100002
-0.033199999 0.1697 0.84200001
-0.0317 0.1699 0.84299999
-0.030300001 0.1701 0.84399998
-0.0288 0.1701 0.84399998
-0.0274 0.17030001 0.84500003
-0.024499999 0.1701 0.84399998
-0.0229 0.1697 0.84200001
-0.0155 0.168 0.83399999
-0.0126 0.1684 0.83600003
-0.0112 0.16859999 0.83700001
-0.0098000001 0.1688 0.838
-0.0082999999 0.1693 0.83999997
-0.0068999999 0.1693 0.83999997
-0.0054000001 0.1697 0.84200001
-0.41800001 0.17839999 0.87800002
-0.1743 0.1707 0.83999997
-0.17020001 0.16949999 0.83399999
-0.16249999 0.1705 0.83899999
-0.1612 0.1707 0.83999997
-0.1595 0.1705 0.83899999
-0.1565 0.17030001 0.838
-0.1552 0.1705 0.83899999
-0.1521 0.17030001 0.838
-0.1477 0.17030001 0.838
-0.1459 0.1699 0.83600003
-0.1441 0.16949999 0.83399999
-0.1427 0.16949999 0.83399999
-0.14129999 0.16949999 0.83399999
-0.13959999 0.1693 0.833
-0.1382 0.1693 0.833
-0.13680001 0.1693 0.833
-0.1355 0.16949999 0.83399999
-0.13420001 0.1697 0.83499998
-0.1329 0.1699 0.83600003
-0.13160001 0.1701 0.83700001
-0.1302 0.1701 0.83700001
-0.1287 0.1701 0.83700001
-0.12710001 0.1699 0.83600003
-0.1257 0.1699 0.83600003
-0.1241 0.1697 0.83499998
-0.115 0.1691 0.83200002
-0.1137 0.1693 0.833
-0.1122 0.1693 0.833
-0.1108 0.1693 0.833
-0.1093 0.1693 0.833
-0.1079 0.1693 0.833
-0.1064 0.1693 0.833
-0.105 0.1693 0.833
-0.1007 0.1693 0.833
-0.099299997 0.16949999 0.83399999
-0.093999997 0.17030001 0.838
-0.092299998 0.1699 0.83600003
-0.090800002 0.1697 0.83499998
-0.0898 0.1705 0.83899999
-0.088299997 0.1705 0.83899999
-0.085299999 0.17030001 0.838
-0.083800003 0.17030001 0.838
-0.082699999 0.1709 0.84100002
-0.081200004 0.1709 0.84100002
-0.079800002 0.1709 0.84100002
-0.078299999 0.1709 0.84100002
-0.0722 0.17030001 0.838
-0.070699997 0.1701 0.83700001
-0.069200002 0.1701 0.83700001
-0.0678 0.1701 0.83700001
-0.066399999 0.17030001 0.838
-0.064999998 0.1705 0.83899999
-0.063500002 0.17030001 0.838
-0.061999999 0.1701 0.83700001
-0.0605 0.1699 0.83600003
-0.058899999 0.16949999 0.83399999
-0.057300001 0.1693 0.833
-0.055799998 0.1691 0.83200002
-0.054499999 0.1693 0.833
-0.053100001 0.16949999 0.83399999
-0.052000001 0.1707 0.83999997
-0.050700001 0.17129999 0.84299999
-0.047899999 0.1717 0.84500003
-0.0449 0.17129999 0.84299999
-0.043299999 0.1709 0.84100002
-0.0418 0.1707 0.83999997
-0.0403 0.1705 0.83899999
-0.038899999 0.1705 0.83899999
-0.0374 0.1705 0.83899999
-0.0359 0.1705 0.83899999
-0.034499999 0.1707 0.83999997
-0.033100002 0.1709 0.84100002
-0.0317 0.17129999 0.84299999
-0.030300001 0.17129999 0.84299999
-0.0288 0.1715 0.84399998
-0.0274 0.1715 0.84399998
-0.025900001 0.17129999 0.84299999
-0.0244 0.17110001 0.84200001
-0.0229 0.1705 0.83899999
-0.021299999 0.1697 0.83499998
-0.0198 0.1693 0.833
-0.0112 0.1701 0.83700001
-0.0098000001 0.17030001 0.838
-0.0082999999 0.1705 0.83899999
-0.0068999999 0.1707 0.83999997
-0.0040000002 0.1717 0.84500003
-0.0024999999 0.1719 0.84600002
-0.41499999 0.18000001 0.87800002
-0.17389999 0.1718 0.838
-0.1718 0.17110001 0.83499998
-0.17039999 0.17110001 0.83499998
-0.1689 0.17110001 0.83499998
-0.16140001 0.1724 0.84100002
-0.15970001 0.17219999 0.83999997
-0.15809999 0.17200001 0.83899999
-0.1565 0.1718 0.838
-0.149 0.1715 0.83700001
-0.14579999 0.17110001 0.83499998
-0.14399999 0.1707 0.833
-0.1425 0.1707 0.833
-0.1411 0.1707 0.833
-0.13959999 0.1707 0.833
-0.138 0.1705 0.83200002
-0.13680001 0.1707 0.833
-0.13420001 0.17110001 0.83499998
-0.1329 0.17129999 0.83600003
-0.13160001 0.1715 0.83700001
-0.1303 0.1718 0.838
-0.1287 0.1715 0.83700001
-0.12729999 0.1715 0.83700001
-0.1258 0.1715 0.83700001
-0.1244 0.1715 0.83700001
-0.1226 0.17110001 0.83499998
-0.1212 0.17110001 0.83499998
-0.1194 0.1707 0.833
-0.1137 0.1707 0.833
-0.1122 0.1707 0.833
-0.1108 0.1707 0.833
-0.1093 0.1707 0.833
-0.1079 0.1707 0.833
-0.1063 0.1705 0.83200002
-0.1049 0.1705 0.83200002
-0.1035 0.1707 0.833
-0.1022 0.1709 0.83399999
-0.1008 0.1709 0.83399999
-0.097999997 0.17110001 0.83499998
-0.093900003 0.1715 0.83700001
-0.092200004 0.17110001 0.83499998
-0.090800002 0.17110001 0.83499998
-0.089400001 0.17129999 0.83600003
-0.087899998 0.17110001 0.83499998
-0.086300001 0.1709 0.83399999
-0.085000001 0.17110001 0.83499998
-0.083700001 0.1715 0.83700001
-0.082599998 0.17219999 0.83999997
-0.081100002 0.17219999 0.83999997
-0.079599999 0.17200001 0.83899999
-0.078000002 0.1718 0.838
-0.0766 0.1718 0.838
-0.073700003 0.1718 0.838
-0.070600003 0.17129999 0.83600003
-0.0691 0.17129999 0.83600003
-0.0678 0.1715 0.83700001
-0.066299997 0.1715 0.83700001
-0.064900003 0.1715 0.83700001
-0.063500002 0.1718 0.838
-0.061999999 0.1718 0.838
-0.0605 0.1715 0.83700001
-0.059 0.17129999 0.83600003
-0.057500001 0.17110001 0.83499998
-0.056000002 0.17110001 0.83499998
-0.054699998 0.17129999 0.83600003
-0.053300001 0.1715 0.83700001
-0.052000001 0.17219999 0.83999997
-0.050700001 0.1728 0.84299999
-0.047899999 0.17299999 0.84399998
-0.046300001 0.1728 0.84299999
-0.044799998 0.1726 0.84200001
-0.043299999 0.1724 0.84100002
-0.0418 0.17219999 0.83999997
-0.0403 0.17200001 0.83899999
-0.038899999 0.17200001 0.83899999
-0.0374 0.17200001 0.83899999
-0.0359 0.17200001 0.83899999
-0.034499999 0.17219999 0.83999997
-0.033199999 0.1728 0.84299999
-0.030300001 0.17299999 0.84399998
-0.0288 0.17299999 0.84399998
-0.0274 0.1732 0.84500003
-0.025900001 0.17299999 0.84399998
-0.0244 0.1728 0.84299999
-0.0228 0.1718 0.838
-0.0198 0.1705 0.83200002
-0.0082999999 0.17200001 0.83899999
-0.0054000001 0.1728 0.84299999
-0.0040000002 0.17299999 0.84399998
-0.0024999999 0.1734 0.84600002
0.0015 0.13959999 0.68099999
-0.41549999 0.18170001 0.87900001
-0.1743 0.1736 0.83999997
-0.17219999 0.17299999 0.83700001
-0.17039999 0.1726 0.83499998
-0.1675 0.1726 0.83499998
-0.15989999 0.17380001 0.84100002
-0.1476 0.17299999 0.83700001
-0.14579999 0.1726 0.83499998
-0.1441 0.1724 0.83399999
-0.1425 0.17219999 0.833
-0.1411 0.17219999 0.833
-0.13950001 0.17200001 0.83200002
-0.1382 0.17219999 0.833
-0.13680001 0.17219999 0.833
-0.13420001 0.1726 0.83499998
-0.1332 0.1732 0.838
-0.1319 0.1734 0.83899999
-0.1303 0.1732 0.838
-0.1287 0.17299999 0.83700001
-0.12729999 0.17299999 0.83700001
-0.1258 0.17299999 0.83700001
-0.1244 0.17299999 0.83700001
-0.1215 0.17299999 0.83700001
-0.1138 0.1724 0.83399999
-0.1122 0.17219999 0.833
-0.1108 0.17219999 0.833
-0.1095 0.1724 0.83399999
-0.108 0.1724 0.83399999
-0.1064 0.17219999 0.833
-0.105 0.17219999 0.833
-0.1035 0.17219999 0.833
-0.097999997 0.1726 0.83499998
-0.096799999 0.17299999 0.83700001
-0.095299996 0.17299999 0.83700001
-0.093800001 0.1728 0.83600003
-0.092200004 0.1726 0.83499998
-0.090999998 0.17299999 0.83700001
-0.089900002 0.1736 0.83999997
-0.088200003 0.1732 0.838
-0.086499996 0.1728 0.83600003
-0.085000001 0.1726 0.83499998
-0.083700001 0.17299999 0.83700001
-0.082500003 0.1734 0.83899999
-0.081 0.1734 0.83899999
-0.079400003 0.17299999 0.83700001
-0.077799998 0.1728 0.83600003
-0.076499999 0.17299999 0.83700001
-0.073399998 0.1726 0.83499998
-0.071999997 0.1726 0.83499998
-0.0704 0.1724 0.83399999
-0.068999998 0.1724 0.83399999
-0.067599997 0.1726 0.83499998
-0.066200003 0.1728 0.83600003
-0.064900003 0.17299999 0.83700001
-0.0634 0.17299999 0.83700001
-0.061999999 0.17299999 0.83700001
-0.060600001 0.1732 0.838
-0.057700001 0.1732 0.838
-0.056200001 0.1732 0.838
-0.053399999 0.1734 0.83899999
-0.052000001 0.1736 0.83999997
-0.050700001 0.17399999 0.84200001
-0.0493 0.1744 0.84399998
-0.047899999 0.1744 0.84399998
-0.046300001 0.1742 0.84299999
-0.044799998 0.17380001 0.84100002
-0.043299999 0.1736 0.83999997
-0.0418 0.1736 0.83999997
-0.0403 0.1734 0.83899999
-0.038800001 0.1732 0.838
-0.0374 0.1734 0.83899999
-0.0359 0.1734 0.83899999
-0.034600001 0.17380001 0.84100002
-0.033199999 0.1742 0.84299999
-0.031800002 0.1744 0.84399998
-0.030300001 0.17470001 0.84500003
-0.0288 0.1744 0.84399998
-0.0274 0.17470001 0.84500003
-0.026000001 0.17470001 0.84500003
-0.0244 0.1742 0.84299999
-0.0229 0.1734 0.83899999
-0.021299999 0.1724 0.83399999
-0.0198 0.17200001 0.83200002
-0.016799999 0.17129999 0.829
-0.0154 0.1718 0.83099997
-0.014 0.17200001 0.83200002
-0.0126 0.1724 0.83399999
-0.0112 0.1726 0.83499998
-0.0098000001 0.17299999 0.83700001
-0.0082999999 0.1734 0.83899999
-0.0068999999 0.17380001 0.84100002
-0.0054000001 0.1744 0.84399998
-0.0040000002 0.17470001 0.84500003
-0.0024999999 0.1751 0.847
-0.17219999 0.1744 0.83700001
-0.17039999 0.17399999 0.83499998
-0.1673 0.17380001 0.83399999
-0.1603 0.17569999 0.84299999
-0.147 0.17380001 0.83399999
-0.14560001 0.17380001 0.83399999
-0.14399999 0.1736 0.833
-0.1425 0.1736 0.833
-0.1411 0.1736 0.833
-0.13959999 0.1736 0.833
-0.1384 0.17380001 0.83399999
-0.13689999 0.17380001 0.83399999
-0.1356 0.17399999 0.83499998
-0.1345 0.1744 0.83700001
-0.1332 0.17470001 0.838
-0.1319 0.1749 0.83899999
-0.1303 0.17470001 0.838
-0.1287 0.1744 0.83700001
-0.12729999 0.1744 0.83700001
-0.1258 0.1744 0.83700001
-0.1244 0.1744 0.83700001
-0.1152 0.17380001 0.83399999
-0.1138 0.17380001 0.83399999
-0.1122 0.1736 0.833
-0.1108 0.1736 0.833
-0.1093 0.1736 0.833
-0.1079 0.1736 0.833
-0.1064 0.1736 0.833
-0.105 0.1736 0.833
-0.1022 0.17380001 0.83399999
-0.1007 0.1736 0.833
-0.095299996 0.1744 0.83700001
-0.093699999 0.17399999 0.83499998
-0.0911 0.17470001 0.838
-0.089599997 0.17470001 0.838
-0.088100001 0.1744 0.83700001
-0.086400002 0.17399999 0.83499998
-0.085000001 0.17399999 0.83499998
-0.0836 0.1742 0.83600003
-0.0823 0.1744 0.83700001
-0.080799997 0.1744 0.83700001
-0.0792 0.17399999 0.83499998
-0.077699997 0.17399999 0.83499998
-0.076300003 0.17399999 0.83499998
-0.074900001 0.1742 0.83600003
-0.071900003 0.17380001 0.83399999
-0.0704 0.17380001 0.83399999
-0.068999998 0.17380001 0.83399999
-0.067500003 0.17380001 0.83399999
-0.066200003 0.17399999 0.83499998
-0.0647 0.17399999 0.83499998
-0.063299999 0.17399999 0.83499998
-0.061999999 0.1744 0.83700001
-0.060600001 0.17470001 0.838
-0.0592 0.1749 0.83899999
-0.057799999 0.1751 0.83999997
-0.056600001 0.17569999 0.84299999
-0.055100001 0.17569999 0.84299999
-0.052099999 0.1753 0.84100002
-0.049199998 0.1753 0.84100002
-0.047699999 0.1753 0.84100002
-0.044599999 0.17470001 0.838
-0.043200001 0.17470001 0.838
-0.041700002 0.17470001 0.838
-0.0403 0.17470001 0.838
-0.038800001 0.17470001 0.838
-0.0374 0.1749 0.83899999
-0.0359 0.1749 0.83899999
-0.034600001 0.1753 0.84100002
-0.033199999 0.17569999 0.84299999
-0.031800002 0.1759 0.84399998
-0.030300001 0.1759 0.84399998
-0.0288 0.1759 0.84399998
-0.0274 0.1761 0.84500003
-0.026000001 0.1761 0.84500003
-0.0244 0.17569999 0.84299999
-0.0229 0.1749 0.83899999
-0.021299999 0.17399999 0.83499998
-0.0198 0.1736 0.833
-0.0112 0.17399999 0.83499998
-0.0098000001 0.17470001 0.838
-0.0082999999 0.1753 0.84100002
-0.0068999999 0.17569999 0.84299999
-0.0054000001 0.1759 0.84399998
-0.0040000002 0.1761 0.84500003
-0.41800001 0.18449999 0.87800002
-0.1726 0.1763 0.83899999
-0.1706 0.17569999 0.83600003
-0.16069999 0.1776 0.84500003
-0.147 0.1753 0.83399999
-0.14560001 0.1753 0.83399999
-0.14399999 0.1751 0.833
-0.1425 0.1751 0.833
-0.1411 0.1751 0.833
-0.13959999 0.1751 0.833
-0.1382 0.1751 0.833
-0.13689999 0.1753 0.83399999
-0.1358 0.17569999 0.83600003
-0.13349999 0.17649999 0.83999997
-0.1321 0.17649999 0.83999997
-0.1305 0.1763 0.83899999
-0.1287 0.1759 0.83700001
-0.12729999 0.1759 0.83700001
-0.1258 0.1759 0.83700001
-0.1185 0.1759 0.83700001
-0.1137 0.1751 0.833
-0.1122 0.1751 0.833
-0.1108 0.1751 0.833
-0.1093 0.1751 0.833
-0.1079 0.1751 0.833
-0.1063 0.17479999 0.83200002
-0.105 0.1751 0.833
-0.1007 0.1751 0.833
-0.093900003 0.1759 0.83700001
-0.092399999 0.1759 0.83700001
-0.0911 0.1761 0.838
-0.089500003 0.1759 0.83700001
-0.087899998 0.17550001 0.83499998
-0.086300001 0.1753 0.83399999
-0.084899999 0.1753 0.83399999
-0.083499998 0.17550001 0.83499998
-0.082199998 0.17569999 0.83600003
-0.080700003 0.17569999 0.83600003
-0.0792 0.17550001 0.83499998
-0.077699997 0.1753 0.83399999
-0.076300003 0.17550001 0.83499998
-0.073299997 0.1753 0.83399999
-0.071800001 0.1751 0.833
-0.070299998 0.1751 0.833
-0.068899997 0.1751 0.833
-0.067500003 0.1753 0.83399999
-0.066100001 0.1753 0.83399999
-0.064599998 0.1753 0.83399999
-0.063299999 0.17550001 0.83499998
-0.061999999 0.1759 0.83700001
-0.060600001 0.1761 0.838
-0.059300002 0.17649999 0.83999997
-0.0579 0.1767 0.84100002
-0.056600001 0.1772 0.84299999
-0.055100001 0.1772 0.84299999
-0.0537 0.1772 0.84299999
-0.052099999 0.1767 0.84100002
-0.0506 0.17649999 0.83999997
-0.049199998 0.1767 0.84100002
-0.047699999 0.1767 0.84100002
-0.0462 0.17649999 0.83999997
-0.0447 0.1763 0.83899999
-0.043200001 0.1763 0.83899999
-0.0418 0.1763 0.83899999
-0.0403 0.1763 0.83899999
-0.038899999 0.1763 0.83899999
-0.0374 0.17649999 0.83999997
-0.035999998 0.1767 0.84100002
-0.034600001 0.1769 0.84200001
-0.033199999 0.17739999 0.84399998
-0.031800002 0.1776 0.84500003
-0.030300001 0.17739999 0.84399998
-0.0288 0.17739999 0.84399998
-0.0274 0.17739999 0.84399998
-0.025900001 0.17739999 0.84399998
-0.0244 0.1772 0.84299999
-0.0229 0.17649999 0.83999997
-0.021299999 0.17569999 0.83600003
-0.0198 0.1753 0.83399999
-0.0155 0.1753 0.83399999
-0.0141 0.1753 0.83399999
-0.0126 0.17550001 0.83499998
-0.0112 0.1759 0.83700001
-0.0098000001 0.1763 0.83899999
-0.0083999997 0.1769 0.84200001
-0.0068999999 0.17739999 0.84399998
-0.0055 0.1776 0.84500003
-0.1733 0.17839999 0.84200001
-0.171 0.1776 0.838
-0.1689 0.1769 0.83499998
-0.1605 0.1788 0.84399998
-0.1472 0.1769 0.83499998
-0.14560001 0.1767 0.83399999
-0.1427 0.1767 0.83399999
-0.1411 0.17649999 0.833
-0.1398 0.1767 0.83399999
-0.1384 0.1767 0.83399999
-0.1337 0.17820001 0.84100002
-0.1321 0.178 0.83999997
-0.1305 0.1778 0.83899999
-0.12890001 0.1776 0.838
-0.12729999 0.17730001 0.83700001
-0.1258 0.17730001 0.83700001
-0.1245 0.1776 0.838
-0.123 0.1776 0.838
-0.1216 0.1776 0.838
-0.1154 0.1769 0.83499998
-0.1138 0.1767 0.83399999
-0.1122 0.17649999 0.833
-0.1108 0.17649999 0.833
-0.1093 0.17649999 0.833
-0.1064 0.17649999 0.833
-0.093699999 0.1769 0.83499998
-0.092299998 0.1771 0.83600003
-0.090800002 0.1769 0.83499998
-0.089199997 0.1767 0.83399999
-0.087800004 0.1767 0.83399999
-0.086199999 0.17649999 0.833
-0.084899999 0.1767 0.83399999
-0.083400004 0.1767 0.83399999
-0.082099997 0.1769 0.83499998
-0.080600001 0.1769 0.83499998
-0.079099998 0.1767 0.83399999
-0.077699997 0.1767 0.83399999
-0.076200001 0.1767 0.83399999
-0.0748 0.1767 0.83399999
-0.073200002 0.17649999 0.833
-0.071800001 0.17649999 0.833
-0.068899997 0.17649999 0.833
-0.067500003 0.1767 0.83399999
-0.066100001 0.1767 0.83399999
-0.064599998 0.1767 0.83399999
-0.063299999 0.1769 0.83499998
-0.060699999 0.178 0.83999997
-0.0594 0.17820001 0.84100002
-0.057999998 0.1786 0.84299999
-0.056600001 0.1788 0.84399998
-0.055100001 0.1786 0.84299999
-0.053599998 0.17839999 0.84200001
-0.051899999 0.1778 0.83899999
-0.050500002 0.1778 0.83899999
-0.048999999 0.1778 0.83899999
-0.047600001 0.1778 0.83899999
-0.046100002 0.1778 0.83899999
-0.043200001 0.1776 0.838
-0.041700002 0.1776 0.838
-0.0403 0.1776 0.838
-0.038899999 0.1778 0.83899999
-0.0374 0.178 0.83999997
-0.035999998 0.17820001 0.84100002
-0.034699999 0.1786 0.84299999
-0.033199999 0.1788 0.84399998
-0.031800002 0.1788 0.84399998
-0.030300001 0.1788 0.84399998
-0.0288 0.1788 0.84399998
-0.0274 0.1788 0.84399998
-0.026000001 0.17900001 0.84500003
-0.024499999 0.1788 0.84399998
-0.0229 0.17820001 0.84100002
-0.021400001 0.1778 0.83899999
-0.0156 0.17730001 0.83700001
-0.0141 0.1776 0.838
-0.0127 0.1778 0.83899999
-0.0112 0.178 0.83999997
-0.0098000001 0.17820001 0.84100002
-0.0083999997 0.1788 0.84399998
-0.0068999999 0.17900001 0.84500003
-0.1737 0.1803 0.84399998
-0.1714 0.1794 0.83999997
-0.1691 0.1786 0.83600003
-0.1673 0.17820001 0.83399999
-0.16580001 0.17820001 0.83399999
-0.1552 0.17919999 0.83899999
-0.14560001 0.17820001 0.83399999
-0.1427 0.17820001 0.83399999
-0.14129999 0.17820001 0.83399999
-0.14 0.17839999 0.83499998
-0.1389 0.1788 0.83700001
-0.1321 0.1794 0.83999997
-0.1303 0.17900001 0.838
-0.1285 0.1786 0.83600003
-0.12710001 0.1786 0.83600003
-0.1258 0.1788 0.83700001
-0.1245 0.17900001 0.838
-0.1138 0.17820001 0.83399999
-0.1123 0.17820001 0.83399999
-0.1109 0.17820001 0.83399999
-0.1093 0.1779 0.833
-0.093699999 0.17839999 0.83499998
-0.092299998 0.1786 0.83600003
-0.090800002 0.17839999 0.83499998
-0.089199997 0.17820001 0.83399999
-0.087700002 0.1779 0.833
-0.086199999 0.1779 0.833
-0.084799998 0.1779 0.833
-0.083400004 0.17820001 0.83399999
-0.082000002 0.17820001 0.83399999
-0.080499999 0.17820001 0.83399999
-0.079000004 0.1779 0.833
-0.077600002 0.1779 0.833
-0.076099999 0.1779 0.833
-0.074699998 0.1779 0.833
-0.073200002 0.1779 0.833
-0.071800001 0.1779 0.833
-0.070299998 0.1779 0.833
-0.068999998 0.17820001 0.83399999
-0.067500003 0.17820001 0.83399999
-0.066100001 0.17820001 0.83399999
-0.0647 0.17839999 0.83499998
-0.063299999 0.1786 0.83600003
-0.061999999 0.1788 0.83700001
-0.060699999 0.17919999 0.83899999
-0.059300002 0.1794 0.83999997
-0.057999998 0.17990001 0.84200001
-0.056600001 0.18009999 0.84299999
-0.055100001 0.18009999 0.84299999
-0.053599998 0.17990001 0.84200001
-0.051899999 0.17919999 0.83899999
-0.0504 0.17900001 0.838
-0.046100002 0.17900001 0.838
-0.044599999 0.17900001 0.838
-0.043200001 0.17900001 0.838
-0.041700002 0.17900001 0.838
-0.0403 0.17900001 0.838
-0.038899999 0.1794 0.83999997
-0.037500001 0.17990001 0.84200001
-0.0361 0.18009999 0.84299999
-0.034699999 0.18009999 0.84299999
-0.033300001 0.1805 0.84500003
-0.031800002 0.1805 0.84500003
-0.030300001 0.1803 0.84399998
-0.0288 0.1803 0.84399998
-0.0274 0.18009999 0.84299999
-0.025900001 0.18009999 0.84299999
-0.0244 0.17990001 0.84200001
-0.0229 0.1794 0.83999997
-0.0141 0.17919999 0.83899999
-0.0127 0.17919999 0.83899999
-0.0112 0.1794 0.83999997
-0.0098000001 0.1797 0.84100002
-0.0068999999 0.1805 0.84500003
-0.17550001 0.1822 0.84600002
-0.1706 0.18000001 0.83600003
-0.16850001 0.1794 0.833
-0.16689999 0.17919999 0.83200002
-0.1517 0.18000001 0.83600003
-0.1443 0.1798 0.83499998
-0.1429 0.1798 0.83499998
-0.1416 0.18000001 0.83600003
-0.14049999 0.1805 0.838
-0.13940001 0.18089999 0.83999997
-0.13510001 0.1811 0.84100002
-0.1302 0.1803 0.83700001
-0.1269 0.1798 0.83499998
-0.12549999 0.1798 0.83499998
-0.1242 0.18000001 0.83600003
-0.1141 0.18000001 0.83600003
-0.1126 0.18000001 0.83600003
-0.1112 0.18000001 0.83600003
-0.095200002 0.18000001 0.83600003
-0.093699999 0.1798 0.83499998
-0.092200004 0.1798 0.83499998
-0.090800002 0.1798 0.83499998
-0.089199997 0.1796 0.83399999
-0.087700002 0.1794 0.833
-0.086199999 0.1794 0.833
-0.084799998 0.1794 0.833
-0.083300002 0.1794 0.833
-0.082000002 0.1796 0.83399999
-0.080399998 0.1794 0.833
-0.079000004 0.1794 0.833
-0.074600004 0.17919999 0.83200002
-0.073100001 0.17919999 0.83200002
-0.071699999 0.17919999 0.83200002
-0.070299998 0.1794 0.833
-0.068999998 0.1796 0.83399999
-0.067500003 0.1796 0.83399999
-0.066100001 0.1796 0.83399999
-0.0647 0.1798 0.83499998
-0.063299999 0.18000001 0.83600003
-0.061999999 0.1803 0.83700001
-0.060600001 0.1805 0.838
-0.059300002 0.18089999 0.83999997
-0.0579 0.1811 0.84100002
-0.056499999 0.1813 0.84200001
-0.055 0.1813 0.84200001
-0.053599998 0.1813 0.84200001
-0.052000001 0.18089999 0.83999997
-0.0506 0.18089999 0.83999997
-0.046100002 0.1807 0.83899999
-0.0447 0.1807 0.83899999
-0.043200001 0.1805 0.838
-0.0418 0.1807 0.83899999
-0.040399998 0.18089999 0.83999997
-0.038899999 0.1811 0.84100002
-0.037599999 0.1815 0.84299999
-0.036200002 0.18179999 0.84399998
-0.034699999 0.18179999 0.84399998
-0.033300001 0.182 0.84500003
-0.031800002 0.18179999 0.84399998
-0.030300001 0.1815 0.84299999
-0.0288 0.1815 0.84299999
-0.0274 0.1815 0.84299999
-0.025900001 0.1813 0.84200001
-0.0244 0.1811 0.84100002
-0.0229 0.18089999 0.83999997
-0.021400001 0.18089999 0.83999997
-0.017100001 0.1811 0.84100002
-0.0156 0.1811 0.84100002
-0.0127 0.18089999 0.83999997
-0.0112 0.18089999 0.83999997
-0.0083999997 0.1815 0.84299999
-0.39579999 0.1902 0.87599999
-0.1804 0.18709999 0.86199999
-0.1762 0.18430001 0.84899998
-0.17200001 0.1815 0.83600003
-0.16949999 0.1804 0.83099997
-0.1679 0.1802 0.82999998
-0.1663 0.18000001 0.829
-0.1648 0.18000001 0.829
-0.1517 0.1815 0.83600003
-0.14560001 0.1811 0.83399999
-0.1441 0.1811 0.83399999
-0.1429 0.1813 0.83499998
-0.1418 0.18170001 0.83700001
-0.134 0.183 0.84299999
-0.1123 0.1811 0.83399999
-0.098200001 0.18170001 0.83700001
-0.096699998 0.1815 0.83600003
-0.095200002 0.1815 0.83600003
-0.093699999 0.1813 0.83499998
-0.092200004 0.1813 0.83499998
-0.090700001 0.1811 0.83399999
-0.089199997 0.1811 0.83399999
-0.087700002 0.18080001 0.833
-0.086199999 0.18080001 0.833
-0.084799998 0.18080001 0.833
-0.083300002 0.18080001 0.833
-0.081900001 0.18080001 0.833
-0.080399998 0.18080001 0.833
-0.079000004 0.18080001 0.833
-0.077500001 0.1806 0.83200002
-0.076099999 0.18080001 0.833
-0.074699998 0.18080001 0.833
-0.073200002 0.18080001 0.833
-0.071800001 0.18080001 0.833
-0.0704 0.1811 0.83399999
-0.0691 0.1813 0.83499998
-0.066299997 0.18170001 0.83700001
-0.064999998 0.18189999 0.838
-0.063500002 0.18189999 0.838
-0.061999999 0.18189999 0.838
-0.060600001 0.18189999 0.838
-0.059300002 0.1824 0.83999997
-0.0579 0.18260001 0.84100002
-0.056400001 0.18260001 0.84100002
-0.055 0.18260001 0.84100002
-0.053599998 0.18279999 0.84200001
-0.052099999 0.18260001 0.84100002
-0.0506 0.18260001 0.84100002
-0.0491 0.1824 0.83999997
-0.047600001 0.1821 0.83899999
-0.046100002 0.1821 0.83899999
-0.0447 0.1821 0.83899999
-0.043200001 0.18189999 0.838
-0.0418 0.1821 0.83899999
-0.038899999 0.1824 0.83999997
-0.037500001 0.18260001 0.84100002
-0.0361 0.183 0.84299999
-0.034699999 0.183 0.84299999
-0.033199999 0.1832 0.84399998
-0.0317 0.183 0.84299999
-0.030200001 0.18260001 0.84100002
-0.0287 0.18260001 0.84100002
-0.0273 0.18260001 0.84100002
-0.025800001 0.18260001 0.84100002
-0.021500001 0.18279999 0.84200001
-0.02 0.183 0.84299999
-0.015699999 0.1832 0.84399998
-0.0142 0.183 0.84299999
-0.0127 0.18279999 0.84200001
-0.0113 0.18279999 0.84200001
-0.0098000001 0.1832 0.84399998
-0.0083999997 0.18340001 0.84500003
-0.0068999999 0.1837 0.84600002
-0.39579999 0.1917 0.87599999
-0.1848 0.1917 0.87599999
-0.16869999 0.18099999 0.82700002
-0.1671 0.1807 0.82599998
-0.1665 0.1816 0.82999998
-0.1499 0.1825 0.83399999
-0.1485 0.1825 0.83399999
-0.1469 0.1823 0.833
-0.14560001 0.1825 0.83399999
-0.1441 0.1825 0.83399999
-0.1429 0.18269999 0.83499998
-0.1226 0.18269999 0.83499998
-0.1184 0.1829 0.83600003
-0.1154 0.18269999 0.83499998
-0.1138 0.1825 0.83399999
-0.1 0.1838 0.83999997
-0.098399997 0.18340001 0.838
-0.093800001 0.1829 0.83600003
-0.092299998 0.1829 0.83600003
-0.090700001 0.1825 0.83399999
-0.089199997 0.1825 0.83399999
-0.0876 0.1821 0.83200002
-0.086099997 0.1821 0.83200002
-0.084700003 0.1821 0.83200002
-0.0832 0.1821 0.83200002
-0.080399998 0.1823 0.833
-0.079000004 0.1823 0.833
-0.076099999 0.1823 0.833
-0.074699998 0.1823 0.833
-0.073299997 0.1825 0.83399999
-0.071800001 0.1823 0.833
-0.0704 0.1825 0.83399999
-0.067900002 0.18340001 0.838
-0.066500001 0.18359999 0.83899999
-0.065099999 0.1838 0.83999997
-0.063600004 0.18359999 0.83899999
-0.061999999 0.18340001 0.838
-0.060600001 0.18340001 0.838
-0.059300002 0.1838 0.83999997
-0.057799999 0.1838 0.83999997
-0.056400001 0.1838 0.83999997
-0.054900002 0.1838 0.83999997
-0.053599998 0.1842 0.84200001
-0.052200001 0.18449999 0.84299999
-0.050700001 0.18449999 0.84299999
-0.0491 0.1838 0.83999997
-0.047600001 0.1838 0.83999997
-0.0462 0.1838 0.83999997
-0.044799998 0.184 0.84100002
-0.043200001 0.18359999 0.83899999
-0.0418 0.18359999 0.83899999
-0.040399998 0.1838 0.83999997
-0.038899999 0.1838 0.83999997
-0.037500001 0.184 0.84100002
-0.0361 0.1842 0.84200001
-0.034699999 0.18449999 0.84299999
-0.033199999 0.18449999 0.84299999
-0.0317 0.18449999 0.84299999
-0.030200001 0.1838 0.83999997
-0.0287 0.184 0.84100002
-0.0273 0.184 0.84100002
-0.025800001 0.184 0.84100002
-0.0244 0.184 0.84100002
-0.021500001 0.18449999 0.84299999
-0.020099999 0.1847 0.84399998
-0.0142 0.1847 0.84399998
-0.0113 0.1842 0.84200001
-0.0098000001 0.1847 0.84399998
-0.0083999997 0.1849 0.84500003
-0.0068999999 0.18529999 0.847
-0.39669999 0.1936 0.87800002
-0.1534 0.1846 0.83700001
-0.15189999 0.1846 0.83700001
-0.1503 0.18440001 0.83600003
-0.1485 0.1839 0.83399999
-0.147 0.1839 0.83399999
-0.14579999 0.1842 0.83499998
-0.1443 0.1842 0.83499998
-0.1432 0.1846 0.83700001
-0.14229999 0.18529999 0.83999997
-0.14129999 0.1859 0.84299999
-0.1152 0.1839 0.83399999
-0.1138 0.1839 0.83399999
-0.1016 0.1855 0.84100002
-0.1 0.18529999 0.83999997
-0.098399997 0.1848 0.838
-0.096900001 0.1848 0.838
-0.0955 0.1848 0.838
-0.093999997 0.1848 0.838
-0.092399999 0.1846 0.83700001
-0.090800002 0.1842 0.83499998
-0.089199997 0.1839 0.83399999
-0.087700002 0.1837 0.833
-0.086099997 0.18350001 0.83200002
-0.084700003 0.18350001 0.83200002
-0.0832 0.18350001 0.83200002
-0.081900001 0.1837 0.833
-0.080499999 0.1839 0.83399999
-0.079000004 0.1837 0.833
-0.077699997 0.1839 0.83399999
-0.076200001 0.1839 0.83399999
-0.074699998 0.1837 0.833
-0.073200002 0.1837 0.833
-0.071900003 0.1839 0.83399999
-0.0704 0.1839 0.83399999
-0.067900002 0.1848 0.838
-0.063600004 0.185 0.83899999
-0.061999999 0.1846 0.83700001
-0.059099998 0.1848 0.838
-0.057700001 0.1848 0.838
-0.056200001 0.1848 0.838
-0.054900002 0.185 0.83899999
-0.0535 0.18529999 0.83999997
-0.052200001 0.1859 0.84299999
-0.050700001 0.1859 0.84299999
-0.049199998 0.1857 0.84200001
-0.047800001 0.1857 0.84200001
-0.046300001 0.1859 0.84299999
-0.0449 0.1859 0.84299999
-0.043299999 0.1855 0.84100002
-0.041900001 0.1855 0.84100002
-0.0405 0.1857 0.84200001
-0.039000001 0.1857 0.84200001
-0.0361 0.1859 0.84299999
-0.034699999 0.1859 0.84299999
-0.033199999 0.18610001 0.84399998
-0.0317 0.1859 0.84299999
-0.0287 0.18529999 0.83999997
-0.0273 0.1855 0.84100002
-0.025800001 0.1855 0.84100002
-0.021500001 0.18610001 0.84399998
-0.0113 0.1855 0.84100002
-0.0098000001 0.1859 0.84299999
-0.0083999997 0.1864 0.84500003
-0.0068999999 0.1866 0.84600002
-0.1532 0.1858 0.83600003
-0.1516 0.1856 0.83499998
-0.1499 0.18539999 0.83399999
-0.1485 0.18539999 0.83399999
-0.147 0.18539999 0.83399999
-0.14560001 0.18539999 0.83399999
-0.1445 0.1858 0.83600003
-0.1437 0.1867 0.83999997
-0.1426 0.18719999 0.84200001
-0.1415 0.1876 0.84399998
-0.1332 0.18629999 0.838
-0.1284 0.1856 0.83499998
-0.1257 0.1858 0.83600003
-0.1183 0.1856 0.83499998
-0.1152 0.18539999 0.83399999
-0.1016 0.1869 0.84100002
-0.0999 0.1865 0.83899999
-0.098399997 0.18629999 0.838
-0.096799999 0.18610001 0.83700001
-0.095299996 0.18610001 0.83700001
-0.093900003 0.18610001 0.83700001
-0.092399999 0.18610001 0.83700001
-0.090899996 0.1858 0.83600003
-0.089299999 0.1856 0.83499998
-0.087800004 0.18539999 0.83399999
-0.086199999 0.18520001 0.833
-0.084799998 0.18520001 0.833
-0.083400004 0.18539999 0.83399999
-0.080600001 0.1856 0.83499998
-0.0792 0.1856 0.83499998
-0.077799998 0.1858 0.83600003
-0.076499999 0.18610001 0.83700001
-0.0748 0.18539999 0.83399999
-0.073299997 0.18539999 0.83399999
-0.071900003 0.18539999 0.83399999
-0.070500001 0.1856 0.83499998
-0.0691 0.1858 0.83600003
