ply
format ascii 1.0
comment PCL generated
element vertex 1511
property float x
property float y
property float z
element camera 0
property float view_px
property float view_py
property float view_pz
property float x_axisx
property float x_axisy
property float x_axisz
property float y_axisx
property float y_axisy
property float y_axisz
property float z_axisx
property float z_axisy
property float z_axisz
property float focal
property float scalex
property float scaley
property float centerx
property float centery
property int viewportx
property int viewporty
property float k1
property float k2
end_header
0.045499999 -0.0027000001 0.89600003
0.0469 -0.0027000001 0.89399999
0.0484 -0.0027000001 0.89300001
0.066799998 -0.0027000001 0.88999999
0.068300001 -0.0027000001 0.88999999
0.069799997 -0.0027000001 0.88999999
0.071500003 -0.0027000001 0.89099997
0.072999999 -0.0027000001 0.89099997
0.074900001 -0.0027000001 0.89499998
0.076700002 -0.0027000001 0.898
0.078299999 -0.0027000001 0.89899999
0.079899997 -0.0027000001 0.89899999
0.081500001 -0.0027000001 0.89899999
0.082900003 -0.0027000001 0.898
0.084299996 -0.0027000001 0.89600003
0.085600004 -0.0027000001 0.89399999
0.087099999 -0.0027000001 0.89300001
0.088500001 -0.0027000001 0.89200002
0.090000004 -0.0027000001 0.89099997
0.096000001 -0.0027000001 0.889
0.097400002 -0.0027000001 0.88800001
0.098800004 -0.0027000001 0.88700002
0.1003 -0.0027000001 0.88700002
0.1017 -0.0027000001 0.88499999
0.1032 -0.0027000001 0.88499999
0.1047 -0.0027000001 0.88499999
0.1063 -0.0027000001 0.88499999
0.108 -0.0027000001 0.88700002
0.1098 -0.0027000001 0.889
0.1115 -0.0027000001 0.88999999
0.1133 -0.0027000001 0.89200002
0.1148 -0.0027000001 0.89200002
0.1162 -0.0027000001 0.89099997
0.1179 -0.0027000001 0.89200002
0.1193 -0.0027000001 0.89099997
0.1209 -0.0027000001 0.89099997
0.1224 -0.0027000001 0.89099997
0.1238 -0.0027000001 0.88999999
0.12549999 -0.0027000001 0.89099997
0.12710001 -0.0027000001 0.89099997
0.1286 -0.0027000001 0.89099997
0.1301 -0.0027000001 0.89099997
0.1318 -0.0027000001 0.89200002
0.13349999 -0.0027000001 0.89300001
0.1354 -0.0027000001 0.89499998
0.13689999 -0.0027000001 0.89499998
0.13860001 -0.0027000001 0.89600003
0.14049999 -0.0027000001 0.898
0.14210001 -0.0027000001 0.898
0.1452 -0.0027000001 0.898
0.1469 -0.0027000001 0.89899999
0.1488 -0.0027000001 0.90100002
0.1503 -0.0027000001 0.90100002
0.154 -0.0027000001 0.90399998
0.1585 -0.0027000001 0.903
0.15970001 -0.0027000001 0.90100002
0.1613 -0.0027000001 0.90100002
0.1627 -0.0027000001 0.89999998
0.164 -0.0027000001 0.89899999
0.16580001 -0.0027000001 0.89999998
0.1673 -0.0027000001 0.89999998
0.1689 -0.0027000001 0.89999998
0.1701 -0.0027000001 0.898
0.1716 -0.0027000001 0.898
0.1732 -0.0027000001 0.898
0.1749 -0.0027000001 0.89899999
0.1767 -0.0027000001 0.89999998
0.17839999 -0.0027000001 0.90100002
0.18000001 -0.0027000001 0.90100002
0.1816 -0.0027000001 0.90100002
0.18350001 -0.0027000001 0.903
0.1849 -0.0027000001 0.90200001
0.1867 -0.0027000001 0.903
0.1882 -0.0027000001 0.903
0.19 -0.0027000001 0.90399998
0.19220001 -0.0027000001 0.90700001
-0.3682 -0.0011 0.87900001
-0.366 -0.0011 0.88099998
-0.36449999 -0.0011 0.88099998
-0.34689999 -0.0011 0.87900001
-0.34619999 -0.0011 0.88099998
-0.34470001 -0.0011 0.88099998
-0.34119999 -0.0011 0.88
-0.34009999 -0.0011 0.88099998
-0.3247 -0.0011 0.88499999
-0.32089999 -0.0011 0.88700002
-0.3026 -0.0011 0.88300002
-0.30070001 -0.0011 0.88200003
-0.29879999 -0.0011 0.88099998
-0.29730001 -0.0011 0.88099998
-0.2951 -0.0011 0.87900001
-0.2933 -0.0011 0.87800002
-0.29089999 -0.0011 0.88
-0.29030001 -0.0011 0.88300002
-0.27880001 -0.0011 0.88999999
-0.27720001 -0.0011 0.88999999
-0.2735 -0.0011 0.88800001
-0.2701 -0.0011 0.88700002
-0.26859999 -0.0011 0.88700002
-0.2658 -0.0011 0.88800001
-0.26460001 -0.0011 0.889
-0.2633 -0.0011 0.88999999
-0.26179999 -0.0011 0.88999999
-0.26030001 -0.0011 0.88999999
-0.25479999 -0.0011 0.88700002
-0.25319999 -0.0011 0.88700002
-0.24959999 -0.0011 0.88499999
-0.2481 -0.0011 0.88499999
-0.2462 -0.0011 0.884
-0.2447 -0.0011 0.884
-0.2432 -0.0011 0.884
-0.24160001 -0.0011 0.884
-0.2401 -0.0011 0.884
-0.23729999 -0.0011 0.88499999
-0.236 -0.0011 0.88599998
-0.2348 -0.0011 0.88700002
-0.22660001 -0.0011 0.88499999
-0.22480001 -0.0011 0.884
-0.223 -0.0011 0.88300002
-0.22149999 -0.0011 0.88300002
-0.2199 -0.0011 0.88300002
-0.2184 -0.0011 0.88300002
-0.21709999 -0.0011 0.884
-0.2156 -0.0011 0.884
-0.21359999 -0.0011 0.88200003
-0.2121 -0.0011 0.88200003
-0.2103 -0.0011 0.88099998
-0.2085 -0.0011 0.88
-0.20479999 -0.0011 0.87699997
-0.20299999 -0.0011 0.87599999
-0.20200001 -0.0011 0.87800002
-0.2009 -0.0011 0.88
-0.1991 -0.0011 0.87900001
-0.19760001 -0.0011 0.87900001
-0.19589999 -0.0011 0.87800002
-0.1944 -0.0011 0.87800002
-0.19239999 -0.0011 0.87599999
-0.19069999 -0.0011 0.875
-0.18889999 -0.0011 0.87400001
-0.1874 -0.0011 0.87400001
-0.1716 -0.0011 0.82700002
-0.17020001 -0.0011 0.82700002
-0.16850001 -0.0011 0.82599998
-0.1673 -0.0011 0.82700002
-0.16590001 -0.0011 0.82700002
-0.1644 -0.0011 0.82700002
-0.16320001 -0.0011 0.82800001
-0.1618 -0.0011 0.82800001
-0.1603 -0.0011 0.82800001
-0.15889999 -0.0011 0.82800001
-0.1573 -0.0011 0.82700002
-0.156 -0.0011 0.82800001
-0.15459999 -0.0011 0.82800001
-0.1531 -0.0011 0.82800001
-0.1517 -0.0011 0.82800001
-0.1503 -0.0011 0.82800001
-0.149 -0.0011 0.829
-0.1476 -0.0011 0.829
-0.1462 -0.0011 0.829
-0.14470001 -0.0011 0.829
-0.1435 -0.0011 0.82999998
-0.142 -0.0011 0.82999998
-0.14040001 -0.0011 0.829
-0.139 -0.0011 0.829
-0.1375 -0.0011 0.829
-0.13609999 -0.0011 0.829
-0.1347 -0.0011 0.829
-0.1331 -0.0011 0.82800001
-0.13160001 -0.0011 0.82800001
-0.1288 -0.0011 0.82800001
-0.12720001 -0.0011 0.82700002
-0.1257 -0.0011 0.82700002
-0.1243 -0.0011 0.82700002
-0.1229 -0.0011 0.82700002
-0.1214 -0.0011 0.82700002
-0.1199 -0.0011 0.82599998
-0.1183 -0.0011 0.82499999
-0.1168 -0.0011 0.82499999
-0.1151 -0.0011 0.82300001
-0.1067 -0.0011 0.824
-0.1054 -0.0011 0.82499999
-0.1042 -0.0011 0.82700002
-0.103 -0.0011 0.829
-0.1016 -0.0011 0.829
-0.1002 -0.0011 0.829
-0.098700002 -0.0011 0.829
-0.0973 -0.0011 0.829
-0.095600002 -0.0011 0.82700002
-0.094099998 -0.0011 0.82599998
-0.092500001 -0.0011 0.82499999
-0.090999998 -0.0011 0.824
-0.089599997 -0.0011 0.824
-0.088 -0.0011 0.82300001
-0.086599998 -0.0011 0.82300001
-0.085199997 -0.0011 0.82300001
-0.083899997 -0.0011 0.824
-0.082500003 -0.0011 0.82499999
-0.081200004 -0.0011 0.82599998
-0.079899997 -0.0011 0.82700002
-0.078400001 -0.0011 0.82700002
-0.077 -0.0011 0.82700002
-0.075599998 -0.0011 0.82700002
-0.074000001 -0.0011 0.82499999
-0.072499998 -0.0011 0.82499999
-0.071000002 -0.0011 0.824
-0.069600001 -0.0011 0.824
-0.0682 -0.0011 0.824
-0.066799998 -0.0011 0.82499999
-0.065499999 -0.0011 0.82599998
-0.064099997 -0.0011 0.82700002
-0.062700003 -0.0011 0.82800001
-0.061500002 -0.0011 0.82999998
-0.059999999 -0.0011 0.82999998
-0.058600001 -0.0011 0.82999998
-0.0572 -0.0011 0.83099997
-0.055799998 -0.0011 0.83099997
-0.054299999 -0.0011 0.83099997
-0.052900001 -0.0011 0.83099997
-0.051399998 -0.0011 0.82999998
-0.050000001 -0.0011 0.83099997
-0.048599999 -0.0011 0.83200002
-0.0471 -0.0011 0.83099997
-0.045600001 -0.0011 0.82999998
-0.044199999 -0.0011 0.82999998
-0.042800002 -0.0011 0.82999998
-0.041299999 -0.0011 0.829
-0.039799999 -0.0011 0.829
-0.031399999 -0.0011 0.83399999
-0.029999999 -0.0011 0.83399999
-0.0284 -0.0011 0.83200002
-0.027000001 -0.0011 0.83200002
-0.025599999 -0.0011 0.83200002
-0.0241 -0.0011 0.83099997
-0.022600001 -0.0011 0.83099997
-0.021199999 -0.0011 0.83200002
-0.0198 -0.0011 0.83200002
-0.0184 -0.0011 0.83399999
-0.016899999 -0.0011 0.83399999
-0.0155 -0.0011 0.83399999
-0.0141 -0.0011 0.83399999
-0.0126 -0.0011 0.83399999
-0.0111 -0.0011 0.83200002
-0.0011 -0.0011 0.88499999
0.00039999999 -0.0011 0.88700002
0.0020000001 -0.0011 0.889
0.0035000001 -0.0011 0.89099997
0.0051000002 -0.0011 0.89300001
0.0066 -0.0012000001 0.89499998
0.0082 -0.0012000001 0.89600003
0.0098000001 -0.0012000001 0.898
0.0114 -0.0012000001 0.89999998
0.0129 -0.0012000001 0.90100002
0.0145 -0.0012000001 0.90100002
0.016000001 -0.0012000001 0.90100002
0.0176 -0.0012000001 0.90100002
0.019200001 -0.0012000001 0.89999998
0.0206 -0.0012000001 0.89700001
0.0221 -0.0011 0.89300001
0.023600001 -0.0011 0.89099997
0.0251 -0.0011 0.89099997
0.026699999 -0.0011 0.89099997
0.0283 -0.0011 0.89200002
0.0298 -0.0011 0.89300001
0.031500001 -0.0012000001 0.89600003
0.033199999 -0.0012000001 0.89899999
0.034699999 -0.0012000001 0.89999998
0.0363 -0.0012000001 0.89999998
0.037799999 -0.0012000001 0.89899999
0.039299998 -0.0012000001 0.898
0.040800001 -0.0012000001 0.89600003
0.066799998 -0.0011 0.88999999
0.068300001 -0.0011 0.88999999
0.069799997 -0.0011 0.88999999
0.071500003 -0.0011 0.89099997
0.072999999 -0.0011 0.89099997
0.074900001 -0.0012000001 0.89499998
0.076800004 -0.0012000001 0.89899999
0.079899997 -0.0012000001 0.89899999
0.081500001 -0.0012000001 0.89899999
0.082900003 -0.0012000001 0.898
0.084299996 -0.0012000001 0.89600003
0.085699998 -0.0012000001 0.89499998
0.087200001 -0.0012000001 0.89399999
0.088600002 -0.0011 0.89300001
0.0902 -0.0011 0.89300001
0.091799997 -0.0012000001 0.89399999
0.0933 -0.0011 0.89300001
0.094599999 -0.0011 0.89099997
0.096100003 -0.0011 0.88999999
0.097400002 -0.0011 0.88800001
0.098700002 -0.0011 0.88599998
0.1001 -0.0011 0.88499999
0.1015 -0.0011 0.884
0.1031 -0.0011 0.884
0.1045 -0.0011 0.88300002
0.106 -0.0011 0.88300002
0.108 -0.0011 0.88700002
0.1097 -0.0011 0.88800001
0.1114 -0.0011 0.889
0.1132 -0.0011 0.89099997
0.1147 -0.0011 0.89099997
0.1162 -0.0011 0.89099997
0.1178 -0.0011 0.89099997
0.1193 -0.0011 0.89099997
0.1209 -0.0011 0.89099997
0.1223 -0.0011 0.88999999
0.1238 -0.0011 0.88999999
0.12540001 -0.0011 0.88999999
0.1269 -0.0011 0.88999999
0.1285 -0.0011 0.88999999
0.13 -0.0011 0.88999999
0.13169999 -0.0011 0.89099997
0.13349999 -0.0011 0.89300001
0.13510001 -0.0011 0.89300001
0.1366 -0.0011 0.89300001
0.1383 -0.0012000001 0.89399999
0.14 -0.0012000001 0.89499998
0.1417 -0.0012000001 0.89600003
0.1433 -0.0012000001 0.89600003
0.14480001 -0.0012000001 0.89600003
0.14659999 -0.0012000001 0.89700001
0.154 -0.0012000001 0.90399998
0.15539999 -0.0012000001 0.903
0.1583 -0.0012000001 0.90200001
0.1595 -0.0012000001 0.89999998
0.1611 -0.0012000001 0.89999998
0.16249999 -0.0012000001 0.89899999
0.16419999 -0.0012000001 0.89999998
0.16599999 -0.0012000001 0.90100002
0.1675 -0.0012000001 0.90100002
0.1689 -0.0012000001 0.89999998
0.1705 -0.0012000001 0.89999998
0.1716 -0.0012000001 0.898
0.1732 -0.0012000001 0.898
0.17470001 -0.0012000001 0.898
0.1763 -0.0012000001 0.898
0.17829999 -0.0012000001 0.89999998
0.1798 -0.0012000001 0.89999998
0.1816 -0.0012000001 0.90100002
0.1831 -0.0012000001 0.90100002
0.1847 -0.0012000001 0.90100002
0.1867 -0.0012000001 0.903
0.1882 -0.0012000001 0.903
0.19 -0.0012000001 0.90399998
0.1926 -0.0012000001 0.90899998
0.51050001 -0.0020999999 1.643
-0.6322 0.00060000003 1.304
-0.34689999 0.00039999999 0.87900001
-0.34580001 0.00039999999 0.88
-0.3443 0.00039999999 0.88
-0.3427 0.00039999999 0.88
-0.34079999 0.00039999999 0.87900001
-0.33970001 0.00039999999 0.88
-0.33050001 0.00039999999 0.884
-0.32280001 0.00039999999 0.884
-0.30450001 0.00039999999 0.884
-0.30219999 0.00039999999 0.88200003
-0.30070001 0.00039999999 0.88200003
-0.29949999 0.00039999999 0.88300002
-0.29769999 0.00039999999 0.88200003
-0.2958 0.00039999999 0.88099998
-0.2913 0.00039999999 0.88599998
-0.28889999 0.00039999999 0.88800001
-0.28459999 0.00039999999 0.889
-0.28150001 0.00039999999 0.889
-0.28029999 0.00039999999 0.88999999
-0.26890001 0.00039999999 0.88800001
-0.2674 0.00039999999 0.88800001
-0.2667 0.00039999999 0.89099997
-0.26359999 0.00039999999 0.89099997
-0.26050001 0.00039999999 0.89099997
-0.25870001 0.00039999999 0.88999999
-0.255 0.00039999999 0.88800001
-0.25319999 0.00039999999 0.88700002
-0.25139999 0.00039999999 0.88599998
-0.2481 0.00039999999 0.88499999
-0.2465 0.00039999999 0.88499999
-0.2447 0.00039999999 0.884
-0.2432 0.00039999999 0.884
-0.24160001 0.00039999999 0.884
-0.2404 0.00039999999 0.88499999
-0.2386 0.00039999999 0.884
-0.23729999 0.00039999999 0.88499999
-0.2358 0.00039999999 0.88499999
-0.23450001 0.00039999999 0.88599998
-0.233 0.00039999999 0.88599998
-0.22660001 0.00039999999 0.88499999
-0.22480001 0.00039999999 0.884
-0.223 0.00039999999 0.88300002
-0.22149999 0.00039999999 0.88300002
-0.2199 0.00039999999 0.88300002
-0.2184 0.00039999999 0.88300002
-0.21709999 0.00039999999 0.884
-0.2156 0.00039999999 0.884
-0.2138 0.00039999999 0.88300002
-0.2121 0.00039999999 0.88200003
-0.2105 0.00039999999 0.88200003
-0.2088 0.00039999999 0.88099998
-0.205 0.00039999999 0.87800002
-0.2035 0.00039999999 0.87800002
-0.2007 0.00039999999 0.87900001
-0.1989 0.00039999999 0.87800002
-0.1974 0.00039999999 0.87800002
-0.19589999 0.00039999999 0.87800002
-0.1939 0.00039999999 0.87599999
-0.19220001 0.00039999999 0.875
-0.1904 0.00039999999 0.87400001
-0.18870001 0.00039999999 0.87300003
-0.18719999 0.00039999999 0.87300003
-0.1718 0.00039999999 0.82800001
-0.17020001 0.00039999999 0.82700002
-0.16850001 0.00039999999 0.82599998
-0.1671 0.00039999999 0.82599998
-0.1657 0.00039999999 0.82599998
-0.16419999 0.00039999999 0.82599998
-0.1628 0.00039999999 0.82599998
-0.16159999 0.00039999999 0.82700002
-0.1601 0.00039999999 0.82700002
-0.1587 0.00039999999 0.82700002
-0.1573 0.00039999999 0.82700002
-0.1558 0.00039999999 0.82700002
-0.15440001 0.00039999999 0.82700002
-0.153 0.00039999999 0.82700002
-0.1515 0.00039999999 0.82700002
-0.15009999 0.00039999999 0.82700002
-0.1488 0.00039999999 0.82800001
-0.1478 0.00039999999 0.82999998
-0.1463 0.00039999999 0.82999998
-0.14489999 0.00039999999 0.82999998
-0.1435 0.00039999999 0.82999998
-0.142 0.00039999999 0.82999998
-0.14040001 0.00039999999 0.829
-0.1388 0.00039999999 0.82800001
-0.1372 0.00039999999 0.82700002
-0.1358 0.00039999999 0.82700002
-0.13429999 0.00039999999 0.82700002
-0.1329 0.00039999999 0.82700002
-0.13150001 0.00039999999 0.82700002
-0.13 0.00039999999 0.82700002
-0.1286 0.00039999999 0.82700002
-0.12720001 0.00039999999 0.82700002
-0.1259 0.00039999999 0.82800001
-0.1243 0.00039999999 0.82700002
-0.123 0.00039999999 0.82800001
-0.1214 0.00039999999 0.82700002
-0.1199 0.00039999999 0.82599998
-0.1184 0.00039999999 0.82599998
-0.1168 0.00039999999 0.82499999
-0.1151 0.00039999999 0.82300001
-0.1136 0.00039999999 0.82200003
-0.112 0.00039999999 0.82099998
-0.1106 0.00039999999 0.82099998
-0.1084 0.00039999999 0.82599998
-0.107 0.00039999999 0.82599998
-0.1058 0.00039999999 0.82800001
-0.1045 0.00039999999 0.829
-0.103 0.00039999999 0.829
-0.1015 0.00039999999 0.82800001
-0.1001 0.00039999999 0.82800001
-0.098499998 0.00039999999 0.82700002
-0.097099997 0.00039999999 0.82700002
-0.0955 0.00039999999 0.82599998
-0.093999997 0.00039999999 0.82499999
-0.092399999 0.00039999999 0.824
-0.090899996 0.00039999999 0.82300001
-0.089500003 0.00039999999 0.82300001
-0.088 0.00039999999 0.82300001
-0.0867 0.00039999999 0.824
-0.084100001 0.00039999999 0.82599998
-0.082699999 0.00039999999 0.82700002
-0.081299998 0.00039999999 0.82700002
-0.079999998 0.00039999999 0.82800001
-0.078400001 0.00039999999 0.82700002
-0.077 0.00039999999 0.82700002
-0.075499997 0.00039999999 0.82599998
-0.074000001 0.00039999999 0.82499999
-0.072499998 0.00039999999 0.82499999
-0.071099997 0.00039999999 0.82499999
-0.069600001 0.00039999999 0.824
-0.0682 0.00039999999 0.82499999
-0.066799998 0.00039999999 0.82499999
-0.065499999 0.00039999999 0.82700002
-0.064199999 0.00039999999 0.82800001
-0.062799998 0.00039999999 0.829
-0.061500002 0.00039999999 0.82999998
-0.059999999 0.00039999999 0.82999998
-0.058600001 0.00039999999 0.82999998
-0.057100002 0.00039999999 0.82999998
-0.055799998 0.00039999999 0.83099997
-0.054299999 0.00039999999 0.82999998
-0.052900001 0.00039999999 0.83099997
-0.051399998 0.00039999999 0.83099997
-0.050099999 0.00039999999 0.83200002
-0.048599999 0.00039999999 0.83200002
-0.047200002 0.00039999999 0.83200002
-0.045699999 0.00039999999 0.83099997
-0.044199999 0.00039999999 0.83099997
-0.042800002 0.00039999999 0.83099997
-0.041299999 0.00039999999 0.829
-0.039799999 0.00039999999 0.82800001
-0.038400002 0.00039999999 0.829
-0.0328 0.00039999999 0.833
-0.031399999 0.00039999999 0.83399999
-0.029999999 0.00039999999 0.83399999
-0.0285 0.00039999999 0.833
-0.027000001 0.00039999999 0.83200002
-0.025599999 0.00039999999 0.833
-0.0241 0.00039999999 0.83200002
-0.022700001 0.00039999999 0.83200002
-0.021299999 0.00039999999 0.833
-0.0198 0.00039999999 0.833
-0.0184 0.00039999999 0.83399999
-0.016899999 0.00039999999 0.83399999
-0.0155 0.00039999999 0.83399999
-0.0141 0.00039999999 0.83399999
-0.0126 0.00039999999 0.83399999
0.00039999999 0.00039999999 0.88800001
0.0020000001 0.00039999999 0.88999999
0.0035000001 0.00039999999 0.89099997
0.0051000002 0.00039999999 0.89300001
0.0066 0.00039999999 0.89499998
0.0082 0.00039999999 0.89600003
0.0098000001 0.00039999999 0.898
0.0114 0.00039999999 0.89999998
0.0129 0.00039999999 0.90100002
0.0145 0.00039999999 0.90100002
0.016000001 0.00039999999 0.90100002
0.0176 0.00039999999 0.90100002
0.019200001 0.00039999999 0.89999998
0.0207 0.00039999999 0.898
0.0222 0.00039999999 0.89600003
0.023700001 0.00039999999 0.89399999
0.0252 0.00039999999 0.89300001
0.026699999 0.00039999999 0.89300001
0.0283 0.00039999999 0.89300001
0.029899999 0.00039999999 0.89499998
0.031500001 0.00039999999 0.89700001
0.033100002 0.00039999999 0.898
0.034699999 0.00039999999 0.89999998
0.0363 0.00039999999 0.89999998
0.037900001 0.00039999999 0.90100002
0.040800001 0.00039999999 0.89600003
0.066600002 0.00039999999 0.88800001
0.068099998 0.00039999999 0.88800001
0.069799997 0.00039999999 0.889
0.071400002 0.00039999999 0.88999999
0.072899997 0.00039999999 0.88999999
0.074699998 0.00039999999 0.89300001
0.0766 0.00039999999 0.89700001
0.078199998 0.00039999999 0.898
0.079800002 0.00039999999 0.898
0.0814 0.00039999999 0.898
0.082800001 0.00039999999 0.89700001
0.084299996 0.00039999999 0.89600003
0.085699998 0.00039999999 0.89499998
0.087300003 0.00039999999 0.89499998
0.088799998 0.00039999999 0.89499998
0.090499997 0.00039999999 0.89600003
0.092299998 0.00039999999 0.898
0.094800003 0.00039999999 0.89300001
0.096100003 0.00039999999 0.88999999
0.097400002 0.00039999999 0.88800001
0.098800004 0.00039999999 0.88700002
0.1001 0.00039999999 0.88499999
0.1015 0.00039999999 0.884
0.1031 0.00039999999 0.884
0.1046 0.00039999999 0.884
0.1061 0.00039999999 0.884
0.108 0.00039999999 0.88700002
0.1097 0.00039999999 0.88800001
0.1115 0.00039999999 0.88999999
0.1132 0.00039999999 0.89099997
0.1147 0.00039999999 0.89099997
0.1162 0.00039999999 0.89099997
0.1179 0.00039999999 0.89200002
0.1196 0.00039999999 0.89300001
0.121 0.00039999999 0.89200002
0.1224 0.00039999999 0.89099997
0.124 0.00039999999 0.89099997
0.12549999 0.00039999999 0.89099997
0.12710001 0.00039999999 0.89099997
0.1285 0.00039999999 0.88999999
0.13 0.00039999999 0.88999999
0.13150001 0.00039999999 0.88999999
0.13339999 0.00039999999 0.89200002
0.13510001 0.00039999999 0.89300001
0.1365 0.00039999999 0.89200002
0.1382 0.00039999999 0.89300001
0.1397 0.00039999999 0.89300001
0.1416 0.00039999999 0.89499998
0.14309999 0.00039999999 0.89499998
0.14470001 0.00039999999 0.89499998
0.15350001 0.00039999999 0.90100002
0.155 0.00039999999 0.90100002
0.1566 0.00039999999 0.90100002
0.15809999 0.00039999999 0.90100002
0.1595 0.00039999999 0.89999998
0.1611 0.00039999999 0.89999998
0.1627 0.00039999999 0.89999998
0.1644 0.00039999999 0.90100002
0.1661 0.00039999999 0.90200001
0.1675 0.00039999999 0.90100002
0.1691 0.00039999999 0.90100002
0.1705 0.00039999999 0.89999998
0.1716 0.00039999999 0.898
0.17299999 0.00039999999 0.89700001
0.1745 0.00039999999 0.89700001
0.1763 0.00039999999 0.898
0.1779 0.00039999999 0.898
0.1796 0.00039999999 0.89899999
0.18099999 0.00039999999 0.898
0.18269999 0.00039999999 0.89899999
0.18449999 0.00039999999 0.89999998
0.18610001 0.00039999999 0.89999998
0.18780001 0.00039999999 0.90100002
0.18979999 0.00039999999 0.903
0.1918 0.00039999999 0.90499997
0.1953 0.00039999999 0.91399997
-0.40580001 0.0019 0.86799997
-0.3901 0.0019 0.87
-0.38820001 0.0019 0.86900002
-0.34689999 0.0019 0.87900001
-0.34540001 0.0019 0.87900001
-0.3439 0.0019 0.87900001
-0.3423 0.0019 0.87900001
-0.34040001 0.0019 0.87800002
-0.33930001 0.0019 0.87900001
-0.33849999 0.0019 0.88099998
-0.33050001 0.0019 0.884
-0.32710001 0.0019 0.88300002
-0.32550001 0.0019 0.88300002
-0.32440001 0.0019 0.884
-0.3206 0.0019 0.88200003
-0.31720001 0.0019 0.88099998
-0.30410001 0.0019 0.88300002
-0.30219999 0.0019 0.88200003
-0.30070001 0.0019 0.88200003
-0.2958 0.0019 0.88099998
-0.2949 0.0019 0.88300002
-0.28580001 0.0019 0.88800001
-0.2843 0.0019 0.88800001
-0.28279999 0.0019 0.88800001
-0.28119999 0.0019 0.88800001
-0.28029999 0.0019 0.88999999
-0.28029999 0.0020000001 0.89499998
-0.27509999 0.0019 0.89300001
-0.27289999 0.0019 0.89099997
-0.26769999 0.0019 0.889
-0.26519999 0.0019 0.89099997
-0.26359999 0.0019 0.89099997
-0.26210001 0.0019 0.89099997
-0.26050001 0.0019 0.89099997
-0.2572 0.0019 0.88999999
-0.255 0.0019 0.88800001
-0.25350001 0.0019 0.88800001
-0.25170001 0.0019 0.88700002
-0.2502 0.0019 0.88700002
-0.24860001 0.0019 0.88700002
-0.24680001 0.0019 0.88599998
-0.24349999 0.0019 0.88499999
-0.2419 0.0019 0.88499999
-0.2404 0.0019 0.88499999
-0.2388 0.0019 0.88499999
-0.23729999 0.0019 0.88499999
-0.23630001 0.0019 0.88700002
-0.2348 0.0019 0.88700002
-0.233 0.0019 0.88599998
-0.2314 0.0019 0.88599998
-0.2299 0.0019 0.88599998
-0.22840001 0.0019 0.88599998
-0.22660001 0.0019 0.88499999
-0.22480001 0.0019 0.884
-0.2233 0.0019 0.884
-0.2217 0.0019 0.884
-0.2202 0.0019 0.884
-0.21870001 0.0019 0.884
-0.21709999 0.0019 0.884
-0.2156 0.0019 0.884
-0.2141 0.0019 0.884
-0.2123 0.0019 0.88300002
-0.2105 0.0019 0.88200003
-0.2088 0.0019 0.88099998
-0.2068 0.0019 0.87900001
-0.205 0.0019 0.87800002
-0.2035 0.0019 0.87800002
-0.20200001 0.0019 0.87800002
-0.20039999 0.0019 0.87800002
-0.1989 0.0019 0.87800002
-0.1974 0.0019 0.87800002
-0.1954 0.0019 0.87599999
-0.1937 0.0019 0.875
-0.1917 0.0019 0.87300003
-0.19 0.0019 0.87199998
-0.1883 0.0019 0.87099999
-0.17200001 0.0018 0.829
-0.17020001 0.0018 0.82700002
-0.16850001 0.0018 0.82599998
-0.16689999 0.0018 0.82499999
-0.1655 0.0018 0.82499999
-0.164 0.0018 0.82499999
-0.1626 0.0018 0.82499999
-0.1612 0.0018 0.82499999
-0.15970001 0.0018 0.82499999
-0.1585 0.0018 0.82599998
-0.15710001 0.0018 0.82599998
-0.1556 0.0018 0.82599998
-0.1542 0.0018 0.82599998
-0.1515 0.0018 0.82700002
-0.15009999 0.0018 0.82700002
-0.149 0.0018 0.829
-0.14489999 0.0018 0.82999998
-0.1435 0.0018 0.82999998
-0.142 0.0018 0.82999998
-0.14040001 0.0018 0.829
-0.13860001 0.0018 0.82700002
-0.1372 0.0018 0.82700002
-0.1358 0.0018 0.82700002
-0.13429999 0.0018 0.82700002
-0.1329 0.0018 0.82700002
-0.13150001 0.0018 0.82700002
-0.13 0.0018 0.82700002
-0.1286 0.0018 0.82700002
-0.12729999 0.0018 0.82800001
-0.126 0.0018 0.829
-0.1246 0.0018 0.829
-0.1233 0.0018 0.82999998
-0.1219 0.0018 0.82999998
-0.1203 0.0018 0.829
-0.1189 0.0018 0.829
-0.1174 0.0018 0.829
-0.1156 0.0018 0.82599998
-0.114 0.0018 0.82499999
-0.1059 0.0018 0.829
-0.1046 0.0018 0.82999998
-0.103 0.0018 0.829
-0.1016 0.0018 0.829
-0.1002 0.0018 0.829
-0.0986 0.0018 0.82800001
-0.097099997 0.0018 0.82700002
-0.0955 0.0018 0.82599998
-0.094099998 0.0018 0.82599998
-0.092500001 0.0018 0.82499999
-0.0911 0.0018 0.82499999
-0.089599997 0.0018 0.824
-0.088299997 0.0018 0.82499999
-0.086800002 0.0018 0.82499999
-0.085600004 0.0018 0.82700002
-0.084299996 0.0018 0.82800001
-0.082800001 0.0018 0.82800001
-0.081500001 0.0018 0.829
-0.0801 0.0018 0.829
-0.078599997 0.0018 0.829
-0.077200003 0.0018 0.829
-0.0757 0.0018 0.82800001
-0.074100003 0.0018 0.82700002
-0.0726 0.0018 0.82599998
-0.071199998 0.0018 0.82599998
-0.069700003 0.0018 0.82499999
-0.0682 0.0018 0.82499999
-0.066799998 0.0018 0.82499999
-0.065499999 0.0018 0.82599998
-0.064199999 0.0018 0.82800001
-0.062799998 0.0018 0.829
-0.061500002 0.0018 0.82999998
-0.059999999 0.0018 0.82999998
-0.058499999 0.0018 0.829
-0.057100002 0.0018 0.82999998
-0.0557 0.0018 0.82999998
-0.054200001 0.0018 0.829
-0.0528 0.0018 0.829
-0.051399998 0.0018 0.82999998
-0.050099999 0.0018 0.83200002
-0.048599999 0.0018 0.83200002
-0.047200002 0.0018 0.83200002
-0.045699999 0.0018 0.83099997
-0.044199999 0.0018 0.83099997
-0.042800002 0.0018 0.82999998
-0.041200001 0.0018 0.82800001
-0.039700001 0.0018 0.82700002
-0.0383 0.0018 0.82700002
-0.037 0.0018 0.829
-0.0328 0.0018 0.833
-0.031399999 0.0018 0.83399999
-0.029999999 0.0018 0.83499998
-0.0285 0.0018 0.83399999
-0.027100001 0.0018 0.83399999
-0.025599999 0.0018 0.83399999
-0.0242 0.0018 0.83399999
-0.022700001 0.0018 0.833
-0.021299999 0.0018 0.83399999
-0.0198 0.0018 0.83399999
-0.0184 0.0018 0.83399999
-0.016899999 0.0018 0.83399999
-0.0155 0.0018 0.833
0.00039999999 0.0019 0.889
0.0020000001 0.0019 0.88999999
0.0035000001 0.0019 0.89200002
0.0051000002 0.0019 0.89300001
0.0066 0.0020000001 0.89499998
0.0082 0.0020000001 0.89700001
0.0098000001 0.0020000001 0.89899999
0.0114 0.0020000001 0.89999998
0.0129 0.0020000001 0.90100002
0.0145 0.0020000001 0.90100002
0.016000001 0.0020000001 0.90100002
0.0176 0.0020000001 0.90100002
0.019200001 0.0020000001 0.89999998
0.0207 0.0020000001 0.89899999
0.0222 0.0020000001 0.898
0.023700001 0.0020000001 0.89499998
0.0252 0.0019 0.89399999
0.026699999 0.0019 0.89300001
0.0283 0.0019 0.89399999
0.029899999 0.0020000001 0.89499998
0.031500001 0.0020000001 0.89700001
0.033100002 0.0020000001 0.898
0.034699999 0.0020000001 0.89999998
0.0363 0.0020000001 0.90100002
0.037900001 0.0020000001 0.90100002
0.039500002 0.0020000001 0.90100002
0.040899999 0.0020000001 0.898
0.063500002 0.0019 0.88700002
0.064999998 0.0019 0.88700002
0.066600002 0.0019 0.88800001
0.068099998 0.0019 0.88800001
0.069700003 0.0019 0.88800001
0.0713 0.0019 0.889
0.072899997 0.0019 0.88999999
0.074600004 0.0019 0.89200002
0.076399997 0.0020000001 0.89499998
0.078100003 0.0020000001 0.89600003
0.079700001 0.0020000001 0.89700001
0.081299998 0.0020000001 0.89700001
0.082800001 0.0020000001 0.89700001
0.084299996 0.0020000001 0.89600003
0.085699998 0.0020000001 0.89499998
0.087399997 0.0020000001 0.89600003
0.0889 0.0020000001 0.89600003
0.090800002 0.0020000001 0.89899999
0.092500001 0.0020000001 0.89999998
0.093999997 0.0020000001 0.89999998
0.095299996 0.0020000001 0.89700001
0.0964 0.0019 0.89300001
0.097599998 0.0019 0.88999999
0.098899998 0.0019 0.88800001
0.1003 0.0019 0.88700002
0.1018 0.0019 0.88599998
0.1033 0.0019 0.88599998
0.1048 0.0019 0.88599998
0.1065 0.0019 0.88700002
0.108 0.0019 0.88700002
0.1097 0.0019 0.88800001
0.1115 0.0019 0.88999999
0.1132 0.0019 0.89099997
0.1147 0.0019 0.89099997
0.1162 0.0019 0.89099997
0.1179 0.0019 0.89200002
0.1195 0.0019 0.89200002
0.121 0.0019 0.89200002
0.1224 0.0019 0.89099997
0.124 0.0019 0.89099997
0.12549999 0.0019 0.89099997
0.12710001 0.0019 0.89099997
0.1285 0.0019 0.88999999
0.13 0.0019 0.88999999
0.13150001 0.0019 0.88999999
0.1332 0.0019 0.89099997
0.1348 0.0019 0.89099997
0.1363 0.0019 0.89099997
0.138 0.0019 0.89200002
0.1399 0.0019 0.89399999
0.1416 0.0020000001 0.89499998
0.14309999 0.0020000001 0.89499998
0.14480001 0.0020000001 0.89600003
0.1464 0.0020000001 0.89600003
0.1498 0.0020000001 0.898
0.1516 0.0020000001 0.89899999
0.1533 0.0020000001 0.89999998
0.1549 0.0020000001 0.89999998
0.1564 0.0020000001 0.89999998
0.15800001 0.0020000001 0.89999998
0.1595 0.0020000001 0.89999998
0.1611 0.0020000001 0.89999998
0.1627 0.0020000001 0.89999998
0.1644 0.0020000001 0.90100002
0.1663 0.0020000001 0.903
0.16769999 0.0020000001 0.90200001
0.1691 0.0020000001 0.90100002
0.1705 0.0020000001 0.89999998
0.1716 0.0020000001 0.898
0.1732 0.0020000001 0.898
0.17470001 0.0020000001 0.898
0.1759 0.0020000001 0.89600003
0.1779 0.0020000001 0.898
0.1796 0.0020000001 0.89899999
0.1829 0.0020000001 0.89999998
0.18430001 0.0020000001 0.89899999
0.18629999 0.0020000001 0.90100002
0.18780001 0.0020000001 0.90100002
0.18979999 0.0020000001 0.903
0.19069999 0.0020000001 0.89999998
-0.39390001 0.0034 0.875
-0.3915 0.0034 0.87300003
-0.38859999 0.0034 0.87
-0.3477 0.0034 0.88099998
-0.34580001 0.0034 0.88
-0.34200001 0.0034 0.87800002
-0.33970001 0.0034 0.87599999
-0.33849999 0.0034 0.87699997
-0.33739999 0.0034 0.87800002
-0.33129999 0.0035000001 0.88200003
-0.3267 0.0035000001 0.88200003
-0.32519999 0.0035000001 0.88200003
-0.32359999 0.0035000001 0.88200003
-0.32089999 0.0035000001 0.88300002
-0.31909999 0.0035000001 0.88200003
-0.31560001 0.0034 0.88099998
-0.3087 0.0035000001 0.88300002
-0.29949999 0.0035000001 0.88300002
-0.29769999 0.0035000001 0.88200003
-0.2965 0.0035000001 0.88300002
-0.29409999 0.0035000001 0.88499999
-0.2929 0.0035000001 0.88599998
-0.29170001 0.0035000001 0.88700002
-0.29010001 0.0035000001 0.88700002
-0.2886 0.0035000001 0.88700002
-0.287 0.0035000001 0.88700002
-0.28549999 0.0035000001 0.88700002
-0.28209999 0.0035000001 0.88599998
-0.27509999 0.0035000001 0.89300001
-0.26730001 0.0035000001 0.89300001
-0.26519999 0.0035000001 0.89099997
-0.26359999 0.0035000001 0.89099997
-0.26210001 0.0035000001 0.89099997
-0.26030001 0.0035000001 0.88999999
-0.25839999 0.0035000001 0.889
-0.25690001 0.0035000001 0.889
-0.255 0.0035000001 0.88800001
-0.25350001 0.0035000001 0.88800001
-0.252 0.0035000001 0.88800001
-0.24860001 0.0035000001 0.88700002
-0.2471 0.0035000001 0.88700002
-0.2437 0.0035000001 0.88599998
-0.2419 0.0035000001 0.88499999
-0.2388 0.0035000001 0.88499999
-0.23729999 0.0035000001 0.88499999
-0.2358 0.0035000001 0.88499999
-0.2342 0.0035000001 0.88499999
-0.23270001 0.0035000001 0.88499999
-0.23119999 0.0035000001 0.88499999
-0.2296 0.0035000001 0.88499999
-0.2281 0.0035000001 0.88499999
-0.22660001 0.0035000001 0.88499999
-0.22480001 0.0035000001 0.884
-0.2233 0.0035000001 0.884
-0.2217 0.0035000001 0.884
-0.2202 0.0035000001 0.884
-0.21870001 0.0035000001 0.884
-0.21709999 0.0035000001 0.884
-0.2156 0.0035000001 0.884
-0.2141 0.0035000001 0.884
-0.21250001 0.0035000001 0.884
-0.2105 0.0035000001 0.88200003
-0.2088 0.0034 0.88099998
-0.207 0.0034 0.88
-0.2052 0.0034 0.87900001
-0.20370001 0.0034 0.87900001
-0.2022 0.0034 0.87900001
-0.2007 0.0034 0.87900001
-0.1989 0.0034 0.87800002
-0.1974 0.0034 0.87800002
-0.1957 0.0034 0.87699997
-0.1939 0.0034 0.87599999
-0.1917 0.0034 0.87300003
-0.18979999 0.0034 0.87099999
-0.1881 0.0034 0.87
-0.17219999 0.0031999999 0.82999998
-0.1706 0.0031999999 0.829
-0.16850001 0.0031999999 0.82599998
-0.16689999 0.0031999999 0.82499999
-0.1655 0.0031999999 0.82499999
-0.1638 0.0031999999 0.824
-0.16240001 0.0031999999 0.824
-0.1608 0.0031999999 0.82300001
-0.1596 0.0031999999 0.824
-0.1583 0.0031999999 0.82499999
-0.1567 0.0031999999 0.824
-0.15530001 0.0031999999 0.824
-0.1538 0.0031999999 0.824
-0.15260001 0.0031999999 0.82499999
-0.1512 0.0031999999 0.82499999
-0.1499 0.0031999999 0.82599998
-0.1487 0.0031999999 0.82700002
-0.1476 0.0031999999 0.829
-0.1463 0.0031999999 0.82999998
-0.14489999 0.0031999999 0.82999998
-0.1435 0.0031999999 0.82999998
-0.142 0.0031999999 0.82999998
-0.14040001 0.0031999999 0.829
-0.139 0.0031999999 0.829
-0.1374 0.0031999999 0.82800001
-0.13590001 0.0031999999 0.82800001
-0.1347 0.0031999999 0.829
-0.1331 0.0031999999 0.82800001
-0.13150001 0.0031999999 0.82700002
-0.13 0.0031999999 0.82700002
-0.1288 0.0031999999 0.82800001
-0.1275 0.0031999999 0.829
-0.126 0.0031999999 0.829
-0.1247 0.0031999999 0.82999998
-0.1233 0.0031999999 0.82999998
-0.122 0.0033 0.83099997
-0.1204 0.0031999999 0.82999998
-0.119 0.0031999999 0.82999998
-0.1174 0.0031999999 0.829
-0.1157 0.0031999999 0.82700002
-0.114 0.0031999999 0.82499999
-0.1074 0.0031999999 0.829
-0.106 0.0031999999 0.82999998
-0.1047 0.0033 0.83099997
-0.1032 0.0031999999 0.82999998
-0.1017 0.0031999999 0.82999998
-0.0973 0.0031999999 0.829
-0.095600002 0.0031999999 0.82700002
-0.094099998 0.0031999999 0.82599998
-0.092699997 0.0031999999 0.82599998
-0.091200002 0.0031999999 0.82599998
-0.0898 0.0031999999 0.82599998
-0.088500001 0.0031999999 0.82700002
-0.086999997 0.0031999999 0.82700002
-0.085699998 0.0031999999 0.82800001
-0.081600003 0.0031999999 0.82999998
-0.080200002 0.0031999999 0.82999998
-0.078599997 0.0031999999 0.829
-0.077200003 0.0031999999 0.829
-0.0757 0.0031999999 0.82800001
-0.074100003 0.0031999999 0.82700002
-0.072700001 0.0031999999 0.82700002
-0.071199998 0.0031999999 0.82599998
-0.069700003 0.0031999999 0.82599998
-0.068300001 0.0031999999 0.82599998
-0.067000002 0.0031999999 0.82700002
-0.062799998 0.0031999999 0.829
-0.061500002 0.0031999999 0.82999998
-0.059999999 0.0031999999 0.82999998
-0.058499999 0.0031999999 0.829
-0.057100002 0.0031999999 0.829
-0.055599999 0.0031999999 0.829
-0.054200001 0.0031999999 0.829
-0.0528 0.0031999999 0.829
-0.051399998 0.0031999999 0.82999998
-0.050000001 0.0033 0.83099997
-0.048599999 0.0033 0.83200002
-0.047200002 0.0033 0.83200002
-0.045699999 0.0033 0.83099997
-0.044199999 0.0033 0.83099997
-0.042800002 0.0031999999 0.82999998
-0.041200001 0.0031999999 0.82800001
-0.039700001 0.0031999999 0.82599998
-0.0383 0.0031999999 0.82700002
-0.036899999 0.0031999999 0.82700002
-0.035500001 0.0031999999 0.829
-0.034200002 0.0033 0.83099997
-0.0328 0.0033 0.833
-0.031399999 0.0033 0.83399999
-0.029999999 0.0033 0.83499998
-0.0285 0.0033 0.83399999
-0.027100001 0.0033 0.83399999
-0.025599999 0.0033 0.83499998
-0.0242 0.0033 0.83399999
-0.0228 0.0033 0.83499998
-0.021299999 0.0033 0.83499998
-0.0198 0.0033 0.83399999
-0.0184 0.0033 0.83499998
-0.016899999 0.0033 0.83399999
0.0020000001 0.0035000001 0.89200002
0.0035000001 0.0035000001 0.89399999
0.0051000002 0.0035000001 0.89600003
0.0066999998 0.0035000001 0.898
0.0082 0.0035000001 0.89899999
0.0098000001 0.0035000001 0.89999998
0.0114 0.0035000001 0.90100002
0.0129 0.0035000001 0.90200001
0.0145 0.0035000001 0.90100002
0.016000001 0.0035000001 0.90100002
0.0176 0.0035000001 0.90100002
0.019200001 0.0035000001 0.89999998
0.0207 0.0035000001 0.89999998
0.0222 0.0035000001 0.89899999
0.023800001 0.0035000001 0.89700001
0.0253 0.0035000001 0.89600003
0.026799999 0.0035000001 0.89600003
0.0284 0.0035000001 0.89600003
0.029899999 0.0035000001 0.89600003
0.031599998 0.0035000001 0.898
0.033199999 0.0035000001 0.89999998
0.0348 0.0035000001 0.90100002
0.0363 0.0035000001 0.89999998
0.037900001 0.0035000001 0.89999998
0.0394 0.0035000001 0.89999998
0.040899999 0.0035000001 0.898
0.060199998 0.0035000001 0.88499999
0.061900001 0.0035000001 0.88700002
0.063500002 0.0035000001 0.88700002
0.064999998 0.0035000001 0.88700002
0.066500001 0.0035000001 0.88700002
0.068099998 0.0035000001 0.88700002
0.069700003 0.0035000001 0.88800001
0.071199998 0.0035000001 0.88800001
0.072800003 0.0035000001 0.889
0.074600004 0.0035000001 0.89099997
0.076300003 0.0035000001 0.89300001
0.078000002 0.0035000001 0.89499998
0.079599999 0.0035000001 0.89600003
0.081200004 0.0035000001 0.89600003
0.082699999 0.0035000001 0.89600003
0.084200002 0.0035000001 0.89499998
0.085699998 0.0035000001 0.89499998
0.087399997 0.0035000001 0.89600003
0.089000002 0.0035000001 0.89700001
0.090899996 0.0035000001 0.89999998
0.092600003 0.0035000001 0.90100002
0.094099998 0.0035000001 0.90100002
0.095399998 0.0035000001 0.898
0.096500002 0.0035000001 0.89399999
0.0977 0.0035000001 0.89099997
0.098999999 0.0035000001 0.889
0.1003 0.0035000001 0.88700002
0.1018 0.0035000001 0.88599998
0.1034 0.0035000001 0.88700002
0.105 0.0035000001 0.88700002
0.1065 0.0035000001 0.88700002
0.1082 0.0035000001 0.88800001
0.1097 0.0035000001 0.88800001
0.1115 0.0035000001 0.88999999
0.113 0.0035000001 0.88999999
0.1147 0.0035000001 0.89099997
0.1162 0.0035000001 0.89099997
0.1178 0.0035000001 0.89099997
0.1193 0.0035000001 0.89099997
0.1209 0.0035000001 0.89099997
0.1224 0.0035000001 0.89099997
0.1238 0.0035000001 0.88999999
0.12540001 0.0035000001 0.88999999
0.1269 0.0035000001 0.88999999
0.1285 0.0035000001 0.88999999
0.12989999 0.0035000001 0.889
0.1314 0.0035000001 0.889
0.1331 0.0035000001 0.88999999
0.1348 0.0035000001 0.89099997
0.1365 0.0035000001 0.89200002
0.1382 0.0035000001 0.89300001
0.14 0.0035000001 0.89499998
0.1417 0.0035000001 0.89600003
0.1433 0.0035000001 0.89600003
0.14480001 0.0035000001 0.89600003
0.1514 0.0035000001 0.898
0.1547 0.0035000001 0.89899999
0.15620001 0.0035000001 0.89899999
0.15800001 0.0035000001 0.89999998
0.1595 0.0035000001 0.89999998
0.1611 0.0035000001 0.89999998
0.1627 0.0035000001 0.89999998
0.16419999 0.0035000001 0.89999998
0.16599999 0.0035000001 0.90100002
0.1675 0.0035000001 0.90100002
0.1691 0.0035000001 0.90100002
0.1705 0.0035000001 0.89999998
0.1718 0.0035000001 0.89899999
0.1732 0.0035000001 0.898
0.17470001 0.0035000001 0.898
0.1763 0.0035000001 0.898
0.1781 0.0035000001 0.89899999
0.1796 0.0035000001 0.89899999
0.1841 0.0035000001 0.898
0.18610001 0.0035000001 0.89999998
0.1876 0.0035000001 0.89999998
0.18960001 0.0035000001 0.90200001
-0.4068 0.0049000001 0.86699998
-0.40169999 0.0049000001 0.86900002
-0.39739999 0.0049000001 0.87599999
-0.3915 0.0049000001 0.87300003
-0.34540001 0.0049999999 0.87900001
-0.3439 0.0049999999 0.87900001
-0.34200001 0.0049999999 0.87800002
-0.34 0.0049999999 0.87699997
-0.3389 0.0049999999 0.87800002
-0.33739999 0.0049999999 0.87800002
-0.33129999 0.0049999999 0.88200003
-0.32859999 0.0049999999 0.88300002
-0.32710001 0.0049999999 0.88300002
-0.32589999 0.0049999999 0.884
-0.32359999 0.0049999999 0.88200003
-0.32170001 0.0049999999 0.88099998
-0.3213 0.0049999999 0.884
-0.31720001 0.0049999999 0.88099998
-0.3053 0.0049999999 0.88200003
-0.3019 0.0049999999 0.88099998
-0.2992 0.0049999999 0.88200003
-0.29800001 0.0049999999 0.88300002
-0.29530001 0.0049999999 0.884
-0.29409999 0.0049999999 0.88499999
-0.29170001 0.0049999999 0.88700002
-0.28830001 0.0049999999 0.88599998
-0.287 0.0049999999 0.88700002
-0.28490001 0.0049999999 0.88499999
-0.28330001 0.0049999999 0.88499999
-0.28029999 0.0049999999 0.88499999
-0.27880001 0.0049999999 0.88999999
-0.2775 0.0049999999 0.89099997
-0.2683 0.0049999999 0.89099997
-0.26550001 0.0049999999 0.89200002
-0.26359999 0.0049999999 0.89099997
-0.26210001 0.0049999999 0.89099997
-0.26030001 0.0049999999 0.88999999
-0.25870001 0.0049999999 0.88999999
-0.2572 0.0049999999 0.88999999
-0.25529999 0.0049999999 0.889
-0.2538 0.0049999999 0.889
-0.2474 0.0049999999 0.88800001
-0.2437 0.0049999999 0.88599998
-0.2404 0.0049999999 0.88499999
-0.2388 0.0049999999 0.88499999
-0.2358 0.0049999999 0.88499999
-0.234 0.0049999999 0.884
-0.2325 0.0049999999 0.884
-0.2309 0.0049999999 0.884
-0.2296 0.0049999999 0.88499999
-0.2281 0.0049999999 0.88499999
-0.22660001 0.0049999999 0.88499999
-0.22499999 0.0049999999 0.88499999
-0.2233 0.0049999999 0.884
-0.222 0.0049999999 0.88499999
-0.2202 0.0049999999 0.884
-0.21870001 0.0049999999 0.884
-0.21709999 0.0049999999 0.884
-0.2156 0.0049999999 0.884
-0.2138 0.0049999999 0.88300002
-0.2105 0.0049999999 0.88200003
-0.2088 0.0049999999 0.88099998
-0.2068 0.0049999999 0.87900001
-0.205 0.0049999999 0.87800002
-0.2035 0.0049999999 0.87800002
-0.20200001 0.0049999999 0.87800002
-0.20039999 0.0049999999 0.87800002
-0.1989 0.0049999999 0.87800002
-0.1974 0.0049999999 0.87800002
-0.1957 0.0049999999 0.87699997
-0.1937 0.0049000001 0.875
-0.1917 0.0049000001 0.87300003
-0.18960001 0.0049000001 0.87
-0.1823 0.0048000002 0.85699999
-0.17640001 0.0048000002 0.84299999
-0.1733 0.0046999999 0.83499998
-0.1706 0.0046999999 0.829
-0.16869999 0.0046999999 0.82700002
-0.1671 0.0046999999 0.82599998
-0.1657 0.0046999999 0.82599998
-0.164 0.0046999999 0.82499999
-0.16240001 0.0046999999 0.824
-0.1608 0.0046000001 0.82300001
-0.1594 0.0046000001 0.82300001
-0.15809999 0.0046999999 0.824
-0.1565 0.0046000001 0.82300001
-0.1549 0.0046000001 0.82200003
-0.15369999 0.0046000001 0.82300001
-0.1513 0.0046999999 0.82599998
-0.15009999 0.0046999999 0.82700002
-0.149 0.0046999999 0.829
-0.1478 0.0046999999 0.82999998
-0.14650001 0.0046999999 0.83099997
-0.14489999 0.0046999999 0.82999998
-0.1435 0.0046999999 0.82999998
-0.142 0.0046999999 0.82999998
-0.1406 0.0046999999 0.82999998
-0.1391 0.0046999999 0.82999998
-0.13770001 0.0046999999 0.82999998
-0.1363 0.0046999999 0.82999998
-0.1347 0.0046999999 0.829
-0.13339999 0.0046999999 0.82999998
-0.1318 0.0046999999 0.829
-0.1303 0.0046999999 0.829
-0.12890001 0.0046999999 0.829
-0.1275 0.0046999999 0.829
-0.12620001 0.0046999999 0.82999998
-0.1249 0.0046999999 0.83099997
-0.1235 0.0046999999 0.83099997
-0.1222 0.0046999999 0.83200002
-0.1206 0.0046999999 0.83099997
-0.119 0.0046999999 0.82999998
-0.116 0.0046999999 0.829
-0.1089 0.0046999999 0.82999998
-0.1075 0.0046999999 0.82999998
-0.1062 0.0046999999 0.83099997
-0.1047 0.0046999999 0.83099997
-0.1033 0.0046999999 0.83099997
-0.1019 0.0046999999 0.83099997
-0.0973 0.0046999999 0.829
-0.095600002 0.0046999999 0.82700002
-0.0942 0.0046999999 0.82700002
-0.092799999 0.0046999999 0.82700002
-0.091300003 0.0046999999 0.82700002
-0.0898 0.0046999999 0.82599998
-0.088500001 0.0046999999 0.82700002
-0.086999997 0.0046999999 0.82700002
-0.085699998 0.0046999999 0.82800001
-0.084299996 0.0046999999 0.82800001
-0.082800001 0.0046999999 0.82800001
-0.081500001 0.0046999999 0.829
-0.0801 0.0046999999 0.829
-0.078500003 0.0046999999 0.82800001
-0.077 0.0046999999 0.82700002
-0.075499997 0.0046999999 0.82599998
-0.074000001 0.0046999999 0.82599998
-0.072499998 0.0046999999 0.82499999
-0.071199998 0.0046999999 0.82599998
-0.069700003 0.0046999999 0.82599998
-0.055500001 0.0046999999 0.82700002
-0.054099999 0.0046999999 0.82800001
-0.0528 0.0046999999 0.829
-0.051399998 0.0046999999 0.82999998
-0.050099999 0.0046999999 0.83200002
-0.048700001 0.0046999999 0.833
-0.047200002 0.0046999999 0.833
-0.045699999 0.0046999999 0.83200002
-0.044199999 0.0046999999 0.83099997
-0.042800002 0.0046999999 0.83099997
-0.041299999 0.0046999999 0.829
-0.039700001 0.0046999999 0.82599998
-0.0383 0.0046999999 0.82599998
-0.034200002 0.0046999999 0.83099997
-0.0328 0.0046999999 0.83200002
-0.031399999 0.0046999999 0.83499998
-0.029999999 0.0046999999 0.83499998
-0.0285 0.0046999999 0.83399999
-0.027100001 0.0046999999 0.83399999
-0.025599999 0.0046999999 0.83499998
-0.0242 0.0046999999 0.83499998
-0.0228 0.0046999999 0.83499998
-0.021299999 0.0046999999 0.83499998
-0.0198 0.0046999999 0.83399999
-0.0184 0.0046999999 0.83499998
-0.016899999 0.0046999999 0.83399999
-0.0155 0.0046999999 0.833
0.0020000001 0.0049999999 0.89300001
0.0035000001 0.0051000002 0.89499998
0.0051000002 0.0051000002 0.89600003
0.0066999998 0.0051000002 0.898
0.0082 0.0051000002 0.898
0.0098000001 0.0051000002 0.89999998
0.0114 0.0051000002 0.89999998
0.0129 0.0051000002 0.90100002
0.0145 0.0051000002 0.90100002
0.016000001 0.0051000002 0.89999998
0.0176 0.0051000002 0.90100002
0.019200001 0.0051000002 0.89999998
0.0207 0.0051000002 0.89899999
0.0222 0.0051000002 0.898
0.023700001 0.0051000002 0.89600003
0.0253 0.0051000002 0.89600003
0.026799999 0.0051000002 0.89499998
0.0284 0.0051000002 0.89499998
0.029899999 0.0051000002 0.89499998
0.031500001 0.0051000002 0.89700001
0.033100002 0.0051000002 0.898
0.0348 0.0051000002 0.90100002
0.0363 0.0051000002 0.89999998
0.037900001 0.0051000002 0.89999998
0.0396 0.0051000002 0.903
0.041000001 0.0051000002 0.89999998
0.058800001 0.0049999999 0.88700002
0.060400002 0.0049999999 0.88700002
0.061900001 0.0049999999 0.88700002
0.063500002 0.0049999999 0.88700002
0.064999998 0.0049999999 0.88700002
0.066500001 0.0049999999 0.88700002
0.068099998 0.0049999999 0.88700002
0.069600001 0.0049999999 0.88700002
0.071199998 0.0049999999 0.88800001
0.072800003 0.0049999999 0.88800001
0.0744 0.0049999999 0.889
0.075999998 0.0049999999 0.88999999
0.077600002 0.0049999999 0.89099997
0.079400003 0.0049999999 0.89300001
0.080899999 0.0049999999 0.89300001
0.082500003 0.0049999999 0.89300001
0.083999999 0.0049999999 0.89300001
0.085600004 0.0049999999 0.89300001
0.087300003 0.0051000002 0.89499998
0.0889 0.0051000002 0.89600003
0.090899996 0.0051000002 0.89999998
0.0955 0.0051000002 0.89899999
0.096699998 0.0051000002 0.89600003
0.097900003 0.0049999999 0.89300001
0.099299997 0.0049999999 0.89099997
0.1007 0.0049999999 0.88999999
0.102 0.0049999999 0.88800001
0.1034 0.0049999999 0.88700002
0.105 0.0049999999 0.88700002
0.1066 0.0049999999 0.88800001
0.1082 0.0049999999 0.88800001
0.1098 0.0049999999 0.889
0.1115 0.0049999999 0.88999999
0.1132 0.0049999999 0.89099997
0.1147 0.0049999999 0.89099997
0.1162 0.0049999999 0.89099997
0.1178 0.0049999999 0.89099997
0.1193 0.0049999999 0.89099997
0.1209 0.0049999999 0.89099997
0.1223 0.0049999999 0.88999999
0.1238 0.0049999999 0.88999999
0.12540001 0.0049999999 0.88999999
0.1266 0.0049999999 0.88800001
0.12819999 0.0049999999 0.88800001
0.12989999 0.0049999999 0.889
0.1314 0.0049999999 0.889
0.1331 0.0049999999 0.88999999
0.1348 0.0049999999 0.89099997
0.1366 0.0049999999 0.89300001
0.13850001 0.0051000002 0.89499998
0.1402 0.0051000002 0.89600003
0.14210001 0.0051000002 0.898
0.1436 0.0051000002 0.898
0.1452 0.0051000002 0.898
0.14659999 0.0051000002 0.89700001
0.148 0.0051000002 0.89600003
0.1495 0.0051000002 0.89600003
0.15109999 0.0051000002 0.89600003
0.15279999 0.0051000002 0.89700001
0.15449999 0.0051000002 0.898
0.1561 0.0051000002 0.898
0.1578 0.0051000002 0.89899999
0.1595 0.0051000002 0.89999998
0.1611 0.0051000002 0.89999998
0.1627 0.0051000002 0.89999998
0.16419999 0.0051000002 0.89999998
0.16599999 0.0051000002 0.90100002
0.1675 0.0051000002 0.90100002
0.1689 0.0051000002 0.89999998
0.17030001 0.0051000002 0.89899999
0.1716 0.0051000002 0.898
0.1734 0.0051000002 0.89899999
0.17470001 0.0051000002 0.898
0.1763 0.0051000002 0.898
0.17900001 0.0051000002 0.89600003
0.1858 0.0051000002 0.89899999
0.18780001 0.0051000002 0.90100002
0.1902 0.0051000002 0.90499997
0.19239999 0.0051000002 0.90799999
-0.4032 0.0063999998 0.86900002
-0.40169999 0.0063999998 0.86900002
-0.3439 0.0065000001 0.87900001
-0.3423 0.0065000001 0.87900001
-0.34040001 0.0065000001 0.87800002
-0.33930001 0.0065000001 0.87900001
-0.3378 0.0065000001 0.87900001
-0.33660001 0.0065000001 0.88
-0.33050001 0.0065000001 0.884
-0.329 0.0065000001 0.884
-0.3274 0.0065000001 0.884
-0.32589999 0.0065000001 0.884
-0.32440001 0.0065000001 0.884
-0.32210001 0.0065000001 0.88200003
-0.3206 0.0065000001 0.88200003
-0.31909999 0.0065000001 0.88200003
-0.29530001 0.0065000001 0.884
-0.29409999 0.0065000001 0.88499999
-0.28830001 0.0065000001 0.88599998
-0.287 0.0065000001 0.88700002
-0.28490001 0.0065000001 0.88499999
-0.28060001 0.0065000001 0.88599998
-0.27970001 0.0066 0.88800001
-0.2791 0.0066 0.89099997
-0.2775 0.0066 0.89099997
-0.2667 0.0066 0.89099997
-0.2649 0.0066 0.88999999
-0.2633 0.0066 0.88999999
-0.26179999 0.0066 0.88999999
-0.26030001 0.0066 0.88999999
-0.25870001 0.0066 0.88999999
-0.2572 0.0066 0.88999999
-0.2559 0.0066 0.89099997
-0.25470001 0.0066 0.89200002
-0.25279999 0.0066 0.89099997
-0.2455 0.0065000001 0.88700002
-0.244 0.0065000001 0.88700002
-0.2422 0.0065000001 0.88599998
-0.2404 0.0065000001 0.88499999
-0.2388 0.0065000001 0.88499999
-0.23729999 0.0065000001 0.88499999
-0.2358 0.0065000001 0.88499999
-0.2342 0.0065000001 0.88499999
-0.2325 0.0065000001 0.884
-0.23119999 0.0065000001 0.88499999
-0.2296 0.0065000001 0.88499999
-0.2281 0.0065000001 0.88499999
-0.22499999 0.0065000001 0.88499999
-0.2235 0.0065000001 0.88499999
-0.222 0.0065000001 0.88499999
-0.22040001 0.0065000001 0.88499999
-0.21870001 0.0065000001 0.884
-0.21709999 0.0065000001 0.884
-0.21250001 0.0065000001 0.884
-0.21080001 0.0065000001 0.88300002
-0.2088 0.0065000001 0.88099998
-0.2068 0.0065000001 0.87900001
-0.2052 0.0065000001 0.87900001
-0.2035 0.0065000001 0.87800002
-0.20200001 0.0065000001 0.87800002
-0.2007 0.0065000001 0.87900001
-0.1989 0.0065000001 0.87800002
