ply
format ascii 1.0
comment PCL generated
element vertex 1667
property float x
property float y
property float z
element camera 0
property float view_px
property float view_py
property float view_pz
property float x_axisx
property float x_axisy
property float x_axisz
property float y_axisx
property float y_axisy
property float y_axisz
property float z_axisx
property float z_axisy
property float z_axisz
property float focal
property float scalex
property float scaley
property float centerx
property float centery
property int viewportx
property int viewporty
property float k1
property float k2
end_header
-0.1113 0.1657 0.83700001
-0.1051 0.1652 0.83399999
-0.1022 0.1652 0.83399999
-0.1008 0.1652 0.83399999
-0.0995 0.1653 0.83499998
-0.095299996 0.1657 0.83700001
-0.094099998 0.1661 0.83899999
-0.092900001 0.1665 0.84100002
-0.091600001 0.16689999 0.84299999
-0.090300001 0.1671 0.84399998
-0.088799998 0.1671 0.84399998
-0.087300003 0.16689999 0.84299999
-0.0858 0.16689999 0.84299999
-0.084399998 0.1671 0.84399998
-0.082900003 0.16689999 0.84299999
-0.081299998 0.16670001 0.84200001
-0.079800002 0.1665 0.84100002
-0.078299999 0.1665 0.84100002
-0.076700002 0.1661 0.83899999
-0.075099997 0.16590001 0.838
-0.073600002 0.1657 0.83700001
-0.072099999 0.1657 0.83700001
-0.070699997 0.1657 0.83700001
-0.069300003 0.16590001 0.838
-0.070299998 0.1796 0.90700001
-0.068700001 0.1794 0.90600002
-0.067199998 0.1796 0.90700001
-0.0656 0.1796 0.90700001
-0.064000003 0.1796 0.90700001
-0.062600002 0.1802 0.91000003
-0.0513 0.17900001 0.90399998
-0.049600001 0.1788 0.903
-0.048 0.1786 0.90200001
-0.046399999 0.17839999 0.90100002
-0.0447 0.1778 0.898
-0.043000001 0.17739999 0.89600003
-0.041499998 0.1772 0.89499998
-0.039900001 0.177 0.89399999
-0.038400002 0.17739999 0.89600003
-0.036800001 0.17739999 0.89600003
-0.035399999 0.1778 0.898
-0.0339 0.17839999 0.90100002
-0.032400001 0.1788 0.903
-0.030999999 0.1794 0.90600002
-0.0294 0.1794 0.90600002
-0.027799999 0.1794 0.90600002
-0.024700001 0.1796 0.90700001
-0.0231 0.1796 0.90700001
-0.021600001 0.1796 0.90700001
-0.02 0.1794 0.90600002
-0.0184 0.17919999 0.90499997
-0.016799999 0.17919999 0.90499997
-0.0152 0.17900001 0.90399998
-0.0137 0.1788 0.903
-0.0121 0.1788 0.903
-0.0105 0.1786 0.90200001
-0.0088999998 0.1786 0.90200001
-0.0074 0.1786 0.90200001
-0.0043000001 0.1788 0.903
-0.0027000001 0.1788 0.903
-0.0011 0.1786 0.90200001
0.00039999999 0.1786 0.90200001
0.0020000001 0.17839999 0.90100002
0.0035999999 0.17820001 0.89999998
0.0051000002 0.17820001 0.89999998
0.0066999998 0.1778 0.898
0.0082 0.178 0.89899999
0.0098000001 0.178 0.89899999
0.0114 0.17820001 0.89999998
0.0129 0.17820001 0.89999998
0.0145 0.17820001 0.89999998
0.016000001 0.1778 0.898
0.0176 0.178 0.89899999
0.0207 0.178 0.89899999
0.0222 0.1778 0.898
0.023800001 0.1778 0.898
0.0254 0.178 0.89899999
0.026900001 0.1778 0.898
0.0284 0.1778 0.898
0.029899999 0.17739999 0.89600003
0.031500001 0.17739999 0.89600003
0.033 0.17739999 0.89600003
0.034699999 0.1778 0.898
0.0363 0.17820001 0.89999998
0.037900001 0.17839999 0.90100002
0.0396 0.1788 0.903
0.041200001 0.17919999 0.90499997
0.042800002 0.17919999 0.90499997
0.044399999 0.1794 0.90600002
0.045899998 0.17919999 0.90499997
0.047400001 0.1788 0.903
0.048900001 0.1788 0.903
0.050500002 0.1788 0.903
0.052000001 0.1786 0.90200001
0.0535 0.17839999 0.90100002
0.055100001 0.17839999 0.90100002
0.056699999 0.1786 0.90200001
0.0583 0.1788 0.903
0.059900001 0.1788 0.903
0.0614 0.1786 0.90200001
0.064599998 0.1788 0.903
0.066200003 0.17900001 0.90399998
0.067900002 0.17919999 0.90499997
0.069399998 0.17919999 0.90499997
0.071000002 0.17919999 0.90499997
0.0726 0.17919999 0.90499997
0.074199997 0.17919999 0.90499997
0.075599998 0.17900001 0.90399998
0.077299997 0.17919999 0.90499997
0.078900002 0.17919999 0.90499997
0.080499999 0.1794 0.90600002
0.082199998 0.1796 0.90700001
0.083800003 0.1798 0.90799999
0.0854 0.1798 0.90799999
0.086999997 0.1798 0.90799999
0.088600002 0.1798 0.90799999
0.090000004 0.1796 0.90700001
0.091399997 0.17919999 0.90499997
0.093000002 0.17919999 0.90499997
0.094400004 0.17900001 0.90399998
0.095899999 0.1788 0.903
0.097499996 0.1788 0.903
0.099200003 0.17919999 0.90499997
0.1026 0.1796 0.90700001
0.1043 0.1798 0.90799999
0.1059 0.1798 0.90799999
0.1076 0.18000001 0.90899998
0.1106 0.1798 0.90799999
0.112 0.1796 0.90700001
0.1136 0.1796 0.90700001
0.1152 0.1796 0.90700001
0.1198 0.1794 0.90600002
0.1212 0.17919999 0.90499997
0.1228 0.17919999 0.90499997
0.1243 0.17919999 0.90499997
0.1258 0.17900001 0.90399998
0.12720001 0.1788 0.903
0.1288 0.1788 0.903
0.1303 0.1788 0.903
0.13169999 0.1786 0.90200001
0.14 0.17919999 0.90499997
0.1432 0.17919999 0.90499997
0.14470001 0.17919999 0.90499997
0.1463 0.17919999 0.90499997
0.1479 0.17919999 0.90499997
0.1496 0.1794 0.90600002
0.1512 0.1794 0.90600002
0.1529 0.1796 0.90700001
0.1547 0.1798 0.90799999
0.15620001 0.1798 0.90799999
0.15800001 0.18000001 0.90899998
0.15970001 0.1802 0.91000003
0.1613 0.1802 0.91000003
0.1629 0.1802 0.91000003
0.16429999 0.18000001 0.90899998
0.16599999 0.1802 0.91000003
0.1674 0.18000001 0.90899998
0.169 0.18000001 0.90899998
0.1706 0.18000001 0.90899998
0.17569999 0.1804 0.91100001
0.1771 0.1802 0.91000003
0.1814 0.1798 0.90799999
-0.40369999 0.1758 0.88
-0.4025 0.17659999 0.884
-0.40099999 0.17659999 0.884
-0.39989999 0.1768 0.88499999
-0.39840001 0.1768 0.88499999
-0.38499999 0.177 0.88599998
-0.38240001 0.1772 0.88700002
-0.38119999 0.17739999 0.88800001
-0.37970001 0.17739999 0.88800001
-0.37819999 0.17739999 0.88800001
-0.37310001 0.1772 0.88700002
-0.3651 0.1778 0.88999999
-0.35429999 0.177 0.88599998
-0.3524 0.1768 0.88499999
-0.34779999 0.1776 0.889
-0.347 0.178 0.89099997
-0.34509999 0.1778 0.88999999
-0.34349999 0.1778 0.88999999
-0.34119999 0.17739999 0.88800001
-0.33970001 0.17739999 0.88800001
-0.3382 0.17739999 0.88800001
-0.33000001 0.178 0.89099997
-0.3285 0.178 0.89099997
-0.32570001 0.17900001 0.89600003
-0.32449999 0.17919999 0.89700001
-0.30500001 0.1778 0.88999999
-0.30360001 0.1788 0.89499998
-0.30199999 0.1788 0.89499998
-0.29960001 0.17919999 0.89700001
-0.29769999 0.17900001 0.89600003
-0.2958 0.1788 0.89499998
-0.26350001 0.18000001 0.90100002
-0.26249999 0.1804 0.903
-0.24339999 0.17900001 0.89600003
-0.2418 0.17900001 0.89600003
-0.24079999 0.1794 0.898
-0.2392 0.1794 0.898
-0.23559999 0.17900001 0.89600003
-0.2343 0.17919999 0.89700001
-0.2325 0.17900001 0.89600003
-0.2309 0.17900001 0.89600003
-0.2273 0.1786 0.89399999
-0.2255 0.17839999 0.89300001
-0.2237 0.17820001 0.89200002
-0.2219 0.178 0.89099997
-0.22040001 0.178 0.89099997
-0.21879999 0.178 0.89099997
-0.2173 0.178 0.89099997
-0.21619999 0.17839999 0.89300001
-0.21520001 0.1788 0.89499998
-0.21430001 0.1794 0.898
-0.20299999 0.1804 0.903
-0.20100001 0.18000001 0.90100002
-0.1992 0.1798 0.89999998
-0.1979 0.18000001 0.90100002
-0.1961 0.1798 0.89999998
-0.1945 0.1798 0.89999998
-0.19140001 0.1798 0.89999998
-0.1899 0.1798 0.89999998
-0.18790001 0.1794 0.898
-0.18629999 0.1794 0.898
-0.1846 0.17919999 0.89700001
-0.1832 0.1794 0.898
-0.18170001 0.1794 0.898
-0.18009999 0.1794 0.898
-0.1785 0.1794 0.898
-0.177 0.1794 0.898
-0.1758 0.1798 0.89999998
-0.1684 0.1802 0.90200001
-0.1649 0.1798 0.89999998
-0.16329999 0.1798 0.89999998
-0.16159999 0.1796 0.89899999
-0.15970001 0.17919999 0.89700001
-0.1578 0.1788 0.89499998
-0.1559 0.17839999 0.89300001
-0.1543 0.17839999 0.89300001
-0.1524 0.178 0.89099997
-0.1507 0.1778 0.88999999
-0.1477 0.1778 0.88999999
-0.1461 0.1778 0.88999999
-0.1451 0.17839999 0.89300001
-0.14380001 0.1788 0.89499998
-0.14229999 0.1788 0.89499998
-0.1407 0.1788 0.89499998
-0.1392 0.1788 0.89499998
-0.13779999 0.17900001 0.89600003
-0.13609999 0.1788 0.89499998
-0.1204 0.16779999 0.83999997
-0.1185 0.1672 0.83700001
-0.1172 0.1674 0.838
-0.1159 0.16760001 0.83899999
-0.1143 0.1674 0.838
-0.1129 0.1674 0.838
-0.1008 0.1666 0.83399999
-0.097900003 0.1666 0.83399999
-0.095299996 0.1672 0.83700001
-0.094099998 0.16760001 0.83899999
-0.092900001 0.168 0.84100002
-0.091600001 0.1684 0.84299999
-0.090300001 0.16859999 0.84399998
-0.088799998 0.16859999 0.84399998
-0.087399997 0.16859999 0.84399998
-0.085900001 0.16859999 0.84399998
-0.084399998 0.16859999 0.84399998
-0.082999997 0.16859999 0.84399998
-0.0814 0.1684 0.84299999
-0.078199998 0.16779999 0.83999997
-0.076700002 0.16760001 0.83899999
-0.075099997 0.1674 0.838
-0.0722 0.1674 0.838
-0.070799999 0.16760001 0.83899999
-0.069399998 0.16760001 0.83899999
-0.0704 0.1814 0.90799999
-0.068700001 0.1812 0.90700001
-0.067199998 0.1812 0.90700001
-0.0656 0.1812 0.90700001
-0.064199999 0.1816 0.90899998
-0.062700003 0.182 0.91100001
-0.0513 0.1806 0.90399998
-0.049600001 0.1804 0.903
-0.048099998 0.1804 0.903
-0.046500001 0.1802 0.90200001
-0.0447 0.1794 0.898
-0.043099999 0.1794 0.898
-0.041499998 0.17900001 0.89600003
-0.039900001 0.17900001 0.89600003
-0.0385 0.1794 0.898
-0.037 0.1796 0.89899999
-0.035399999 0.1798 0.89999998
-0.032499999 0.1806 0.90399998
-0.030999999 0.18099999 0.90600002
-0.0294 0.1812 0.90700001
-0.024800001 0.18179999 0.91000003
-0.0232 0.18179999 0.91000003
-0.021600001 0.1816 0.90899998
-0.02 0.1814 0.90799999
-0.0184 0.1812 0.90700001
-0.016799999 0.18080001 0.90499997
-0.0152 0.1806 0.90399998
-0.0137 0.1804 0.903
-0.0121 0.1804 0.903
-0.0105 0.1802 0.90200001
-0.0057999999 0.1804 0.903
-0.0043000001 0.1804 0.903
-0.0027000001 0.1804 0.903
-0.0011 0.18000001 0.90100002
0.00039999999 0.18000001 0.90100002
0.0020000001 0.1798 0.89999998
0.0035999999 0.1798 0.89999998
0.0051000002 0.1794 0.898
0.0066 0.17919999 0.89700001
0.0082 0.1794 0.898
0.0098000001 0.1796 0.89899999
0.0114 0.1798 0.89999998
0.0129 0.1798 0.89999998
0.0145 0.1798 0.89999998
0.016000001 0.1796 0.89899999
0.0176 0.1796 0.89899999
0.019099999 0.1794 0.898
0.0207 0.1798 0.89999998
0.022299999 0.1798 0.89999998
0.023800001 0.1796 0.89899999
0.0254 0.1798 0.89999998
0.026900001 0.1798 0.89999998
0.0285 0.1796 0.89899999
0.029999999 0.1794 0.898
0.031500001 0.17900001 0.89600003
0.033 0.17900001 0.89600003
0.034699999 0.1794 0.898
0.0363 0.1796 0.89899999
0.037900001 0.1798 0.89999998
0.039500002 0.1802 0.90200001
0.041200001 0.1806 0.90399998
0.042800002 0.18080001 0.90499997
0.044399999 0.18080001 0.90499997
0.045899998 0.1806 0.90399998
0.047400001 0.1804 0.903
0.048900001 0.1804 0.903
0.0504 0.18000001 0.90100002
0.052000001 0.18000001 0.90100002
0.0535 0.18000001 0.90100002
0.055 0.1798 0.89999998
0.056600001 0.18000001 0.90100002
0.0583 0.1804 0.903
0.059799999 0.1802 0.90200001
0.0614 0.1802 0.90200001
0.063000001 0.1804 0.903
0.066200003 0.1806 0.90399998
0.067900002 0.18080001 0.90499997
0.069399998 0.18080001 0.90499997
0.071000002 0.18080001 0.90499997
0.0726 0.18080001 0.90499997
0.074199997 0.18080001 0.90499997
0.0757 0.18080001 0.90499997
0.077299997 0.18080001 0.90499997
0.078900002 0.18080001 0.90499997
0.080499999 0.18099999 0.90600002
0.082199998 0.1812 0.90700001
0.083800003 0.1814 0.90799999
0.0854 0.1814 0.90799999
0.086999997 0.1814 0.90799999
0.088500001 0.1812 0.90700001
0.089900002 0.18099999 0.90600002
0.091399997 0.18080001 0.90499997
0.093000002 0.18080001 0.90499997
0.094400004 0.1806 0.90399998
0.095899999 0.1804 0.903
0.097599998 0.1806 0.90399998
0.099200003 0.18080001 0.90499997
0.101 0.1812 0.90700001
0.1026 0.1812 0.90700001
0.1043 0.1814 0.90799999
0.1059 0.1814 0.90799999
0.1074 0.1814 0.90799999
0.109 0.1814 0.90799999
0.1106 0.1814 0.90799999
0.1136 0.1812 0.90700001
0.1152 0.1812 0.90700001
0.1168 0.1812 0.90700001
0.1198 0.18099999 0.90600002
0.1213 0.18099999 0.90600002
0.1243 0.18080001 0.90499997
0.12720001 0.1804 0.903
0.1288 0.1804 0.903
0.1302 0.1802 0.90200001
0.13169999 0.1802 0.90200001
0.13850001 0.18080001 0.90499997
0.14 0.18080001 0.90499997
0.1418 0.18099999 0.90600002
0.1433 0.18099999 0.90600002
0.14470001 0.18080001 0.90499997
0.1463 0.18080001 0.90499997
0.1479 0.18080001 0.90499997
0.1496 0.18099999 0.90600002
0.1512 0.18099999 0.90600002
0.1529 0.1812 0.90700001
0.1547 0.1814 0.90799999
0.1564 0.1816 0.90899998
0.15800001 0.1816 0.90899998
0.15970001 0.18179999 0.91000003
0.1613 0.18179999 0.91000003
0.1627 0.1816 0.90899998
0.16410001 0.1814 0.90799999
0.1657 0.1814 0.90799999
0.1672 0.1814 0.90799999
0.1688 0.1814 0.90799999
0.17039999 0.1814 0.90799999
0.1753 0.1816 0.90899998
0.1771 0.18179999 0.91000003
0.1814 0.1814 0.90799999
-0.40400001 0.1781 0.884
-0.4025 0.1781 0.884
-0.40099999 0.1781 0.884
-0.39989999 0.17829999 0.88499999
-0.38190001 0.1785 0.88599998
-0.38080001 0.1787 0.88700002
-0.3793 0.1787 0.88700002
-0.37819999 0.1789 0.88800001
-0.37470001 0.1787 0.88700002
-0.3601 0.17910001 0.889
-0.35820001 0.1789 0.88800001
-0.35659999 0.1789 0.88800001
-0.35510001 0.1789 0.88800001
-0.3531 0.1787 0.88700002
-0.34819999 0.1793 0.88999999
-0.347 0.1795 0.89099997
-0.34549999 0.1795 0.89099997
-0.34349999 0.1793 0.88999999
-0.3416 0.17910001 0.889
-0.33970001 0.1789 0.88800001
-0.3382 0.1789 0.88800001
-0.3312 0.1793 0.88999999
-0.3308 0.17990001 0.89300001
-0.32960001 0.18009999 0.89399999
-0.32839999 0.1803 0.89499998
-0.32570001 0.1805 0.89600003
-0.32409999 0.1805 0.89600003
-0.3222 0.1803 0.89499998
-0.30500001 0.1793 0.88999999
-0.30329999 0.18009999 0.89399999
-0.2974 0.1803 0.89499998
-0.28529999 0.1795 0.89099997
-0.2449 0.1805 0.89600003
-0.2436 0.1807 0.89700001
-0.2421 0.1807 0.89700001
-0.24079999 0.18089999 0.898
-0.2392 0.18089999 0.898
-0.2377 0.18089999 0.898
-0.2361 0.18089999 0.898
-0.23459999 0.18089999 0.898
-0.233 0.18089999 0.898
-0.2315 0.18089999 0.898
-0.2297 0.1807 0.89700001
-0.2278 0.1805 0.89600003
-0.226 0.1803 0.89499998
-0.22400001 0.17990001 0.89300001
-0.22220001 0.1797 0.89200002
-0.22059999 0.1797 0.89200002
-0.21879999 0.1795 0.89099997
-0.2173 0.1795 0.89099997
-0.2158 0.1795 0.89099997
-0.2142 0.1795 0.89099997
-0.2132 0.17990001 0.89300001
-0.21179999 0.18009999 0.89399999
-0.2084 0.1825 0.90600002
-0.20640001 0.1821 0.90399998
-0.20460001 0.18189999 0.903
-0.20280001 0.18170001 0.90200001
-0.2008 0.1813 0.89999998
-0.1992 0.1813 0.89999998
-0.1979 0.1815 0.90100002
-0.1963 0.1815 0.90100002
-0.1934 0.18170001 0.90200001
-0.19159999 0.1815 0.90100002
-0.1899 0.1813 0.89999998
-0.18790001 0.18089999 0.898
-0.18629999 0.18089999 0.898
-0.18440001 0.1805 0.89600003
-0.1832 0.18089999 0.898
-0.18170001 0.18089999 0.898
-0.18009999 0.18089999 0.898
-0.1789 0.1813 0.89999998
-0.1776 0.1815 0.90100002
-0.1762 0.18170001 0.90200001
-0.17479999 0.18189999 0.903
-0.17209999 0.1823 0.90499997
-0.1705 0.1823 0.90499997
-0.16859999 0.18189999 0.903
-0.16680001 0.18170001 0.90200001
-0.1649 0.1813 0.89999998
-0.16320001 0.1811 0.89899999
-0.16140001 0.18089999 0.898
-0.1595 0.1805 0.89600003
-0.1578 0.1803 0.89499998
-0.1561 0.18009999 0.89399999
-0.1543 0.17990001 0.89300001
-0.15279999 0.17990001 0.89300001
-0.15090001 0.1795 0.89099997
-0.1494 0.1795 0.89099997
-0.1478 0.1795 0.89099997
-0.1464 0.1797 0.89200002
-0.1455 0.1805 0.89600003
-0.14399999 0.1805 0.89600003
-0.14229999 0.1803 0.89499998
-0.1407 0.1803 0.89499998
-0.1393 0.1805 0.89600003
-0.13779999 0.1805 0.89600003
-0.13609999 0.1803 0.89499998
-0.13420001 0.17990001 0.89300001
-0.13249999 0.1797 0.89200002
-0.1174 0.169 0.83899999
-0.1162 0.16949999 0.84100002
-0.1051 0.168 0.83399999
-0.1035 0.16779999 0.833
-0.1022 0.168 0.83399999
-0.1008 0.168 0.83399999
-0.099299997 0.168 0.83399999
-0.097900003 0.168 0.83399999
-0.094300002 0.16949999 0.84100002
-0.093199998 0.1701 0.84399998
-0.091700003 0.1701 0.84399998
-0.090300001 0.1701 0.84399998
-0.0889 0.17030001 0.84500003
-0.087499999 0.17030001 0.84500003
-0.086000003 0.17030001 0.84500003
-0.0845 0.17030001 0.84500003
-0.083099999 0.17030001 0.84500003
-0.081500001 0.1701 0.84399998
-0.079999998 0.1699 0.84299999
-0.075099997 0.1688 0.838
-0.072099999 0.16859999 0.83700001
-0.070699997 0.16859999 0.83700001
-0.069200002 0.16859999 0.83700001
-0.0704 0.183 0.90799999
-0.068700001 0.18279999 0.90700001
-0.067199998 0.18279999 0.90700001
-0.0656 0.18279999 0.90700001
-0.064000003 0.18279999 0.90700001
-0.062399998 0.18279999 0.90700001
-0.054299999 0.18189999 0.903
-0.052700002 0.18170001 0.90200001
-0.051199999 0.18170001 0.90200001
-0.049600001 0.18170001 0.90200001
-0.048 0.1815 0.90100002
-0.046399999 0.1815 0.90100002
-0.044799998 0.1811 0.89899999
-0.043099999 0.1807 0.89700001
-0.041499998 0.1805 0.89600003
-0.039999999 0.1807 0.89700001
-0.037 0.1815 0.90100002
-0.034000002 0.18189999 0.903
-0.032499999 0.1823 0.90499997
-0.0295 0.183 0.90799999
-0.027899999 0.183 0.90799999
-0.0264 0.18359999 0.91100001
-0.020099999 0.18340001 0.91000003
-0.0184 0.183 0.90799999
-0.016899999 0.18279999 0.90700001
-0.0152 0.1823 0.90499997
-0.0137 0.1821 0.90399998
-0.0121 0.1821 0.90399998
-0.0105 0.18189999 0.903
-0.0074 0.18189999 0.903
-0.0043000001 0.18189999 0.903
-0.0027000001 0.18189999 0.903
-0.0011 0.1815 0.90100002
0.00039999999 0.1813 0.89999998
0.0020000001 0.1813 0.89999998
0.0035000001 0.1811 0.89899999
0.0051000002 0.18089999 0.898
0.0066 0.1807 0.89700001
0.0082 0.18089999 0.898
0.0098000001 0.18089999 0.898
0.0114 0.1813 0.89999998
0.0129 0.1815 0.90100002
0.0145 0.1813 0.89999998
0.016000001 0.1813 0.89999998
0.0207 0.1815 0.90100002
0.022299999 0.1813 0.89999998
0.023800001 0.1813 0.89999998
0.0254 0.1815 0.90100002
0.026900001 0.1813 0.89999998
0.0285 0.1813 0.89999998
0.029999999 0.1811 0.89899999
0.031599998 0.18089999 0.898
0.033100002 0.18089999 0.898
0.034699999 0.1811 0.89899999
0.0363 0.1811 0.89899999
0.037900001 0.1813 0.89999998
0.039500002 0.1815 0.90100002
0.041099999 0.18189999 0.903
0.0427 0.18189999 0.903
0.044300001 0.1821 0.90399998
0.0458 0.18189999 0.903
0.0473 0.18170001 0.90200001
0.048900001 0.18170001 0.90200001
0.0504 0.1815 0.90100002
0.0535 0.1813 0.89999998
0.055 0.1813 0.89999998
0.056600001 0.1815 0.90100002
0.0583 0.18170001 0.90200001
0.059799999 0.1815 0.90100002
0.061299998 0.1815 0.90100002
0.062899999 0.1815 0.90100002
0.064499997 0.1815 0.90100002
0.066200003 0.18189999 0.903
0.067699999 0.18189999 0.903
0.069300003 0.18189999 0.903
0.070900001 0.1821 0.90399998
0.0726 0.1823 0.90499997
0.074199997 0.1823 0.90499997
0.0757 0.1823 0.90499997
0.077299997 0.1823 0.90499997
0.078900002 0.1823 0.90499997
0.080499999 0.1825 0.90600002
0.082199998 0.18279999 0.90700001
0.083700001 0.18279999 0.90700001
0.085299999 0.18279999 0.90700001
0.086800002 0.1825 0.90600002
0.088299997 0.1823 0.90499997
0.0898 0.1823 0.90499997
0.091399997 0.1823 0.90499997
0.092900001 0.1821 0.90399998
0.094400004 0.1821 0.90399998
0.096000001 0.1821 0.90399998
0.0977 0.1823 0.90499997
0.099200003 0.1823 0.90499997
0.101 0.18279999 0.90700001
0.1027 0.183 0.90799999
0.1059 0.183 0.90799999
0.1074 0.183 0.90799999
0.109 0.183 0.90799999
0.1105 0.18279999 0.90700001
0.112 0.18279999 0.90700001
0.1136 0.18279999 0.90700001
0.1152 0.18279999 0.90700001
0.1168 0.18279999 0.90700001
0.1183 0.18279999 0.90700001
0.1243 0.1823 0.90499997
0.1258 0.1821 0.90399998
0.12720001 0.18189999 0.903
0.1286 0.18170001 0.90200001
0.1302 0.18170001 0.90200001
0.14 0.1823 0.90499997
0.1418 0.1825 0.90600002
0.1432 0.1823 0.90499997
0.14489999 0.1825 0.90600002
0.1463 0.1823 0.90499997
0.1479 0.1823 0.90499997
0.1496 0.1825 0.90600002
0.1513 0.18279999 0.90700001
0.1529 0.18279999 0.90700001
0.15449999 0.18279999 0.90700001
0.15620001 0.183 0.90799999
0.1578 0.183 0.90799999
0.1596 0.1832 0.90899998
0.1611 0.1832 0.90899998
0.16249999 0.183 0.90799999
0.1639 0.18279999 0.90700001
0.1657 0.183 0.90799999
0.1672 0.183 0.90799999
0.1688 0.183 0.90799999
0.17039999 0.183 0.90799999
0.1718 0.18279999 0.90700001
0.1753 0.1832 0.90899998
0.17829999 0.183 0.90799999
0.1812 0.18279999 0.90700001
0.18279999 0.18279999 0.90700001
-0.40360001 0.1794 0.88300002
-0.4014 0.17990001 0.88499999
-0.38699999 0.1803 0.88700002
-0.38240001 0.1803 0.88700002
-0.38080001 0.1803 0.88700002
-0.3793 0.1803 0.88700002
-0.3777 0.1803 0.88700002
-0.36090001 0.1811 0.89099997
-0.359 0.18089999 0.88999999
-0.35510001 0.1805 0.88800001
-0.35350001 0.1805 0.88800001
-0.34549999 0.1811 0.89099997
-0.34349999 0.18089999 0.88999999
-0.3416 0.1807 0.889
-0.33970001 0.1805 0.88800001
-0.3265 0.18170001 0.89399999
-0.3238 0.18189999 0.89499998
-0.3215 0.1815 0.89300001
-0.31729999 0.18089999 0.88999999
-0.30599999 0.1815 0.89300001
-0.30509999 0.18189999 0.89499998
-0.30360001 0.18189999 0.89499998
-0.30239999 0.1821 0.89600003
-0.3008 0.1821 0.89600003
-0.29519999 0.1815 0.89300001
-0.287 0.1803 0.88700002
-0.28459999 0.1807 0.889
-0.2449 0.1821 0.89600003
-0.2439 0.1825 0.898
-0.24240001 0.1825 0.898
-0.2411 0.18269999 0.89899999
-0.2395 0.18269999 0.89899999
-0.2377 0.1825 0.898
-0.23639999 0.18269999 0.89899999
-0.233 0.1825 0.898
-0.2315 0.1825 0.898
-0.2297 0.1823 0.89700001
-0.2278 0.1821 0.89600003
-0.226 0.18189999 0.89499998
-0.22400001 0.1815 0.89300001
-0.22239999 0.1815 0.89300001
-0.22059999 0.1813 0.89200002
-0.21879999 0.1811 0.89099997
-0.2173 0.1811 0.89099997
-0.2158 0.1811 0.89099997
-0.2142 0.1811 0.89099997
-0.2132 0.1815 0.89300001
-0.21179999 0.18170001 0.89399999
-0.21080001 0.1821 0.89600003
-0.2101 0.1829 0.89999998
-0.2088 0.1831 0.90100002
-0.20730001 0.1831 0.90100002
-0.2057 0.1831 0.90100002
-0.20389999 0.1829 0.89999998
-0.2023 0.1829 0.89999998
-0.2008 0.1829 0.89999998
-0.1992 0.1829 0.89999998
-0.19769999 0.1829 0.89999998
-0.1961 0.1829 0.89999998
-0.19320001 0.1831 0.90100002
-0.19159999 0.1831 0.90100002
-0.18970001 0.18269999 0.89899999
-0.1875 0.1821 0.89600003
-0.1859 0.1821 0.89600003
-0.18440001 0.1821 0.89600003
-0.1832 0.1825 0.898
-0.18189999 0.18269999 0.89899999
-0.1803 0.18269999 0.89899999
-0.1789 0.1829 0.89999998
-0.1776 0.1831 0.90100002
-0.17640001 0.18350001 0.903
-0.175 0.1837 0.90399998
-0.1735 0.1837 0.90399998
-0.17209999 0.1839 0.90499997
-0.1705 0.1839 0.90499997
-0.16859999 0.18350001 0.903
-0.16680001 0.1833 0.90200001
-0.1649 0.1829 0.89999998
-0.16320001 0.18269999 0.89899999
-0.16140001 0.1825 0.898
-0.15970001 0.1823 0.89700001
-0.15800001 0.1821 0.89600003
-0.1561 0.18170001 0.89399999
-0.1543 0.1815 0.89300001
-0.15279999 0.1815 0.89300001
-0.1512 0.1815 0.89300001
-0.1497 0.1815 0.89300001
-0.1481 0.1815 0.89300001
-0.1469 0.18189999 0.89499998
-0.14569999 0.1823 0.89700001
-0.1443 0.1825 0.898
-0.1426 0.1823 0.89700001
-0.1409 0.1821 0.89600003
-0.13950001 0.1823 0.89700001
-0.1381 0.1825 0.898
-0.1362 0.1821 0.89600003
-0.1344 0.18170001 0.89399999
-0.1328 0.18170001 0.89399999
-0.13169999 0.1823 0.89700001
-0.13 0.1821 0.89600003
-0.1286 0.1823 0.89700001
-0.1055 0.1701 0.83700001
-0.1037 0.16949999 0.83399999
-0.1022 0.16949999 0.83399999
-0.1008 0.16949999 0.83399999
-0.0995 0.1697 0.83499998
-0.097999997 0.1697 0.83499998
-0.095799997 0.1709 0.84100002
-0.094700001 0.1715 0.84399998
-0.093400002 0.1719 0.84600002
-0.091899998 0.1717 0.84500003
-0.090499997 0.1719 0.84600002
-0.089000002 0.1719 0.84600002
-0.0876 0.1719 0.84600002
-0.086099997 0.1719 0.84600002
-0.084600002 0.1719 0.84600002
-0.081600003 0.1717 0.84500003
-0.078299999 0.1709 0.84100002
-0.0766 0.17030001 0.838
-0.075000003 0.1701 0.83700001
-0.073600002 0.1701 0.83700001
-0.072099999 0.1701 0.83700001
-0.070699997 0.1701 0.83700001
-0.069300003 0.17030001 0.838
-0.067900002 0.17030001 0.838
-0.070299998 0.18430001 0.90700001
-0.068599999 0.1839 0.90499997
-0.067000002 0.1839 0.90499997
-0.065399997 0.1839 0.90499997
-0.063900001 0.1839 0.90499997
-0.0623 0.1839 0.90499997
-0.060600001 0.18350001 0.903
-0.059 0.1833 0.90200001
-0.057399999 0.1833 0.90200001
-0.055799998 0.1831 0.90100002
-0.054200001 0.1829 0.89999998
-0.052499998 0.18269999 0.89899999
-0.050999999 0.1829 0.89999998
-0.049600001 0.1833 0.90200001
-0.048 0.1831 0.90100002
-0.046399999 0.1831 0.90100002
-0.0447 0.1825 0.898
-0.043000001 0.1821 0.89600003
-0.041499998 0.1821 0.89600003
-0.039900001 0.1821 0.89600003
-0.037 0.1829 0.89999998
-0.035500001 0.1831 0.90100002
-0.034000002 0.1833 0.90200001
-0.032499999 0.1837 0.90399998
-0.0309 0.1839 0.90499997
-0.027899999 0.18430001 0.90700001
-0.024800001 0.1851 0.91100001
-0.0233 0.18529999 0.912
-0.021600001 0.1849 0.91000003
-0.02 0.1847 0.90899998
-0.0184 0.18449999 0.90799999
-0.016799999 0.1841 0.90600002
-0.0152 0.1839 0.90499997
-0.0137 0.1837 0.90399998
-0.0121 0.1837 0.90399998
-0.0105 0.1837 0.90399998
-0.0074 0.1837 0.90399998
-0.0057999999 0.1837 0.90399998
-0.0043000001 0.1837 0.90399998
-0.0027000001 0.18350001 0.903
-0.0011 0.1833 0.90200001
0.00039999999 0.1831 0.90100002
0.0020000001 0.1829 0.89999998
0.0035000001 0.18269999 0.89899999
0.0051000002 0.1825 0.898
0.0066999998 0.1825 0.898
0.0082 0.1825 0.898
0.0098000001 0.1829 0.89999998
0.0114 0.1833 0.90200001
0.0129 0.1833 0.90200001
0.0145 0.1833 0.90200001
0.016000001 0.1831 0.90100002
0.019200001 0.1831 0.90100002
0.0208 0.1833 0.90200001
0.022299999 0.1831 0.90100002
0.0239 0.1831 0.90100002
0.0254 0.1831 0.90100002
0.027000001 0.1831 0.90100002
0.0285 0.1831 0.90100002
0.030099999 0.1829 0.89999998
0.031599998 0.1829 0.89999998
0.033199999 0.18269999 0.89899999
0.034699999 0.1829 0.89999998
0.0363 0.1829 0.89999998
0.037900001 0.1829 0.89999998
0.039500002 0.1831 0.90100002
0.041099999 0.1833 0.90200001
0.0427 0.18350001 0.903
0.044300001 0.18350001 0.903
0.0458 0.1833 0.90200001
0.0473 0.1831 0.90100002
0.048799999 0.1831 0.90100002
0.0504 0.1831 0.90100002
0.051899999 0.1829 0.89999998
0.0535 0.1829 0.89999998
0.056600001 0.1831 0.90100002
0.0583 0.1833 0.90200001
0.059799999 0.1831 0.90100002
0.061299998 0.1831 0.90100002
0.062899999 0.1831 0.90100002
0.066100001 0.1833 0.90200001
0.067699999 0.18350001 0.903
0.069300003 0.18350001 0.903
0.071000002 0.1839 0.90499997
0.0726 0.1839 0.90499997
0.074199997 0.1841 0.90600002
0.075900003 0.18430001 0.90700001
0.077500001 0.18430001 0.90700001
0.078900002 0.1841 0.90600002
0.080499999 0.1841 0.90600002
0.082099997 0.1841 0.90600002
0.083700001 0.1841 0.90600002
0.085199997 0.1841 0.90600002
0.0867 0.1839 0.90499997
0.088299997 0.1839 0.90499997
0.089699998 0.1837 0.90399998
0.091200002 0.18350001 0.903
0.092799999 0.18350001 0.903
0.094300002 0.18350001 0.903
0.095899999 0.18350001 0.903
0.097499996 0.18350001 0.903
0.099200003 0.1839 0.90499997
0.101 0.18430001 0.90700001
0.1026 0.18430001 0.90700001
0.1043 0.18449999 0.90799999
0.1059 0.18449999 0.90799999
0.1074 0.18449999 0.90799999
0.109 0.18449999 0.90799999
0.1106 0.18449999 0.90799999
0.112 0.18430001 0.90700001
0.1136 0.18430001 0.90700001
0.1168 0.18430001 0.90700001
0.1183 0.18430001 0.90700001
0.1243 0.1839 0.90499997
0.1258 0.1837 0.90399998
0.12720001 0.18350001 0.903
0.1286 0.1833 0.90200001
0.13 0.1831 0.90100002
0.13860001 0.1841 0.90600002
0.1402 0.1841 0.90600002
0.1418 0.1841 0.90600002
0.1432 0.1839 0.90499997
0.14470001 0.1839 0.90499997
0.1463 0.1839 0.90499997
0.148 0.1841 0.90600002
0.1496 0.1841 0.90600002
0.1512 0.1841 0.90600002
0.15270001 0.1841 0.90600002
0.1543 0.1841 0.90600002
0.1561 0.18430001 0.90700001
0.1576 0.18430001 0.90700001
0.1592 0.18430001 0.90700001
0.1608 0.18430001 0.90700001
0.16230001 0.18430001 0.90700001
0.1639 0.18430001 0.90700001
0.1655 0.18430001 0.90700001
0.1671 0.18430001 0.90700001
0.16859999 0.18430001 0.90700001
0.17020001 0.18430001 0.90700001
0.1735 0.18449999 0.90799999
0.1751 0.18449999 0.90799999
0.17829999 0.18449999 0.90799999
0.1798 0.18449999 0.90799999
0.1816 0.1847 0.90899998
0.183 0.18449999 0.90799999
-0.41850001 0.1802 0.87900001
-0.40400001 0.1812 0.884
-0.4025 0.1812 0.884
-0.4014 0.1814 0.88499999
-0.39789999 0.1812 0.884
-0.38190001 0.1816 0.88599998
-0.3804 0.1816 0.88599998
-0.3784 0.1814 0.88499999
-0.37689999 0.1814 0.88499999
-0.3734 0.1812 0.884
-0.37189999 0.1812 0.884
-0.37029999 0.1812 0.884
-0.36289999 0.18359999 0.89600003
-0.36019999 0.183 0.89300001
-0.35589999 0.1824 0.88999999
-0.35389999 0.1822 0.889
-0.35159999 0.18179999 0.88700002
-0.34349999 0.1824 0.88999999
-0.3416 0.1822 0.889
-0.33970001 0.182 0.88800001
-0.3382 0.182 0.88800001
-0.3351 0.182 0.88800001
-0.3312 0.1824 0.88999999
-0.3308 0.183 0.89300001
-0.32800001 0.1832 0.89399999
-0.32609999 0.183 0.89300001
-0.31889999 0.1824 0.88999999
-0.31659999 0.182 0.88800001
-0.30649999 0.1824 0.88999999
-0.30450001 0.183 0.89300001
-0.30329999 0.1832 0.89399999
-0.30199999 0.18340001 0.89499998
-0.28529999 0.18260001 0.89099997
-0.2449 0.18359999 0.89600003
-0.24339999 0.18359999 0.89600003
-0.24240001 0.184 0.898
-0.24079999 0.184 0.898
-0.2395 0.18430001 0.89899999
-0.23819999 0.18449999 0.89999998
-0.2367 0.18449999 0.89999998
-0.2351 0.18449999 0.89999998
-0.2335 0.18449999 0.89999998
-0.2315 0.184 0.898
-0.2297 0.1838 0.89700001
-0.22759999 0.18340001 0.89499998
-0.22579999 0.1832 0.89399999
-0.2237 0.18279999 0.89200002
-0.2219 0.18260001 0.89099997
-0.22040001 0.18260001 0.89099997
-0.2186 0.1824 0.88999999
-0.2173 0.18260001 0.89099997
-0.2158 0.18260001 0.89099997
-0.2147 0.183 0.89300001
-0.21340001 0.1832 0.89399999
-0.2121 0.18340001 0.89499998
-0.211 0.1838 0.89700001
-0.2101 0.18449999 0.89999998
-0.2084 0.18430001 0.89899999
-0.2068 0.18430001 0.89899999
-0.2052 0.18430001 0.89899999
-0.20389999 0.18449999 0.89999998
-0.2023 0.18449999 0.89999998
-0.2008 0.18449999 0.89999998
-0.1992 0.18449999 0.89999998
-0.1979 0.1847 0.90100002
-0.1963 0.1847 0.90100002
-0.19320001 0.1847 0.90100002
-0.19140001 0.18449999 0.89999998
-0.189 0.18359999 0.89600003
-0.18700001 0.1832 0.89399999
-0.18529999 0.183 0.89300001
-0.1842 0.18340001 0.89499998
-0.183 0.1838 0.89700001
-0.1815 0.1838 0.89700001
-0.18009999 0.184 0.898
-0.1785 0.184 0.898
-0.1772 0.18430001 0.89899999
-0.1758 0.18449999 0.89999998
-0.1745 0.1847 0.90100002
-0.17290001 0.1847 0.90100002
-0.17129999 0.1847 0.90100002
-0.1698 0.1847 0.90100002
-0.1682 0.1847 0.90100002
-0.1665 0.18449999 0.89999998
-0.1649 0.18449999 0.89999998
-0.16320001 0.18430001 0.89899999
-0.16140001 0.184 0.898
-0.15970001 0.1838 0.89700001
-0.15800001 0.18359999 0.89600003
-0.15620001 0.18340001 0.89499998
-0.1543 0.183 0.89300001
-0.1524 0.18260001 0.89099997
-0.15090001 0.18260001 0.89099997
-0.1494 0.18260001 0.89099997
-0.148 0.18279999 0.89200002
-0.14659999 0.183 0.89300001
-0.1455 0.18359999 0.89600003
-0.1443 0.184 0.898
-0.1428 0.184 0.898
-0.14120001 0.184 0.898
-0.13959999 0.184 0.898
-0.1381 0.184 0.898
-0.1364 0.1838 0.89700001
-0.1347 0.18359999 0.89600003
-0.13339999 0.184 0.898
-0.1319 0.184 0.898
-0.13 0.18359999 0.89600003
-0.1286 0.1838 0.89700001
-0.127 0.1838 0.89700001
-0.1261 0.1847 0.90100002
-0.1248 0.1851 0.903
-0.1232 0.1851 0.903
-0.1214 0.1847 0.90100002
-0.1194 0.184 0.898
-0.1038 0.17110001 0.83499998
-0.1023 0.17110001 0.83499998
-0.1009 0.17110001 0.83499998
-0.0995 0.17110001 0.83499998
-0.098200001 0.1715 0.83700001
-0.097099997 0.17219999 0.83999997
-0.094899997 0.1734 0.84600002
-0.093500003 0.1736 0.847
-0.092 0.1734 0.84600002
-0.090599999 0.1736 0.847
-0.089100003 0.1736 0.847
-0.0876 0.1734 0.84600002
-0.086099997 0.1734 0.84600002
-0.084600002 0.1734 0.84600002
-0.081600003 0.1732 0.84500003
-0.079999998 0.1728 0.84299999
-0.076499999 0.1715 0.83700001
-0.074900001 0.17129999 0.83600003
-0.0735 0.17129999 0.83600003
-0.071999997 0.17129999 0.83600003
-0.070600003 0.17129999 0.83600003
-0.069200002 0.1715 0.83700001
-0.067900002 0.17200001 0.83899999
-0.066600002 0.17219999 0.83999997
-0.070100002 0.1855 0.90499997
-0.068599999 0.1855 0.90499997
-0.067000002 0.1855 0.90499997
-0.065399997 0.1855 0.90499997
-0.0638 0.18529999 0.90399998
-0.062199999 0.18529999 0.90399998
-0.060600001 0.1851 0.903
-0.059 0.1849 0.90200001
-0.057399999 0.1849 0.90200001
-0.0557 0.18449999 0.89999998
-0.054099999 0.18430001 0.89899999
-0.052499998 0.18430001 0.89899999
-0.050999999 0.18449999 0.89999998
-0.0495 0.1847 0.90100002
-0.048 0.1847 0.90100002
-0.046399999 0.18449999 0.89999998
-0.0447 0.184 0.898
-0.043000001 0.18359999 0.89600003
-0.041499998 0.18340001 0.89499998
-0.039900001 0.18359999 0.89600003
-0.0385 0.184 0.898
-0.037 0.18449999 0.89999998
-0.035500001 0.1847 0.90100002
-0.034000002 0.1849 0.90200001
-0.032499999 0.18529999 0.90399998
-0.0309 0.1855 0.90499997
-0.0294 0.1857 0.90600002
-0.027899999 0.1859 0.90700001
-0.0263 0.18610001 0.90799999
-0.02 0.18610001 0.90799999
-0.0184 0.1859 0.90700001
-0.0152 0.1855 0.90499997
-0.0137 0.18529999 0.90399998
-0.0121 0.1855 0.90499997
-0.0105 0.1855 0.90499997
-0.0089999996 0.1855 0.90499997
-0.0074 0.1855 0.90499997
-0.0057999999 0.1855 0.90499997
-0.0043000001 0.1855 0.90499997
-0.0027000001 0.18529999 0.90399998
-0.0011 0.1849 0.90200001
0.00039999999 0.1847 0.90100002
0.0020000001 0.1847 0.90100002
0.0035999999 0.18449999 0.89999998
0.0051000002 0.18449999 0.89999998
0.0066999998 0.18449999 0.89999998
0.0082 0.18449999 0.89999998
0.0114 0.18529999 0.90399998
0.013 0.1851 0.903
0.0145 0.18529999 0.90399998
0.016100001 0.1851 0.903
0.019200001 0.1851 0.903
0.0208 0.1851 0.903
0.022299999 0.1851 0.903
0.0239 0.1851 0.903
0.0255 0.1851 0.903
0.027000001 0.1851 0.903
0.0286 0.1851 0.903
0.030200001 0.1851 0.903
0.0317 0.1849 0.90200001
0.033199999 0.1847 0.90100002
0.0348 0.1847 0.90100002
0.0363 0.1847 0.90100002
0.037900001 0.1847 0.90100002
0.039500002 0.1847 0.90100002
0.041099999 0.1849 0.90200001
0.042599998 0.1849 0.90200001
0.044300001 0.1851 0.903
0.045699999 0.1847 0.90100002
0.047200002 0.18449999 0.89999998
0.050299998 0.18449999 0.89999998
0.051899999 0.18449999 0.89999998
0.0535 0.18449999 0.89999998
0.055 0.18449999 0.89999998
0.056600001 0.1847 0.90100002
0.058200002 0.1847 0.90100002
0.061299998 0.18449999 0.89999998
0.062799998 0.18449999 0.89999998
0.064400002 0.18449999 0.89999998
0.066 0.1847 0.90100002
0.069300003 0.1851 0.903
0.071000002 0.1855 0.90499997
0.0726 0.1855 0.90499997
0.074199997 0.1857 0.90600002
0.075900003 0.1859 0.90700001
0.077500001 0.1859 0.90700001
0.078900002 0.1857 0.90600002
0.080399998 0.1855 0.90499997
0.082000002 0.1855 0.90499997
0.0836 0.1855 0.90499997
0.085100003 0.1855 0.90499997
0.086599998 0.18529999 0.90399998
0.088200003 0.18529999 0.90399998
0.089599997 0.1851 0.903
0.091200002 0.1851 0.903
0.092699997 0.1849 0.90200001
0.0942 0.1849 0.90200001
0.095799997 0.1849 0.90200001
0.097499996 0.1851 0.903
0.098999999 0.1851 0.903
0.1008 0.1855 0.90499997
0.1026 0.1859 0.90700001
0.1042 0.1859 0.90700001
0.1059 0.18610001 0.90799999
0.1074 0.18610001 0.90799999
0.109 0.18610001 0.90799999
0.1106 0.18610001 0.90799999
0.112 0.1859 0.90700001
0.1136 0.1859 0.90700001
0.1152 0.1859 0.90700001
0.1168 0.1859 0.90700001
0.1183 0.1859 0.90700001
0.1213 0.1857 0.90600002
0.1228 0.1855 0.90499997
0.1243 0.1855 0.90499997
0.1258 0.18529999 0.90399998
0.12720001 0.1851 0.903
0.1288 0.1851 0.903
0.1303 0.1851 0.903
0.13169999 0.1849 0.90200001
0.13349999 0.1851 0.903
0.13850001 0.1855 0.90499997
0.14 0.1855 0.90499997
0.1416 0.1855 0.90499997
0.14300001 0.18529999 0.90399998
0.1446 0.18529999 0.90399998
0.1461 0.18529999 0.90399998
0.1479 0.1855 0.90499997
0.1494 0.1855 0.90499997
0.15099999 0.1855 0.90499997
0.15260001 0.1855 0.90499997
0.1541 0.1855 0.90499997
0.1559 0.1857 0.90600002
0.1576 0.1859 0.90700001
0.1592 0.1859 0.90700001
0.1608 0.1859 0.90700001
0.16230001 0.1859 0.90700001
0.1639 0.1859 0.90700001
0.1655 0.1859 0.90700001
0.1671 0.1859 0.90700001
0.16859999 0.1859 0.90700001
0.17 0.1857 0.90600002
0.1716 0.1857 0.90600002
0.1735 0.18610001 0.90799999
0.1751 0.18610001 0.90799999
0.1785 0.18629999 0.90899998
0.1802 0.1865 0.91000003
0.18179999 0.1865 0.91000003
0.18359999 0.1867 0.91100001
-0.38080001 0.1833 0.88700002
-0.37889999 0.1831 0.88599998
-0.37729999 0.1831 0.88599998
-0.37540001 0.1829 0.88499999
-0.3734 0.18269999 0.884
-0.37189999 0.18269999 0.884
-0.36559999 0.185 0.89499998
-0.3653 0.1856 0.898
-0.361 0.185 0.89499998
-0.35859999 0.1846 0.89300001
-0.3563 0.1842 0.89099997
-0.35429999 0.184 0.88999999
-0.34119999 0.18350001 0.88800001
-0.33970001 0.18350001 0.88800001
-0.33239999 0.1837 0.889
-0.3312 0.184 0.88999999
-0.3308 0.1846 0.89300001
-0.33000001 0.185 0.89499998
-0.32839999 0.185 0.89499998
-0.32690001 0.185 0.89499998
-0.32300001 0.1846 0.89300001
-0.31889999 0.184 0.88999999
-0.30720001 0.18440001 0.89200002
-0.30599999 0.1846 0.89300001
-0.30450001 0.1846 0.89300001
-0.30329999 0.1848 0.89399999
-0.30199999 0.185 0.89499998
-0.29519999 0.1846 0.89300001
-0.28960001 0.184 0.88999999
-0.28799999 0.184 0.88999999
-0.28650001 0.184 0.88999999
-0.2455 0.1856 0.898
-0.24420001 0.1858 0.89899999
-0.24259999 0.1858 0.89899999
-0.2411 0.1858 0.89899999
-0.23980001 0.186 0.89999998
-0.23819999 0.186 0.89999998
-0.2367 0.186 0.89999998
-0.2351 0.186 0.89999998
-0.2335 0.186 0.89999998
-0.2315 0.1856 0.898
-0.22939999 0.18520001 0.89600003
-0.2273 0.1848 0.89399999
-0.22499999 0.1842 0.89099997
-0.22319999 0.184 0.88999999
-0.2217 0.184 0.88999999
-0.2199 0.1837 0.889
-0.2181 0.18350001 0.88800001
-0.2168 0.1837 0.889
-0.2158 0.1842 0.89099997
-0.2147 0.1846 0.89300001
-0.21359999 0.185 0.89499998
-0.2121 0.185 0.89499998
-0.21080001 0.18520001 0.89600003
-0.2094 0.18539999 0.89700001
-0.2079 0.18539999 0.89700001
-0.2061 0.18520001 0.89600003
-0.2045 0.18520001 0.89600003
-0.2032 0.18539999 0.89700001
-0.2023 0.186 0.89999998
-0.2008 0.186 0.89999998
-0.1992 0.186 0.89999998
-0.1981 0.1864 0.90200001
-0.19679999 0.1866 0.903
-0.18529999 0.1846 0.89300001
-0.18440001 0.18520001 0.89600003
-0.1832 0.1856 0.898
-0.1815 0.18539999 0.89700001
-0.18009999 0.1856 0.898
-0.1789 0.186 0.89999998
-0.1776 0.18619999 0.90100002
-0.176 0.18619999 0.90100002
-0.1745 0.18619999 0.90100002
-0.17290001 0.18619999 0.90100002
-0.17129999 0.18619999 0.90100002
-0.1698 0.18619999 0.90100002
-0.168 0.186 0.89999998
-0.1665 0.186 0.89999998
-0.1645 0.1856 0.898
-0.163 0.1856 0.898
-0.1612 0.18539999 0.89700001
-0.1595 0.18520001 0.89600003
-0.15809999 0.18539999 0.89700001
-0.1564 0.18520001 0.89600003
-0.1542 0.18440001 0.89200002
-0.1523 0.184 0.88999999
-0.15090001 0.1842 0.89099997
-0.1497 0.1846 0.89300001
-0.1486 0.18520001 0.89600003
-0.1473 0.18539999 0.89700001
-0.1459 0.1856 0.898
-0.1445 0.1858 0.89899999
-0.14309999 0.186 0.89999998
-0.1415 0.186 0.89999998
-0.1398 0.1858 0.89899999
-0.1381 0.1856 0.898
-0.1365 0.1856 0.898
-0.13500001 0.1856 0.898
-0.1337 0.186 0.89999998
-0.132 0.1858 0.89899999
-0.1303 0.1856 0.898
-0.12899999 0.186 0.89999998
-0.1275 0.186 0.89999998
-0.1261 0.18619999 0.90100002
-0.1245 0.18619999 0.90100002
-0.1229 0.18619999 0.90100002
-0.1214 0.18619999 0.90100002
-0.1197 0.186 0.89999998
-0.103 0.1736 0.83999997
-0.1014 0.1734 0.83899999
-0.1 0.1736 0.83999997
-0.098899998 0.1742 0.84299999
-0.0977 0.17470001 0.84500003
-0.096500002 0.1751 0.847
-0.095100001 0.1753 0.84799999
-0.093800001 0.17550001 0.84899998
-0.092200004 0.1753 0.84799999
-0.090700001 0.1753 0.84799999
-0.089199997 0.1753 0.84799999
-0.087800004 0.1753 0.84799999
-0.086300001 0.1753 0.84799999
-0.084700003 0.1751 0.847
-0.0832 0.1749 0.84600002
-0.081699997 0.1749 0.84600002
-0.079999998 0.1744 0.84399998
-0.078199998 0.1736 0.83999997
-0.076499999 0.17299999 0.83700001
-0.074900001 0.1726 0.83499998
-0.073399998 0.1726 0.83499998
-0.071999997 0.1726 0.83499998
-0.070500001 0.1726 0.83499998
-0.069200002 0.17299999 0.83700001
-0.067900002 0.1732 0.838
-0.066600002 0.1736 0.83999997
-0.070100002 0.1868 0.90399998
-0.068400003 0.1866 0.903
-0.0669 0.1866 0.903
-0.065399997 0.1868 0.90399998
-0.0638 0.1868 0.90399998
-0.062199999 0.1866 0.903
-0.060600001 0.1866 0.903
-0.059 0.1864 0.90200001
-0.057500001 0.1866 0.903
-0.055799998 0.18619999 0.90100002
-0.054200001 0.186 0.89999998
-0.0526 0.186 0.89999998
-0.050999999 0.186 0.89999998
-0.0495 0.186 0.89999998
-0.047899999 0.186 0.89999998
-0.046300001 0.1858 0.89899999
-0.0447 0.18539999 0.89700001
-0.043000001 0.185 0.89499998
-0.041499998 0.185 0.89499998
-0.039999999 0.18539999 0.89700001
-0.0385 0.1858 0.89899999
-0.037 0.186 0.89999998
-0.035500001 0.18619999 0.90100002
-0.034000002 0.1864 0.90200001
-0.032400001 0.1866 0.903
-0.0309 0.1868 0.90399998
-0.0294 0.18709999 0.90499997
-0.027799999 0.1873 0.90600002
-0.0232 0.1877 0.90799999
-0.02 0.1877 0.90799999
-0.016799999 0.1873 0.90600002
-0.0137 0.18709999 0.90499997
-0.0121 0.1873 0.90600002
-0.0106 0.1873 0.90600002
-0.0089999996 0.1873 0.90600002
-0.0074 0.1873 0.90600002
-0.0057999999 0.1873 0.90600002
-0.0027000001 0.18709999 0.90499997
-0.0011 0.1866 0.903
0.00039999999 0.1866 0.903
0.0020000001 0.1866 0.903
0.0035999999 0.18619999 0.90100002
0.0051000002 0.18619999 0.90100002
0.0066999998 0.18619999 0.90100002
0.0082 0.18619999 0.90100002
0.0114 0.1866 0.903
0.013 0.1866 0.903
0.0145 0.1866 0.903
0.016100001 0.1866 0.903
0.0176 0.1866 0.903
0.019200001 0.1866 0.903
0.0208 0.1868 0.90399998
0.022399999 0.18709999 0.90499997
0.0239 0.1868 0.90399998
0.0255 0.18709999 0.90499997
0.027100001 0.18709999 0.90499997
0.0286 0.1868 0.90399998
0.030200001 0.1868 0.90399998
0.0317 0.1866 0.903
0.033300001 0.1866 0.903
0.034899998 0.1866 0.903
0.036400001 0.1866 0.903
0.037999999 0.1866 0.903
0.0396 0.1866 0.903
0.041099999 0.1866 0.903
0.0427 0.1866 0.903
0.044300001 0.1866 0.903
0.045699999 0.18619999 0.90100002
0.047200002 0.186 0.89999998
0.048799999 0.186 0.89999998
0.055 0.186 0.89999998
0.056600001 0.18619999 0.90100002
0.058200002 0.18619999 0.90100002
0.059799999 0.18619999 0.90100002
0.061299998 0.18619999 0.90100002
0.062899999 0.18619999 0.90100002
0.064400002 0.186 0.89999998
0.066 0.18619999 0.90100002
0.069300003 0.1866 0.903
0.0726 0.18709999 0.90499997
0.074199997 0.18709999 0.90499997
0.075900003 0.1875 0.90700001
0.077399999 0.1873 0.90600002
0.078900002 0.18709999 0.90499997
0.080399998 0.18709999 0.90499997
0.082000002 0.18709999 0.90499997
0.083499998 0.1868 0.90399998
0.084899999 0.1866 0.903
0.086499996 0.1866 0.903
0.088100001 0.1866 0.903
0.089599997 0.1866 0.903
0.091200002 0.1866 0.903
0.0942 0.1864 0.90200001
0.095899999 0.1866 0.903
0.099100001 0.1868 0.90399998
0.1008 0.18709999 0.90499997
0.1026 0.1875 0.90700001
0.1042 0.1875 0.90700001
0.1058 0.1875 0.90700001
0.1073 0.1875 0.90700001
0.1089 0.1875 0.90700001
0.1105 0.1875 0.90700001
0.112 0.1875 0.90700001
0.1135 0.1873 0.90600002
0.1151 0.1873 0.90600002
0.1165 0.18709999 0.90499997
0.1182 0.1873 0.90600002
0.1196 0.18709999 0.90499997
0.1212 0.18709999 0.90499997
0.1228 0.18709999 0.90499997
0.1243 0.18709999 0.90499997
0.1258 0.1868 0.90399998
0.12729999 0.1868 0.90399998
0.1288 0.1866 0.903
0.1303 0.1866 0.903
0.1319 0.1866 0.903
0.13349999 0.1866 0.903
0.1382 0.1866 0.903
0.1397 0.1866 0.903
0.14129999 0.1866 0.903
0.1428 0.1866 0.903
0.1444 0.1866 0.903
0.146 0.1866 0.903
0.1477 0.1868 0.90399998
0.1494 0.18709999 0.90499997
0.15260001 0.18709999 0.90499997
0.1541 0.18709999 0.90499997
0.1559 0.1873 0.90600002
0.1576 0.1875 0.90700001
0.1592 0.1875 0.90700001
0.1608 0.1875 0.90700001
0.16230001 0.1875 0.90700001
0.1639 0.1875 0.90700001
0.1655 0.1875 0.90700001
0.1671 0.1875 0.90700001
0.16859999 0.1875 0.90700001
0.17020001 0.1875 0.90700001
0.17200001 0.1877 0.90799999
0.1737 0.18790001 0.90899998
0.1753 0.18790001 0.90899998
0.1771 0.1881 0.91000003
0.1806 0.1885 0.912
-0.38240001 0.1849 0.88700002
-0.37889999 0.1847 0.88599998
-0.37689999 0.18449999 0.88499999
-0.37490001 0.1842 0.884
-0.373 0.184 0.88300002
-0.36489999 0.18700001 0.89700001
-0.36289999 0.1867 0.89600003
-0.36059999 0.18629999 0.89399999
-0.35820001 0.1859 0.89200002
-0.35589999 0.1855 0.88999999
-0.35429999 0.1855 0.88999999
-0.352 0.1851 0.88800001
-0.35010001 0.1849 0.88700002
-0.3443 0.1851 0.88800001
-0.34240001 0.1849 0.88700002
-0.33930001 0.1849 0.88700002
-0.33000001 0.1857 0.89099997
-0.3292 0.18610001 0.89300001
-0.32769999 0.18610001 0.89300001
-0.32609999 0.18610001 0.89300001
-0.32269999 0.1859 0.89200002
-0.31659999 0.1851 0.88800001
-0.30599999 0.18610001 0.89300001
-0.3048 0.18629999 0.89399999
-0.30329999 0.18629999 0.89399999
-0.30199999 0.1865 0.89499998
-0.3008 0.1867 0.89600003
-0.29929999 0.1867 0.89600003
-0.29519999 0.18610001 0.89300001
-0.2899 0.1857 0.89099997
-0.28830001 0.1857 0.89099997
-0.28650001 0.1855 0.88999999
-0.2455 0.18719999 0.898
-0.24420001 0.1874 0.89899999
-0.2429 0.1876 0.89999998
-0.2413 0.1876 0.89999998
-0.23980001 0.1876 0.89999998
-0.23819999 0.1876 0.89999998
-0.2367 0.1876 0.89999998
-0.23540001 0.18780001 0.90100002
-0.2315 0.18719999 0.898
-0.22939999 0.1867 0.89600003
-0.22679999 0.1859 0.89200002
-0.22499999 0.1857 0.89099997
-0.223 0.18529999 0.889
-0.22139999 0.18529999 0.889
-0.21969999 0.1851 0.88800001
-0.2181 0.1851 0.88800001
-0.2166 0.1851 0.88800001
-0.2158 0.1857 0.89099997
-0.2145 0.1859 0.89200002
-0.21340001 0.18629999 0.89399999
-0.21179999 0.18629999 0.89399999
-0.2105 0.1865 0.89499998
-0.20919999 0.1867 0.89600003
-0.2077 0.1867 0.89600003
-0.2061 0.1867 0.89600003
-0.2045 0.1867 0.89600003
-0.2032 0.18700001 0.89700001
-0.20190001 0.18719999 0.898
-0.20029999 0.18719999 0.898
-0.199 0.1874 0.89899999
-0.19769999 0.1876 0.89999998
-0.1948 0.18780001 0.90100002
-0.1815 0.18700001 0.89700001
-0.17990001 0.18700001 0.89700001
-0.1787 0.1874 0.89899999
-0.17739999 0.1876 0.89999998
-0.1758 0.1876 0.89999998
-0.1743 0.1876 0.89999998
-0.1727 0.1876 0.89999998
-0.17110001 0.1876 0.89999998
-0.1696 0.1876 0.89999998
-0.16779999 0.1874 0.89899999
-0.1663 0.1874 0.89899999
-0.1645 0.18719999 0.898
-0.163 0.18719999 0.898
-0.16140001 0.18719999 0.898
-0.15970001 0.18700001 0.89700001
-0.1583 0.18719999 0.898
-0.1566 0.18700001 0.89700001
-0.1547 0.1865 0.89499998
-0.15279999 0.18610001 0.89300001
-0.15090001 0.1876 0.89999998
-0.1496 0.18799999 0.90200001
-0.1481 0.18799999 0.90200001
-0.1464 0.18780001 0.90100002
-0.14480001 0.18780001 0.90100002
-0.1432 0.18780001 0.90100002
-0.1417 0.18780001 0.90100002
-0.14 0.1876 0.89999998
-0.1381 0.18719999 0.898
-0.1365 0.18719999 0.898
-0.13500001 0.18719999 0.898
-0.13339999 0.18719999 0.898
-0.13169999 0.18700001 0.89700001
-0.13 0.1867 0.89600003
-0.1287 0.18719999 0.898
-0.1275 0.1876 0.89999998
-0.1261 0.18780001 0.90100002
-0.1245 0.18780001 0.90100002
-0.1231 0.18799999 0.90200001
-0.1215 0.18799999 0.90200001
-0.0986 0.1778 0.85299999
-0.097599998 0.1786 0.85699999
-0.095799997 0.178 0.85399997
-0.0942 0.1778 0.85299999
-0.092500001 0.17739999 0.85100001
-0.090800002 0.1769 0.84899998
-0.089500003 0.1772 0.85000002
-0.087899998 0.1769 0.84899998
-0.086300001 0.1767 0.84799999
-0.084799998 0.1767 0.84799999
-0.083300002 0.17649999 0.847
-0.081699997 0.1763 0.84600002
-0.079999998 0.1759 0.84399998
-0.078199998 0.1751 0.83999997
-0.076499999 0.1744 0.83700001
-0.0748 0.17380001 0.83399999
-0.073399998 0.17399999 0.83499998
-0.071999997 0.17399999 0.83499998
-0.070500001 0.17399999 0.83499998
-0.0691 0.1742 0.83600003
-0.067900002 0.17470001 0.838
-0.066500001 0.1749 0.83899999
-0.069799997 0.18780001 0.90100002
-0.068300001 0.18780001 0.90100002
-0.0669 0.1882 0.903
-0.065300003 0.1882 0.903
-0.063699998 0.1882 0.903
-0.062199999 0.1884 0.90399998
-0.060600001 0.1882 0.903
-0.059 0.1882 0.903
-0.057500001 0.1882 0.903
-0.055799998 0.18799999 0.90200001
-0.054200001 0.18780001 0.90100002
-0.0526 0.1876 0.89999998
-0.050999999 0.1874 0.89899999
-0.049400002 0.18719999 0.898
-0.047899999 0.1874 0.89899999
-0.046300001 0.18719999 0.898
-0.044599999 0.1867 0.89600003
-0.043000001 0.1867 0.89600003
-0.041499998 0.1867 0.89600003
-0.039999999 0.18719999 0.898
-0.0385 0.1874 0.89899999
-0.037 0.1876 0.89999998
-0.035500001 0.18780001 0.90100002
-0.0339 0.18780001 0.90100002
-0.032400001 0.1882 0.903
-0.0309 0.1882 0.903
-0.029300001 0.1884 0.90399998
-0.027799999 0.1886 0.90499997
-0.0262 0.1886 0.90499997
-0.0231 0.189 0.90700001
-0.021600001 0.189 0.90700001
-0.02 0.189 0.90700001
-0.0152 0.1886 0.90499997
-0.0137 0.1886 0.90499997
-0.0121 0.189 0.90700001
-0.0106 0.189 0.90700001
-0.0089999996 0.189 0.90700001
-0.0074 0.189 0.90700001
-0.0057999999 0.18880001 0.90600002
