ply
format ascii 1.0
comment PCL generated
element vertex 1675
property float x
property float y
property float z
element camera 0
property float view_px
property float view_py
property float view_pz
property float x_axisx
property float x_axisy
property float x_axisz
property float y_axisx
property float y_axisy
property float y_axisz
property float z_axisx
property float z_axisy
property float z_axisz
property float focal
property float scalex
property float scaley
property float centerx
property float centery
property int viewportx
property int viewporty
property float k1
property float k2
end_header
-0.0127 0.1184 0.84100002
-0.0112 0.1183 0.83999997
-0.0098000001 0.1183 0.83999997
-0.0082999999 0.1184 0.84100002
-0.0068999999 0.1184 0.84100002
-0.0054000001 0.1189 0.84399998
-0.0040000002 0.119 0.84500003
-0.0024999999 0.1191 0.84600002
-0.0011 0.1191 0.84600002
0.00039999999 0.1193 0.847
0.0019 0.1191 0.84600002
0.0033 0.119 0.84500003
0.0229 0.1217 0.86400002
0.024499999 0.1222 0.86799997
0.0263 0.1236 0.87800002
-0.155 0.1206 0.84600002
-0.1534 0.1205 0.84500003
-0.1517 0.1203 0.84399998
-0.15009999 0.1202 0.84299999
-0.1481 0.1198 0.83999997
-0.1461 0.1193 0.83700001
-0.1443 0.119 0.83499998
-0.1425 0.1188 0.833
-0.1399 0.1178 0.82599998
-0.13699999 0.1165 0.81699997
-0.1345 0.1156 0.81099999
-0.133 0.1155 0.81
-0.1314 0.1153 0.80900002
-0.1302 0.1155 0.81
-0.1288 0.1155 0.81
-0.1277 0.1158 0.81199998
-0.1267 0.1162 0.815
-0.1256 0.1165 0.81699997
-0.1248 0.117 0.82099998
-0.124 0.1176 0.82499999
-0.1232 0.1182 0.829
-0.1219 0.1183 0.82999998
-0.1203 0.1182 0.829
-0.119 0.1183 0.82999998
-0.1121 0.1156 0.81099999
-0.1106 0.1156 0.81099999
-0.1092 0.1156 0.81099999
-0.108 0.1158 0.81199998
-0.1071 0.1163 0.81599998
-0.1071 0.1179 0.82700002
-0.1062 0.1185 0.83099997
-0.105 0.1188 0.833
-0.1035 0.1188 0.833
-0.075300001 0.1198 0.83999997
-0.073799998 0.1196 0.83899999
-0.0722 0.1195 0.838
-0.070600003 0.1192 0.83600003
-0.0691 0.119 0.83499998
-0.0678 0.1193 0.83700001
-0.066200003 0.1192 0.83600003
-0.0647 0.119 0.83499998
-0.050900001 0.1206 0.84600002
-0.0493 0.1202 0.84299999
-0.047699999 0.1199 0.84100002
-0.0462 0.1198 0.83999997
-0.044599999 0.1195 0.838
-0.043099999 0.1193 0.83700001
-0.041700002 0.1193 0.83700001
-0.0403 0.1196 0.83899999
-0.038899999 0.1198 0.83999997
-0.037500001 0.1199 0.84100002
-0.0361 0.1202 0.84299999
-0.034699999 0.1202 0.84299999
-0.033199999 0.1202 0.84299999
-0.0317 0.1202 0.84299999
-0.030200001 0.1199 0.84100002
-0.0287 0.1199 0.84100002
-0.0273 0.1199 0.84100002
-0.025900001 0.12 0.84200001
-0.0244 0.12 0.84200001
-0.023 0.1202 0.84299999
-0.021500001 0.1202 0.84299999
-0.02 0.1202 0.84299999
-0.0186 0.1203 0.84399998
-0.017100001 0.1202 0.84299999
-0.015699999 0.1202 0.84299999
-0.0142 0.1199 0.84100002
-0.0127 0.1199 0.84100002
-0.0113 0.1199 0.84100002
-0.0098000001 0.1199 0.84100002
-0.0082999999 0.1199 0.84100002
-0.0068999999 0.1198 0.83999997
-0.0054000001 0.1199 0.84100002
-0.0040000002 0.1202 0.84299999
-0.0024999999 0.1203 0.84399998
-0.0011 0.1203 0.84399998
0.00039999999 0.1203 0.84399998
0.0019 0.1199 0.84100002
0.021299999 0.1227 0.861
0.0228 0.1229 0.86199999
0.0244 0.1233 0.86500001
0.0261 0.1243 0.87199998
0.027799999 0.12530001 0.87900001
-0.15889999 0.1228 0.85100001
-0.15629999 0.1219 0.84500003
-0.155 0.1221 0.84600002
-0.15350001 0.1221 0.84600002
-0.1521 0.1221 0.84600002
-0.15009999 0.1216 0.84299999
-0.14830001 0.1214 0.84100002
-0.14650001 0.1211 0.83899999
-0.1443 0.1205 0.83499998
-0.1328 0.1167 0.80900002
-0.13160001 0.1169 0.81
-0.1302 0.1169 0.81
-0.1286 0.1167 0.80900002
-0.1277 0.1172 0.81199998
-0.1266 0.1175 0.81400001
-0.1252 0.1175 0.81400001
-0.1241 0.1177 0.81599998
-0.1232 0.1183 0.81999999
-0.1227 0.1192 0.82599998
-0.1217 0.1196 0.829
-0.1203 0.1196 0.829
-0.1191 0.1199 0.83099997
-0.1171 0.1193 0.82700002
-0.1146 0.1182 0.81900001
-0.1123 0.1173 0.81300002
-0.1109 0.1173 0.81300002
-0.1095 0.1173 0.81300002
-0.1081 0.1173 0.81300002
-0.107 0.1176 0.815
-0.1057 0.1177 0.81599998
-0.1055 0.1192 0.82599998
-0.1046 0.1198 0.82999998
-0.076800004 0.1214 0.84100002
-0.075400002 0.1214 0.84100002
-0.073799998 0.1212 0.83999997
-0.0722 0.1209 0.838
-0.070600003 0.1206 0.83600003
-0.0691 0.1205 0.83499998
-0.067699999 0.1206 0.83600003
-0.066200003 0.1205 0.83499998
-0.052700002 0.1229 0.852
-0.050999999 0.1222 0.847
-0.0493 0.1216 0.84299999
-0.047800001 0.1215 0.84200001
-0.046100002 0.1211 0.83899999
-0.044599999 0.1209 0.838
-0.043099999 0.1206 0.83600003
-0.0416 0.1206 0.83600003
-0.0403 0.1209 0.838
-0.038899999 0.1212 0.83999997
-0.037500001 0.1215 0.84200001
-0.0361 0.1216 0.84299999
-0.034600001 0.1215 0.84200001
-0.033199999 0.1216 0.84299999
-0.0317 0.1216 0.84299999
-0.030200001 0.1214 0.84100002
-0.0287 0.1214 0.84100002
-0.0273 0.1215 0.84200001
-0.025900001 0.1216 0.84299999
-0.0244 0.1216 0.84299999
-0.023 0.1216 0.84299999
-0.021500001 0.1216 0.84299999
-0.020099999 0.1218 0.84399998
-0.0186 0.1218 0.84399998
-0.017100001 0.1216 0.84299999
-0.0156 0.1215 0.84200001
-0.0142 0.1214 0.84100002
-0.0127 0.1212 0.83999997
-0.0112 0.1211 0.83899999
-0.0098000001 0.1211 0.83899999
-0.0082999999 0.1212 0.83999997
-0.0068999999 0.1211 0.83899999
-0.0054000001 0.1211 0.83899999
-0.0040000002 0.1214 0.84100002
-0.0024999999 0.1215 0.84200001
-0.0011 0.1215 0.84200001
0.00039999999 0.1215 0.84200001
0.0019 0.1212 0.83999997
0.021199999 0.1238 0.85799998
0.0228 0.1242 0.861
0.0244 0.125 0.866
0.026000001 0.12540001 0.86900002
0.0277 0.126 0.87300003
-0.1591 0.1244 0.852
-0.1559 0.1231 0.84299999
-0.1548 0.1234 0.84500003
-0.15350001 0.1235 0.84600002
-0.1521 0.1235 0.84600002
-0.1504 0.1234 0.84500003
-0.1488 0.1232 0.84399998
-0.1472 0.1231 0.84299999
-0.1455 0.123 0.84200001
-0.1309 0.1177 0.80599999
-0.12970001 0.1178 0.80699998
-0.12890001 0.1184 0.81099999
-0.1278 0.1187 0.81300002
-0.1269 0.1192 0.81599998
-0.12530001 0.119 0.815
-0.1241 0.1192 0.81599998
-0.1231 0.1196 0.81900001
-0.1221 0.12 0.82200003
-0.1217 0.1211 0.829
-0.12 0.1208 0.82700002
-0.1189 0.1211 0.829
-0.1171 0.1208 0.82700002
-0.1151 0.1202 0.82300001
-0.1134 0.1199 0.82099998
-0.1119 0.1197 0.81999999
-0.1099 0.1192 0.81599998
-0.1082 0.1189 0.81400001
-0.1072 0.1193 0.81699997
-0.1061 0.1196 0.81900001
-0.106 0.1212 0.82999998
-0.105 0.1216 0.833
-0.1035 0.1216 0.833
-0.075199999 0.1225 0.83899999
-0.073700003 0.1224 0.838
-0.072099999 0.1222 0.83700001
-0.070500001 0.1219 0.83499998
-0.0691 0.1219 0.83499998
-0.067599997 0.1219 0.83499998
-0.066200003 0.1219 0.83499998
-0.052499998 0.1238 0.84799999
-0.050900001 0.1234 0.84500003
-0.049199998 0.123 0.84200001
-0.047600001 0.1227 0.83999997
-0.046100002 0.1225 0.83899999
-0.044599999 0.1224 0.838
-0.043200001 0.1224 0.838
-0.041700002 0.1224 0.838
-0.040399998 0.1227 0.83999997
-0.038899999 0.1228 0.84100002
-0.037599999 0.1231 0.84299999
-0.036200002 0.1234 0.84500003
-0.034699999 0.1232 0.84399998
-0.033199999 0.1231 0.84299999
-0.0317 0.1231 0.84299999
-0.030200001 0.123 0.84200001
-0.0288 0.123 0.84200001
-0.0274 0.1231 0.84299999
-0.025900001 0.123 0.84200001
-0.0244 0.1231 0.84299999
-0.023 0.1231 0.84299999
-0.021500001 0.1231 0.84299999
-0.020099999 0.1232 0.84399998
-0.0186 0.1232 0.84399998
-0.017100001 0.1231 0.84299999
-0.0156 0.1228 0.84100002
-0.0141 0.1225 0.83899999
-0.0127 0.1224 0.838
-0.0112 0.1222 0.83700001
-0.0098000001 0.1222 0.83700001
-0.0082999999 0.1222 0.83700001
-0.0068999999 0.1222 0.83700001
-0.0054000001 0.1224 0.838
-0.0040000002 0.1225 0.83899999
-0.0024999999 0.1225 0.83899999
-0.0011 0.1227 0.83999997
0.00039999999 0.1227 0.83999997
0.021199999 0.1251 0.85699999
0.022700001 0.12530001 0.85799998
0.0244 0.12630001 0.86500001
0.0261 0.12729999 0.87199998
-0.3987 0.12989999 0.87900001
-0.39719999 0.12989999 0.87900001
-0.1578 0.1249 0.84500003
-0.1561 0.1247 0.84399998
-0.1548 0.1249 0.84500003
-0.1534 0.1249 0.84500003
-0.15189999 0.1249 0.84500003
-0.1504 0.1249 0.84500003
-0.149 0.1249 0.84500003
-0.1473 0.1247 0.84399998
-0.1309 0.1191 0.80599999
-0.1305 0.12 0.81199998
-0.12989999 0.1207 0.81699997
-0.1288 0.121 0.81900001
-0.1274 0.121 0.81900001
-0.1256 0.1207 0.81699997
-0.1245 0.121 0.81900001
-0.1232 0.1212 0.81999999
-0.122 0.1213 0.82099998
-0.1213 0.1221 0.82599998
-0.1199 0.1221 0.82599998
-0.1189 0.1225 0.829
-0.1173 0.1223 0.82800001
-0.1154 0.1219 0.82499999
-0.1141 0.1221 0.82599998
-0.1127 0.1221 0.82599998
-0.1111 0.1219 0.82499999
-0.1094 0.1216 0.82300001
-0.1079 0.1215 0.82200003
-0.1066 0.1216 0.82300001
-0.1059 0.1225 0.829
-0.1049 0.1229 0.83200002
-0.075099997 0.1238 0.838
-0.073600002 0.1237 0.83700001
-0.054200001 0.1257 0.85100001
-0.0526 0.12540001 0.84899998
-0.050900001 0.125 0.84600002
-0.0493 0.1246 0.84299999
-0.047600001 0.1241 0.83999997
-0.046100002 0.1238 0.838
-0.044599999 0.1238 0.838
-0.043099999 0.1237 0.83700001
-0.041700002 0.1237 0.83700001
-0.0403 0.124 0.83899999
-0.038899999 0.1241 0.83999997
-0.037599999 0.1246 0.84299999
-0.036200002 0.1247 0.84399998
-0.034699999 0.1246 0.84299999
-0.033199999 0.1246 0.84299999
-0.0317 0.1246 0.84299999
-0.030200001 0.1244 0.84200001
-0.0287 0.1243 0.84100002
-0.0273 0.1243 0.84100002
-0.025800001 0.1243 0.84100002
-0.0244 0.1243 0.84100002
-0.0229 0.1244 0.84200001
-0.021500001 0.1244 0.84200001
-0.02 0.1244 0.84200001
-0.0186 0.1244 0.84200001
-0.017100001 0.1243 0.84100002
-0.0156 0.1241 0.83999997
-0.0141 0.124 0.83899999
-0.0127 0.1238 0.838
-0.0112 0.1238 0.838
-0.0098000001 0.1238 0.838
-0.0082999999 0.1238 0.838
-0.0068999999 0.1238 0.838
-0.0054000001 0.124 0.83899999
-0.0040000002 0.124 0.83899999
-0.0024999999 0.1241 0.83999997
-0.0011 0.1241 0.83999997
0.00039999999 0.1241 0.83999997
0.0019 0.1237 0.83700001
0.021199999 0.1268 0.85799998
0.0228 0.12710001 0.86000001
0.024499999 0.1286 0.87
0.0263 0.12989999 0.87900001
0.0277 0.1294 0.87599999
0.148 0.12970001 0.87800002
-0.15790001 0.1265 0.84600002
-0.15629999 0.12630001 0.84500003
-0.1548 0.12630001 0.84500003
-0.1534 0.12630001 0.84500003
-0.1521 0.1265 0.84600002
-0.1506 0.1265 0.84600002
-0.14910001 0.1265 0.84600002
-0.1477 0.1265 0.84600002
-0.1321 0.1229 0.82200003
-0.1305 0.1227 0.82099998
-0.1292 0.1229 0.82200003
-0.1275 0.1226 0.81999999
-0.1258 0.1223 0.81800002
-0.1242 0.1221 0.81699997
-0.1228 0.1221 0.81699997
-0.1212 0.122 0.81599998
-0.1198 0.122 0.81599998
-0.1187 0.1223 0.81800002
-0.1176 0.1226 0.81999999
-0.1168 0.1233 0.82499999
-0.1154 0.1233 0.82499999
-0.114 0.1233 0.82499999
-0.1127 0.1235 0.82599998
-0.1113 0.1235 0.82599998
-0.1097 0.1233 0.82499999
-0.1081 0.1232 0.824
-0.1067 0.1232 0.824
-0.1057 0.1236 0.82700002
-0.052499998 0.1268 0.84799999
-0.050900001 0.12630001 0.84500003
-0.0493 0.126 0.84299999
-0.047600001 0.1256 0.83999997
-0.046100002 0.12540001 0.83899999
-0.044599999 0.12530001 0.838
-0.043099999 0.1251 0.83700001
-0.041700002 0.12530001 0.838
-0.0403 0.12540001 0.83899999
-0.038899999 0.12540001 0.83899999
-0.037500001 0.1257 0.84100002
-0.0361 0.126 0.84299999
-0.034600001 0.1259 0.84200001
-0.033100002 0.1257 0.84100002
-0.0317 0.1259 0.84200001
-0.030200001 0.1257 0.84100002
-0.0287 0.1257 0.84100002
-0.0273 0.1259 0.84200001
-0.025800001 0.1257 0.84100002
-0.0244 0.1259 0.84200001
-0.0229 0.1259 0.84200001
-0.021500001 0.1259 0.84200001
-0.02 0.1257 0.84100002
-0.0185 0.1257 0.84100002
-0.017100001 0.1256 0.83999997
-0.0156 0.12540001 0.83899999
-0.0141 0.12530001 0.838
-0.0127 0.12530001 0.838
-0.0112 0.1251 0.83700001
-0.0098000001 0.12530001 0.838
-0.0082999999 0.12530001 0.838
-0.0068999999 0.12540001 0.83899999
-0.0054000001 0.12540001 0.83899999
-0.0040000002 0.12540001 0.83899999
-0.0024999999 0.12540001 0.83899999
-0.0011 0.12540001 0.83899999
0.00039999999 0.1256 0.83999997
0.021299999 0.1286 0.86000001
0.0228 0.12890001 0.86199999
0.024499999 0.1301 0.87
0.0261 0.1302 0.87099999
0.0276 0.1301 0.87
0.1489 0.13070001 0.87400001
-0.1626 0.1293 0.85500002
-0.15809999 0.12809999 0.847
-0.15629999 0.1278 0.84500003
-0.1548 0.1278 0.84500003
-0.15350001 0.1279 0.84600002
-0.1521 0.1279 0.84600002
-0.15099999 0.12819999 0.84799999
-0.1495 0.12819999 0.84799999
-0.14839999 0.1285 0.85000002
-0.1296 0.1246 0.824
-0.1278 0.1243 0.82200003
-0.1261 0.124 0.81999999
-0.1247 0.124 0.81999999
-0.1231 0.1239 0.81900001
-0.1212 0.1234 0.81599998
-0.1197 0.1233 0.815
-0.1184 0.1234 0.81599998
-0.117 0.1234 0.81599998
-0.1161 0.124 0.81999999
-0.1149 0.1242 0.82099998
-0.1137 0.1245 0.82300001
-0.1126 0.1248 0.82499999
-0.1113 0.1249 0.82599998
-0.1096 0.1246 0.824
-0.1079 0.1243 0.82200003
-0.1065 0.1243 0.82200003
-0.1052 0.1245 0.82300001
-0.083700001 0.1243 0.82200003
-0.050900001 0.1278 0.84500003
-0.049199998 0.12729999 0.84200001
-0.047600001 0.127 0.83999997
-0.046100002 0.1269 0.83899999
-0.044599999 0.1267 0.838
-0.043099999 0.1266 0.83700001
-0.041700002 0.1267 0.838
-0.0403 0.1269 0.83899999
-0.038899999 0.127 0.83999997
-0.037500001 0.12720001 0.84100002
-0.0361 0.12729999 0.84200001
-0.034600001 0.12720001 0.84100002
-0.033100002 0.127 0.83999997
-0.031599998 0.127 0.83999997
-0.030200001 0.127 0.83999997
-0.0287 0.127 0.83999997
-0.0273 0.12720001 0.84100002
-0.025800001 0.12720001 0.84100002
-0.0244 0.12729999 0.84200001
-0.023 0.1275 0.84299999
-0.021500001 0.1275 0.84299999
-0.02 0.1275 0.84299999
-0.0185 0.12720001 0.84100002
-0.017100001 0.127 0.83999997
-0.0156 0.1269 0.83899999
-0.0141 0.1267 0.838
-0.0127 0.1266 0.83700001
-0.0112 0.1266 0.83700001
-0.0098000001 0.1267 0.838
-0.0082999999 0.1269 0.83899999
-0.0068999999 0.1269 0.83899999
-0.0054000001 0.1269 0.83899999
-0.0040000002 0.1269 0.83899999
-0.0024999999 0.1269 0.83899999
-0.0011 0.1269 0.83899999
0.00039999999 0.127 0.83999997
0.0019 0.1269 0.83899999
0.021299999 0.1302 0.861
0.0229 0.13079999 0.86500001
-0.16240001 0.13060001 0.85399997
-0.1583 0.12970001 0.84799999
-0.1565 0.1294 0.84600002
-0.155 0.1294 0.84600002
-0.1539 0.12970001 0.84799999
-0.1524 0.12970001 0.84799999
-0.1513 0.13 0.85000002
-0.15000001 0.1302 0.85100001
-0.1489 0.1305 0.85299999
-0.1417 0.13060001 0.85399997
-0.12800001 0.1259 0.82300001
-0.1266 0.1259 0.82300001
-0.1251 0.1259 0.82300001
-0.1234 0.1256 0.82099998
-0.1215 0.1251 0.81800002
-0.1201 0.1251 0.81800002
-0.1188 0.12530001 0.81900001
-0.1173 0.1251 0.81800002
-0.1163 0.1256 0.82099998
-0.115 0.1257 0.82200003
-0.1139 0.126 0.824
-0.1127 0.12630001 0.82599998
-0.1111 0.12620001 0.82499999
-0.1094 0.1259 0.82300001
-0.108 0.1259 0.82300001
-0.1066 0.1259 0.82300001
-0.1052 0.1259 0.82300001
-0.0898 0.12630001 0.82599998
-0.088100001 0.126 0.824
-0.086599998 0.1259 0.82300001
-0.085199997 0.1259 0.82300001
-0.083899997 0.126 0.824
-0.082500003 0.12620001 0.82499999
-0.081100002 0.12620001 0.82499999
-0.0491 0.1285 0.83999997
-0.047499999 0.12819999 0.838
-0.046100002 0.12819999 0.838
-0.044599999 0.12819999 0.838
-0.043200001 0.12819999 0.838
-0.0418 0.1283 0.83899999
-0.0403 0.1283 0.83899999
-0.038899999 0.1285 0.83999997
-0.037500001 0.1286 0.84100002
-0.035999998 0.1286 0.84100002
-0.034499999 0.1283 0.83899999
-0.033 0.12800001 0.83700001
-0.031500001 0.12800001 0.83700001
-0.030099999 0.12800001 0.83700001
-0.0286 0.12800001 0.83700001
-0.0272 0.12819999 0.838
-0.025800001 0.1283 0.83899999
-0.0243 0.1285 0.83999997
-0.0229 0.1286 0.84100002
-0.021500001 0.1286 0.84100002
-0.02 0.1286 0.84100002
-0.0185 0.1285 0.83999997
-0.017100001 0.1285 0.83999997
-0.0156 0.1283 0.83899999
-0.0141 0.1283 0.83899999
-0.0127 0.1283 0.83899999
-0.0112 0.12819999 0.838
-0.0098000001 0.1283 0.83899999
-0.0082999999 0.1283 0.83899999
-0.0068999999 0.1285 0.83999997
-0.0054000001 0.1283 0.83899999
-0.0040000002 0.1285 0.83999997
-0.0024999999 0.1283 0.83899999
-0.0011 0.1285 0.83999997
0.00039999999 0.1286 0.84100002
0.0019 0.1286 0.84100002
0.020099999 0.1337 0.87400001
0.021500001 0.1329 0.86900002
0.1472 0.13349999 0.87300003
-0.16320001 0.1327 0.85799998
-0.1609 0.1321 0.85399997
-0.1593 0.132 0.85299999
-0.15700001 0.1313 0.84899998
-0.15539999 0.1312 0.84799999
-0.1541 0.1313 0.84899998
-0.153 0.13160001 0.85100001
-0.152 0.1321 0.85399997
-0.1506 0.1321 0.85399997
-0.1487 0.1318 0.852
-0.12540001 0.1276 0.82499999
-0.1238 0.1275 0.824
-0.1223 0.12729999 0.82300001
-0.1208 0.12729999 0.82300001
-0.1193 0.12720001 0.82200003
-0.1177 0.127 0.82099998
-0.1167 0.1275 0.824
-0.1154 0.1276 0.82499999
-0.1143 0.1279 0.82700002
-0.1128 0.1279 0.82700002
-0.1114 0.1279 0.82700002
-0.1098 0.1278 0.82599998
-0.1084 0.1278 0.82599998
-0.107 0.1278 0.82599998
-0.1054 0.1276 0.82499999
-0.089500003 0.12729999 0.82300001
-0.088 0.12729999 0.82300001
-0.086599998 0.12729999 0.82300001
-0.085299999 0.1275 0.824
-0.084100001 0.1278 0.82599998
-0.082800001 0.12809999 0.82800001
-0.047499999 0.1295 0.83700001
-0.046 0.1295 0.83700001
-0.044599999 0.1295 0.83700001
-0.043200001 0.1296 0.838
-0.0418 0.12989999 0.83999997
-0.040399998 0.1301 0.84100002
-0.039000001 0.1303 0.84200001
-0.037599999 0.1304 0.84299999
-0.0361 0.1303 0.84200001
-0.034499999 0.12980001 0.83899999
-0.033 0.1296 0.838
-0.031500001 0.1296 0.838
-0.030099999 0.1295 0.83700001
-0.0286 0.1296 0.838
-0.0272 0.12980001 0.83899999
-0.025800001 0.12989999 0.83999997
-0.0243 0.12989999 0.83999997
-0.0229 0.12989999 0.83999997
-0.021500001 0.1301 0.84100002
-0.02 0.12989999 0.83999997
-0.0185 0.12980001 0.83899999
-0.017000001 0.1296 0.838
-0.0156 0.1295 0.83700001
-0.0141 0.1295 0.83700001
-0.0127 0.1295 0.83700001
-0.0112 0.1295 0.83700001
-0.0098000001 0.1295 0.83700001
-0.0082999999 0.1296 0.838
-0.0068999999 0.1296 0.838
-0.0054000001 0.1296 0.838
-0.0040000002 0.12980001 0.83899999
-0.0024999999 0.12980001 0.83899999
-0.0011 0.12980001 0.83899999
0.00039999999 0.12989999 0.83999997
0.0019 0.12989999 0.83999997
0.0033 0.13060001 0.84399998
0.020099999 0.13519999 0.87400001
0.021600001 0.1349 0.87199998
-0.20299999 0.13699999 0.87599999
-0.163 0.13410001 0.85699999
-0.16069999 0.13339999 0.85299999
-0.15889999 0.1331 0.85100001
-0.15700001 0.1328 0.84899998
-0.1556 0.1328 0.84899998
-0.1541 0.1328 0.84899998
-0.15260001 0.1328 0.84899998
-0.1515 0.1331 0.85100001
-0.1499 0.133 0.85000002
-0.148 0.1327 0.84799999
-0.1218 0.1283 0.81999999
-0.1206 0.1284 0.82099998
-0.119 0.1283 0.81999999
-0.1174 0.12809999 0.81900001
-0.1164 0.1286 0.82200003
-0.1154 0.12909999 0.82499999
-0.1143 0.1294 0.82700002
-0.1131 0.12970001 0.829
-0.1117 0.12970001 0.829
-0.1102 0.12970001 0.829
-0.1088 0.12970001 0.829
-0.1074 0.12970001 0.829
-0.088100001 0.12890001 0.824
-0.086800002 0.12909999 0.82499999
-0.085699998 0.1295 0.82800001
-0.0845 0.12980001 0.82999998
-0.083099999 0.13 0.83099997
-0.081699997 0.13 0.83099997
-0.080300003 0.1301 0.83200002
-0.047499999 0.1311 0.838
-0.046100002 0.1311 0.838
-0.0447 0.1312 0.83899999
-0.043299999 0.13160001 0.84100002
-0.041999999 0.1319 0.84299999
-0.040600002 0.132 0.84399998
-0.039099999 0.1322 0.84500003
-0.0286 0.1309 0.83700001
-0.0272 0.1311 0.838
-0.025699999 0.1311 0.838
-0.0243 0.1314 0.83999997
-0.0229 0.1314 0.83999997
-0.021400001 0.1314 0.83999997
-0.02 0.1312 0.83899999
-0.0185 0.1311 0.838
-0.017000001 0.1309 0.83700001
-0.0155 0.1303 0.833
-0.0141 0.1305 0.83399999
-0.0126 0.13060001 0.83499998
-0.0112 0.1305 0.83399999
-0.0097000003 0.13060001 0.83499998
-0.0082999999 0.1309 0.83700001
-0.0068999999 0.1311 0.838
-0.0054000001 0.1311 0.838
-0.0040000002 0.1311 0.838
-0.0024999999 0.1311 0.838
-0.0011 0.1312 0.83899999
0.00039999999 0.1312 0.83899999
0.0019 0.1312 0.83899999
0.0186 0.13689999 0.875
0.020199999 0.1372 0.87699997
-0.20370001 0.139 0.87900001
-0.1637 0.1362 0.861
-0.1611 0.13519999 0.85500002
-0.1593 0.1349 0.85299999
-0.15719999 0.1344 0.85000002
-0.1556 0.13429999 0.84899998
-0.1543 0.1344 0.85000002
-0.153 0.1346 0.85100001
-0.15000001 0.1346 0.85100001
-0.1216 0.131 0.82800001
-0.12 0.13079999 0.82700002
-0.1184 0.13060001 0.82599998
-0.117 0.13060001 0.82599998
-0.1157 0.13079999 0.82700002
-0.1145 0.1311 0.829
-0.113 0.131 0.82800001
-0.1117 0.1311 0.829
-0.1102 0.1311 0.829
-0.1088 0.1311 0.829
-0.1075 0.1313 0.82999998
-0.088100001 0.1303 0.824
-0.086999997 0.13079999 0.82700002
-0.085900001 0.1313 0.82999998
-0.084700003 0.13160001 0.83200002
-0.083300002 0.13169999 0.833
-0.0823 0.13240001 0.83700001
-0.080799997 0.13240001 0.83700001
-0.080499999 0.13429999 0.84899998
-0.047499999 0.13249999 0.838
-0.0462 0.1329 0.83999997
-0.0447 0.1329 0.83999997
-0.043400001 0.13330001 0.84299999
-0.042100001 0.1336 0.84500003
-0.040600002 0.1336 0.84500003
-0.021400001 0.1329 0.83999997
-0.02 0.1329 0.83999997
-0.0156 0.133 0.84100002
-0.0142 0.133 0.84100002
-0.0127 0.1327 0.83899999
-0.0112 0.13240001 0.83700001
-0.0098000001 0.13240001 0.83700001
-0.0082999999 0.1327 0.83899999
-0.0068999999 0.1329 0.83999997
-0.0054000001 0.1329 0.83999997
-0.0040000002 0.1329 0.83999997
-0.0024999999 0.1329 0.83999997
-0.0011 0.1329 0.83999997
0.00039999999 0.1329 0.83999997
0.0019 0.1327 0.83899999
0.0185 0.1373 0.86799997
0.020099999 0.13789999 0.87199998
-0.16680001 0.1389 0.86900002
-0.1637 0.13770001 0.861
-0.1611 0.1367 0.85500002
-0.15889999 0.13609999 0.85100001
-0.15719999 0.13590001 0.85000002
-0.1557 0.13590001 0.85000002
-0.1548 0.1364 0.85299999
-0.15350001 0.1365 0.85399997
-0.1418 0.1338 0.83700001
-0.13689999 0.1319 0.82499999
-0.1349 0.1314 0.82200003
-0.1329 0.13079999 0.81800002
-0.1219 0.1327 0.82999998
-0.1201 0.13240001 0.82800001
-0.1186 0.1322 0.82700002
-0.1171 0.1322 0.82700002
-0.1158 0.13240001 0.82800001
-0.1145 0.13259999 0.829
-0.113 0.13240001 0.82800001
-0.1118 0.1327 0.82999998
-0.1104 0.1327 0.82999998
-0.1089 0.1327 0.82999998
-0.087300003 0.1327 0.82999998
-0.086199999 0.1332 0.833
-0.084899999 0.13339999 0.83399999
-0.083400004 0.13339999 0.83399999
-0.0823 0.1338 0.83700001
-0.080899999 0.134 0.838
-0.0792 0.13349999 0.83499998
-0.077600002 0.1332 0.833
-0.047600001 0.13420001 0.83899999
-0.0462 0.13429999 0.83999997
-0.0449 0.1348 0.84299999
-0.043499999 0.13510001 0.84500003
-0.042300001 0.1357 0.84899998
-0.017200001 0.13510001 0.84500003
-0.015699999 0.13500001 0.84399998
-0.0142 0.1346 0.84200001
-0.0127 0.13420001 0.83899999
-0.0112 0.134 0.838
-0.0098000001 0.134 0.838
-0.0082999999 0.13420001 0.83899999
-0.0068999999 0.13429999 0.83999997
-0.0054000001 0.13420001 0.83899999
-0.0040000002 0.134 0.838
-0.0024999999 0.13420001 0.83899999
-0.0011 0.13429999 0.83999997
0.00039999999 0.13429999 0.83999997
-0.16689999 0.1406 0.87
-0.16410001 0.13950001 0.86299998
-0.1619 0.1388 0.85900003
-0.1596 0.1382 0.85500002
-0.15800001 0.138 0.85399997
-0.1567 0.1382 0.85500002
-0.1345 0.13240001 0.81900001
-0.13240001 0.13169999 0.815
-0.1311 0.1319 0.81599998
-0.1189 0.134 0.829
-0.116 0.134 0.829
-0.1145 0.134 0.829
-0.113 0.1338 0.82800001
-0.086599998 0.1353 0.83700001
-0.0854 0.1356 0.83899999
-0.084100001 0.13590001 0.84100002
-0.082999997 0.1364 0.84399998
-0.081600003 0.1366 0.84500003
-0.079999998 0.1363 0.84299999
-0.078400001 0.13609999 0.84200001
-0.077 0.1363 0.84299999
-0.075599998 0.1363 0.84299999
-0.074600004 0.1372 0.84899998
-0.073100001 0.1371 0.84799999
-0.071800001 0.1374 0.85000002
-0.068999998 0.13770001 0.852
-0.047600001 0.1358 0.83999997
-0.046300001 0.13609999 0.84200001
-0.0449 0.1364 0.84399998
-0.0436 0.1367 0.84600002
-0.042300001 0.1372 0.84899998
-0.0173 0.1374 0.85000002
-0.015799999 0.1372 0.84899998
-0.0143 0.1367 0.84600002
-0.0127 0.13590001 0.84100002
-0.0112 0.1356 0.83899999
-0.0098000001 0.1354 0.838
-0.0082999999 0.1354 0.838
-0.0068999999 0.1356 0.83899999
-0.0054000001 0.1358 0.83999997
-0.0040000002 0.1354 0.838
-0.0011 0.13590001 0.84100002
-0.16689999 0.14210001 0.87
-0.16429999 0.1411 0.86400002
-0.1622 0.1407 0.861
-0.16 0.14 0.85699999
-0.1585 0.14 0.85699999
-0.1364 0.13429999 0.82200003
-0.1348 0.13410001 0.82099998
-0.13249999 0.13330001 0.81599998
-0.1311 0.13330001 0.81599998
-0.12989999 0.13349999 0.81699997
-0.12909999 0.13410001 0.82099998
-0.1252 0.13609999 0.833
-0.088 0.1366 0.83600003
-0.0867 0.13689999 0.838
-0.085500002 0.1372 0.83999997
-0.084200002 0.1375 0.84200001
-0.083099999 0.138 0.84500003
-0.081600003 0.138 0.84500003
-0.079999998 0.13770001 0.84299999
-0.078299999 0.1374 0.84100002
-0.077399999 0.1384 0.847
-0.075900003 0.1384 0.847
-0.074500002 0.13850001 0.84799999
-0.073100001 0.13850001 0.84799999
-0.071599998 0.13850001 0.84799999
-0.070200004 0.13869999 0.84899998
-0.068700001 0.13869999 0.84899998
-0.065200001 0.1374 0.84100002
-0.063699998 0.1372 0.83999997
-0.046500001 0.138 0.84500003
-0.045200001 0.13850001 0.84799999
-0.043699998 0.13869999 0.84899998
-0.015799999 0.13869999 0.84899998
-0.0143 0.1384 0.847
-0.0128 0.13789999 0.84399998
-0.0113 0.1374 0.84100002
-0.0098000001 0.1372 0.83999997
-0.0082999999 0.1372 0.83999997
-0.0068999999 0.13770001 0.84299999
-0.0054000001 0.13770001 0.84299999
-0.0040000002 0.1372 0.83999997
-0.0011 0.1372 0.83999997
-0.1824 0.1451 0.87900001
-0.18000001 0.1445 0.875
-0.16599999 0.1441 0.87300003
-0.1636 0.1433 0.86799997
-0.16150001 0.1428 0.86500001
-0.16 0.1428 0.86500001
-0.1336 0.1344 0.81400001
-0.1322 0.1344 0.81400001
-0.131 0.1346 0.815
-0.12989999 0.1349 0.81699997
-0.12909999 0.1355 0.82099998
-0.1266 0.1375 0.833
-0.1252 0.1375 0.833
-0.1238 0.1375 0.833
-0.0867 0.1383 0.838
-0.0854 0.13850001 0.83899999
-0.084100001 0.1388 0.84100002
-0.082900003 0.1392 0.84299999
-0.0814 0.1392 0.84299999
-0.079300001 0.138 0.83600003
-0.077699997 0.13770001 0.83399999
-0.076300003 0.13789999 0.83499998
-0.0722 0.1383 0.838
-0.071400002 0.13950001 0.84500003
-0.07 0.1397 0.84600002
-0.068499997 0.1397 0.84600002
-0.065099999 0.13869999 0.83999997
-0.063699998 0.13869999 0.83999997
-0.062100001 0.13850001 0.83899999
-0.0142 0.1393 0.84399998
-0.0127 0.1388 0.84100002
-0.0113 0.1388 0.84100002
-0.0098000001 0.13869999 0.83999997
-0.0082999999 0.1388 0.84100002
-0.0068999999 0.1393 0.84399998
-0.0055 0.13950001 0.84500003
-0.0040000002 0.139 0.84200001
-0.16410001 0.1453 0.87099999
-0.1617 0.1445 0.866
-0.1604 0.1446 0.86699998
-0.1314 0.13500001 0.80900002
-0.1305 0.1355 0.81199998
-0.1294 0.1358 0.81400001
-0.1286 0.1365 0.81800002
-0.1268 0.1391 0.83399999
-0.087899998 0.1393 0.83499998
-0.086400002 0.1393 0.83499998
-0.085199997 0.13959999 0.83700001
-0.083800003 0.1398 0.838
-0.082900003 0.1406 0.84299999
-0.081299998 0.14049999 0.84200001
-0.0792 0.1393 0.83499998
-0.077299997 0.13850001 0.82999998
-0.075800002 0.13850001 0.82999998
-0.074699998 0.139 0.833
-0.073700003 0.1398 0.838
-0.072099999 0.13959999 0.83700001
-0.071199998 0.1406 0.84299999
-0.070100002 0.14129999 0.847
-0.068700001 0.1415 0.84799999
-0.0669 0.1408 0.84399998
-0.065300003 0.14049999 0.84200001
-0.063699998 0.1401 0.83999997
-0.062199999 0.1401 0.83999997
-0.060699999 0.1401 0.83999997
-0.017200001 0.1416 0.84899998
-0.015799999 0.1415 0.84799999
-0.0143 0.1411 0.84600002
-0.0127 0.1406 0.84299999
-0.0113 0.1406 0.84299999
-0.0098000001 0.1406 0.84299999
-0.0083999997 0.1408 0.84399998
-0.0068999999 0.1411 0.84600002
-0.0055 0.14129999 0.847
-0.0040000002 0.1408 0.84399998
-0.2978 0.1261 0.74800003
-0.1296 0.1389 0.824
-0.12909999 0.1399 0.82999998
-0.1279 0.1402 0.83200002
-0.1266 0.14040001 0.833
-0.1252 0.14040001 0.833
-0.086599998 0.1411 0.83700001
-0.084899999 0.1406 0.83399999
-0.083300002 0.14040001 0.833
-0.082000002 0.1406 0.83399999
-0.073899999 0.1418 0.84100002
-0.0713 0.14229999 0.84399998
-0.070100002 0.1429 0.84799999
-0.068499997 0.1426 0.84600002
-0.0669 0.14229999 0.84399998
-0.065200001 0.1418 0.84100002
-0.063600004 0.14139999 0.83899999
-0.017200001 0.1426 0.84600002
-0.015699999 0.1426 0.84600002
-0.0142 0.1424 0.84500003
-0.0128 0.14229999 0.84399998
-0.0113 0.14229999 0.84399998
-0.0098000001 0.14229999 0.84399998
-0.0083999997 0.1424 0.84500003
-0.0068999999 0.1426 0.84600002
-0.0055 0.1429 0.84799999
-0.0040000002 0.1426 0.84600002
-0.16869999 0.14830001 0.87099999
-0.1292 0.1415 0.83099997
-0.085000001 0.14219999 0.83499998
-0.070900001 0.14300001 0.83999997
-0.069700003 0.1436 0.84299999
-0.068300001 0.1436 0.84299999
-0.066600002 0.14300001 0.83999997
-0.020099999 0.1441 0.84600002
-0.0187 0.1442 0.847
-0.017200001 0.1441 0.84600002
-0.015699999 0.1441 0.84600002
-0.0142 0.14390001 0.84500003
-0.0128 0.1437 0.84399998
-0.0113 0.1437 0.84399998
-0.0098000001 0.1437 0.84399998
-0.0083999997 0.14390001 0.84500003
-0.0068999999 0.1441 0.84600002
-0.0055 0.1442 0.847
-0.0040000002 0.1437 0.84399998
-0.1682 0.1481 0.861
-0.1675 0.1488 0.86500001
-0.1137 0.1433 0.833
-0.1119 0.14300001 0.83099997
-0.1068 0.14380001 0.83600003
-0.021400001 0.1443 0.83899999
-0.020099999 0.1452 0.84399998
-0.0187 0.1455 0.84600002
-0.017200001 0.1454 0.84500003
-0.015699999 0.1454 0.84500003
-0.0142 0.1454 0.84500003
-0.0128 0.1454 0.84500003
-0.0113 0.1452 0.84399998
-0.0098000001 0.1454 0.84500003
-0.0083999997 0.1455 0.84600002
-0.0068999999 0.14569999 0.847
-0.0055 0.14569999 0.847
-0.22750001 0.1437 0.82700002
-0.17309999 0.15000001 0.86299998
-0.1716 0.15000001 0.86299998
-0.1682 0.1496 0.861
-0.1168 0.1451 0.83499998
-0.1154 0.1451 0.83499998
-0.1139 0.1451 0.83499998
-0.1122 0.14470001 0.833
-0.1108 0.14470001 0.833
-0.1093 0.14470001 0.833
-0.1084 0.1454 0.83700001
-0.1078 0.14669999 0.84399998
-0.1036 0.1468 0.84500003
-0.102 0.14669999 0.84399998
-0.1004 0.14650001 0.84299999
-0.0228 0.1454 0.83700001
-0.021500001 0.14650001 0.84299999
-0.020099999 0.147 0.84600002
-0.0187 0.147 0.84600002
-0.017200001 0.147 0.84600002
-0.015699999 0.147 0.84600002
-0.0142 0.1468 0.84500003
-0.0128 0.14669999 0.84399998
-0.0113 0.14669999 0.84399998
-0.0098000001 0.14669999 0.84399998
-0.0083999997 0.14669999 0.84399998
-0.0068999999 0.14669999 0.84399998
-0.0054000001 0.1461 0.84100002
-0.1727 0.15109999 0.861
-0.17120001 0.15109999 0.861
-0.1691 0.1506 0.85799998
-0.167 0.15000001 0.85500002
-0.1648 0.14929999 0.85100001
-0.1181 0.1464 0.83399999
-0.1168 0.14650001 0.83499998
-0.1155 0.14669999 0.83600003
-0.1141 0.14669999 0.83600003
-0.1123 0.1464 0.83399999
-0.1109 0.1464 0.83399999
-0.1095 0.1464 0.83399999
-0.1085 0.1471 0.838
-0.1077 0.1479 0.84299999
-0.1036 0.14830001 0.84500003
-0.102 0.1481 0.84399998
-0.098999999 0.1525 0.86900002
-0.097499996 0.1525 0.86900002
-0.0243 0.14740001 0.83999997
-0.023 0.1479 0.84299999
-0.021600001 0.14830001 0.84500003
-0.020099999 0.14830001 0.84500003
-0.0186 0.14830001 0.84500003
-0.017200001 0.14830001 0.84500003
-0.015699999 0.14830001 0.84500003
-0.0142 0.14830001 0.84500003
-0.0128 0.1481 0.84399998
-0.0113 0.1479 0.84299999
-0.0098000001 0.1481 0.84399998
-0.0083999997 0.1479 0.84299999
-0.0068999999 0.14740001 0.83999997
-0.1744 0.15279999 0.86199999
-0.17290001 0.15279999 0.86199999
-0.17120001 0.15260001 0.861
-0.1693 0.1522 0.85900003
-0.16680001 0.1514 0.85399997
-0.1181 0.1478 0.83399999
-0.1172 0.1485 0.838
-0.1158 0.1485 0.838
-0.1142 0.14830001 0.83700001
-0.1125 0.148 0.83499998
-0.111 0.148 0.83499998
-0.11 0.1485 0.838
-0.1089 0.149 0.84100002
-0.1078 0.1496 0.84399998
-0.1065 0.1498 0.84500003
-0.105 0.1498 0.84500003
-0.1036 0.1498 0.84500003
-0.102 0.1496 0.84399998
-0.098999999 0.154 0.86900002
-0.097499996 0.154 0.86900002
-0.096100003 0.1542 0.87
-0.094499998 0.154 0.86900002
-0.025699999 0.14830001 0.83700001
-0.0244 0.1494 0.84299999
-0.023 0.1498 0.84500003
-0.021600001 0.1498 0.84500003
-0.020099999 0.1498 0.84500003
-0.0186 0.1498 0.84500003
-0.017200001 0.1498 0.84500003
-0.015699999 0.1498 0.84500003
-0.0142 0.1498 0.84500003
-0.0128 0.1496 0.84399998
-0.0113 0.1496 0.84399998
-0.0098000001 0.1496 0.84399998
-0.0083999997 0.1494 0.84299999
-0.0068999999 0.1489 0.83999997
-0.177 0.1539 0.86000001
-0.1761 0.15440001 0.86299998
-0.17460001 0.15440001 0.86299998
-0.17309999 0.15440001 0.86299998
-0.1716 0.15440001 0.86299998
-0.1699 0.1543 0.86199999
-0.168 0.1539 0.86000001
-0.1188 0.14659999 0.81900001
-0.1184 0.1478 0.82599998
-0.1177 0.1487 0.83099997
-0.1171 0.1498 0.83700001
-0.1156 0.1498 0.83700001
-0.1143 0.15000001 0.838
-0.1129 0.15000001 0.838
-0.1114 0.15000001 0.838
-0.11 0.15000001 0.838
-0.1089 0.1505 0.84100002
-0.1077 0.15090001 0.84299999
-0.1064 0.15099999 0.84399998
-0.105 0.1512 0.84500003
-0.1036 0.1512 0.84500003
-0.1021 0.1512 0.84500003
-0.099200003 0.1559 0.87099999
-0.097599998 0.1557 0.87
-0.096100003 0.1557 0.87
-0.0272 0.15000001 0.838
-0.025800001 0.1503 0.83999997
-0.024499999 0.15099999 0.84399998
-0.023 0.15099999 0.84399998
-0.021600001 0.1512 0.84500003
-0.020099999 0.1512 0.84500003
-0.0186 0.15099999 0.84399998
-0.017100001 0.15099999 0.84399998
-0.015699999 0.15099999 0.84399998
-0.0142 0.1512 0.84500003
-0.0128 0.15099999 0.84399998
-0.0113 0.15099999 0.84399998
-0.0098000001 0.15090001 0.84299999
-0.0082999999 0.1505 0.84100002
-0.0068999999 0.15009999 0.83899999
-0.1776 0.1559 0.86299998
-0.17649999 0.15629999 0.86500001
-0.175 0.15629999 0.86500001
-0.17309999 0.1559 0.86299998
-0.1716 0.1559 0.86299998
-0.16949999 0.15539999 0.86000001
-0.16760001 0.155 0.85799998
-0.1194 0.1487 0.82300001
-0.1184 0.14929999 0.82599998
-0.1174 0.1498 0.829
-0.1167 0.1507 0.83399999
-0.1152 0.1507 0.83399999
-0.1142 0.1512 0.83700001
-0.1127 0.1512 0.83700001
-0.1113 0.1512 0.83700001
-0.11 0.1514 0.838
-0.1087 0.1516 0.83899999
-0.1076 0.1521 0.84200001
-0.1064 0.1525 0.84399998
-0.1049 0.1525 0.84399998
-0.1037 0.1529 0.84600002
-0.1025 0.1532 0.84799999
-0.1011 0.1534 0.84899998
-0.0287 0.152 0.84100002
-0.0273 0.1521 0.84200001
-0.025900001 0.1523 0.84299999
-0.024499999 0.15270001 0.84500003
-0.023 0.15270001 0.84500003
-0.021600001 0.15270001 0.84500003
-0.020099999 0.1525 0.84399998
-0.0186 0.1523 0.84299999
-0.017100001 0.1523 0.84299999
-0.015699999 0.1525 0.84399998
-0.0142 0.1525 0.84399998
-0.0128 0.1525 0.84399998
-0.0113 0.1523 0.84299999
-0.0098000001 0.1523 0.84299999
-0.0082999999 0.152 0.84100002
-0.0068999999 0.1516 0.83899999
-0.1811 0.1593 0.87300003
-0.17820001 0.15800001 0.866
-0.1769 0.1582 0.86699998
-0.1752 0.15800001 0.866
-0.17309999 0.1574 0.86299998
-0.17120001 0.15710001 0.861
-0.1693 0.1567 0.85900003
-0.16760001 0.1565 0.85799998
-0.1197 0.1505 0.82499999
-0.1189 0.1512 0.829
-0.1178 0.15180001 0.83200002
-0.1167 0.1521 0.83399999
-0.1152 0.1521 0.83399999
-0.1143 0.1529 0.838
-0.1126 0.1525 0.83600003
-0.111 0.1523 0.83499998
-0.1097 0.1525 0.83600003
-0.1087 0.1531 0.83899999
-0.1077 0.1538 0.84299999
-0.1065 0.1541 0.84500003
-0.105 0.1541 0.84500003
-0.1039 0.1547 0.84799999
-0.1025 0.1547 0.84799999
-0.1012 0.1551 0.85000002
-0.1001 0.1556 0.85299999
-0.059999999 0.1514 0.82999998
-0.058600001 0.1514 0.82999998
-0.057100002 0.1512 0.829
-0.055599999 0.1512 0.829
-0.0288 0.154 0.84399998
-0.0274 0.154 0.84399998
-0.026000001 0.1541 0.84500003
-0.024499999 0.1541 0.84500003
-0.023 0.1541 0.84500003
-0.021600001 0.1541 0.84500003
-0.020099999 0.154 0.84399998
-0.0186 0.15360001 0.84200001
-0.017100001 0.15360001 0.84200001
-0.015699999 0.1538 0.84299999
-0.0142 0.1538 0.84299999
-0.0127 0.15360001 0.84200001
-0.0113 0.1534 0.84100002
-0.0098000001 0.1534 0.84100002
-0.0082999999 0.1534 0.84100002
-0.0068999999 0.1531 0.83899999
-0.2403 0.1619 0.87900001
-0.1816 0.1611 0.875
-0.1788 0.16 0.86900002
-0.1769 0.15970001 0.86699998
-0.175 0.1593 0.86500001
-0.1723 0.1582 0.85900003
-0.17039999 0.1578 0.85699999
-0.12 0.1523 0.82700002
-0.1191 0.153 0.83099997
-0.118 0.1534 0.833
-0.1167 0.15360001 0.83399999
-0.1154 0.1538 0.83499998
-0.1142 0.1541 0.83700001
-0.1125 0.1538 0.83499998
-0.111 0.1538 0.83499998
-0.1096 0.1538 0.83499998
-0.1084 0.1541 0.83700001
-0.1075 0.1549 0.84100002
-0.1062 0.1552 0.84299999
-0.105 0.1556 0.84500003
-0.1039 0.15620001 0.84799999
-0.1026 0.15629999 0.84899998
-0.1012 0.1565 0.85000002
-0.1001 0.15710001 0.85299999
-0.0616 0.1532 0.83200002
-0.060199998 0.1534 0.833
-0.058600001 0.1529 0.82999998
-0.057100002 0.1529 0.82999998
-0.055599999 0.15270001 0.829
-0.054200001 0.15270001 0.829
-0.052900001 0.153 0.83099997
-0.030300001 0.1556 0.84500003
-0.028899999 0.1558 0.84600002
-0.0275 0.1558 0.84600002
-0.026000001 0.1558 0.84600002
-0.024499999 0.1558 0.84600002
-0.023 0.1556 0.84500003
-0.021600001 0.1556 0.84500003
-0.020099999 0.15539999 0.84399998
-0.0186 0.1551 0.84200001
-0.017100001 0.1549 0.84100002
-0.0156 0.1551 0.84200001
-0.0142 0.1551 0.84200001
-0.0127 0.1549 0.84100002
-0.0112 0.1547 0.83999997
-0.0098000001 0.1547 0.83999997
-0.0082999999 0.1547 0.83999997
-0.0068999999 0.15449999 0.83899999
-0.28400001 0.16230001 0.87300003
-0.2841 0.16320001 0.87800002
-0.1822 0.16320001 0.87800002
-0.17900001 0.1617 0.87
-0.1769 0.1612 0.86699998
-0.17479999 0.16060001 0.86400002
-0.1719 0.1593 0.85699999
-0.1241 0.15350001 0.82599998
-0.1227 0.15350001 0.82599998
-0.1203 0.1541 0.829
-0.1193 0.1547 0.83200002
-0.118 0.1548 0.833
-0.1167 0.155 0.83399999
-0.1154 0.1552 0.83499998
-0.1143 0.1558 0.838
-0.1125 0.1552 0.83499998
-0.111 0.1552 0.83499998
-0.1096 0.1552 0.83499998
-0.1084 0.1556 0.83700001
-0.1071 0.1558 0.838
-0.1059 0.1561 0.83999997
-0.1048 0.1567 0.84299999
-0.1041 0.1578 0.84899998
-0.1028 0.1582 0.85100001
-0.1015 0.1584 0.852
-0.063199997 0.155 0.83399999
-0.061700001 0.1548 0.833
-0.0603 0.155 0.83399999
-0.058699999 0.1547 0.83200002
-0.0572 0.15449999 0.83099997
-0.055599999 0.1541 0.829
-0.054299999 0.1543 0.82999998
-0.0305 0.1576 0.84799999
-0.028999999 0.1576 0.84799999
-0.0275 0.1574 0.847
-0.026000001 0.1573 0.84600002
-0.024499999 0.1573 0.84600002
-0.023 0.15710001 0.84500003
-0.021500001 0.1569 0.84399998
-0.02 0.1567 0.84299999
-0.0185 0.15629999 0.84100002
-0.017100001 0.1561 0.83999997
-0.0156 0.15629999 0.84100002
-0.0142 0.15629999 0.84100002
-0.0127 0.15629999 0.84100002
-0.0113 0.15629999 0.84100002
-0.0098000001 0.15629999 0.84100002
-0.0083999997 0.1567 0.84299999
-0.0068999999 0.1561 0.83999997
-0.23370001 0.1645 0.87699997
-0.23029999 0.1644 0.87599999
-0.17919999 0.16339999 0.87099999
-0.17649999 0.16230001 0.86500001
-0.17460001 0.1619 0.86299998
-0.1725 0.16140001 0.86000001
-0.1275 0.15549999 0.829
-0.1259 0.15539999 0.82800001
-0.1243 0.1552 0.82700002
-0.1227 0.155 0.82599998
-0.1213 0.155 0.82599998
-0.1199 0.155 0.82599998
-0.1116 0.1574 0.83899999
-0.1101 0.1574 0.83899999
-0.1085 0.15719999 0.838
-0.1072 0.1574 0.83899999
-0.106 0.1578 0.84100002
-0.076399997 0.15989999 0.852
-0.074900001 0.15989999 0.852
-0.063199997 0.1565 0.83399999
-0.0616 0.1561 0.83200002
-0.0601 0.1559 0.83099997
-0.058600001 0.1559 0.83099997
-0.0572 0.1559 0.83099997
-0.0557 0.1557 0.82999998
-0.054299999 0.1559 0.83099997
-0.053100001 0.161 0.85799998
-0.0517 0.1612 0.85900003
-0.033399999 0.1591 0.84799999
-0.032000002 0.1593 0.84899998
-0.0305 0.1591 0.84799999
-0.028999999 0.1591 0.84799999
-0.0275 0.1591 0.84799999
-0.026000001 0.1587 0.84600002
-0.024499999 0.1587 0.84600002
-0.023 0.1585 0.84500003
-0.021500001 0.1584 0.84399998
-0.02 0.1582 0.84299999
-0.0185 0.1576 0.83999997
-0.017000001 0.1574 0.83899999
-0.0156 0.1574 0.83899999
-0.0142 0.1576 0.83999997
-0.0127 0.1578 0.84100002
-0.0112 0.1576 0.83999997
-0.0098000001 0.1578 0.84100002
-0.0083999997 0.1582 0.84299999
-0.0068999999 0.1578 0.84100002
-0.2349 0.16590001 0.87599999
-0.2326 0.1653 0.87300003
-0.17919999 0.1649 0.87099999
-0.1767 0.164 0.866
-0.17479999 0.1636 0.86400002
-0.17290001 0.16320001 0.86199999
-0.1392 0.16060001 0.84799999
-0.1381 0.161 0.85000002
-0.13680001 0.1611 0.85100001
-0.1353 0.1611 0.85100001
-0.1327 0.15979999 0.84399998
-0.1279 0.1575 0.83200002
-0.12620001 0.15719999 0.82999998
-0.1247 0.15719999 0.82999998
-0.1232 0.15700001 0.829
-0.1217 0.15700001 0.829
-0.1201 0.1568 0.82800001
-0.1102 0.1591 0.83999997
-0.1088 0.1591 0.83999997
-0.1075 0.1592 0.84100002
-0.0647 0.15809999 0.83499998
-0.063100003 0.1577 0.833
-0.061500002 0.1574 0.83099997
-0.059999999 0.15719999 0.82999998
-0.058600001 0.15719999 0.82999998
-0.057100002 0.15719999 0.82999998
-0.055799998 0.1574 0.83099997
-0.054400001 0.1575 0.83200002
-0.052999999 0.1577 0.833
-0.052299999 0.15979999 0.84399998
-0.051100001 0.1608 0.84899998
-0.049600001 0.16060001 0.84799999
-0.046300001 0.1596 0.84299999
-0.043000001 0.15809999 0.83499998
-0.041299999 0.15719999 0.82999998
-0.034699999 0.15979999 0.84399998
-0.033399999 0.16060001 0.84799999
-0.032000002 0.161 0.85000002
-0.0305 0.1608 0.84899998
-0.028999999 0.1608 0.84899998
-0.0275 0.16060001 0.84799999
-0.026000001 0.1602 0.84600002
-0.024499999 0.16 0.84500003
-0.023 0.15979999 0.84399998
-0.021500001 0.1596 0.84299999
-0.02 0.1592 0.84100002
-0.0185 0.1587 0.838
-0.017000001 0.1587 0.838
-0.0156 0.15889999 0.83899999
-0.0142 0.1591 0.83999997
-0.0127 0.1591 0.83999997
-0.0112 0.1591 0.83999997
-0.0098000001 0.1592 0.84100002
-0.0083999997 0.1596 0.84299999
-0.0068999999 0.1592 0.84100002
-0.234 0.1657 0.86699998
-0.23280001 0.16590001 0.86799997
-0.2315 0.1661 0.86900002
-0.1734 0.1638 0.85699999
-0.17129999 0.16320001 0.85399997
-0.1428 0.1611 0.84299999
-0.1416 0.16150001 0.84500003
-0.1389 0.1617 0.84600002
-0.13770001 0.162 0.84799999
-0.1364 0.1622 0.84899998
-0.13510001 0.16240001 0.85000002
-0.13349999 0.1622 0.84899998
-0.1314 0.16150001 0.84500003
-0.12899999 0.1603 0.83899999
-0.1268 0.1594 0.83399999
-0.1251 0.15899999 0.83200002
-0.1235 0.15880001 0.83099997
-0.1222 0.15899999 0.83200002
-0.1206 0.15880001 0.83099997
-0.078699999 0.1586 0.82999998
-0.063100003 0.1592 0.833
-0.061500002 0.15880001 0.83099997
-0.059999999 0.1586 0.82999998
-0.058600001 0.15880001 0.83099997
-0.0572 0.15880001 0.83099997
-0.055799998 0.15880001 0.83099997
-0.054499999 0.1592 0.833
-0.053100001 0.1594 0.83399999
-0.052099999 0.16069999 0.84100002
-0.050900001 0.1617 0.84600002
-0.049400002 0.1617 0.84600002
-0.047800001 0.1611 0.84299999
-0.0462 0.16069999 0.84100002
-0.044599999 0.1601 0.838
-0.0429 0.1592 0.833
-0.0414 0.15880001 0.83099997
-0.0359 0.1601 0.838
-0.034699999 0.1611 0.84299999
-0.033300001 0.1617 0.84600002
-0.0319 0.162 0.84799999
-0.0305 0.162 0.84799999
-0.028999999 0.162 0.84799999
-0.0275 0.1619 0.847
-0.026000001 0.1617 0.84600002
-0.024499999 0.16150001 0.84500003
-0.023 0.1613 0.84399998
-0.021500001 0.1611 0.84299999
-0.02 0.1605 0.83999997
-0.0185 0.15989999 0.83700001
-0.017000001 0.15989999 0.83700001
-0.0156 0.1601 0.838
-0.0141 0.1601 0.838
-0.0127 0.1601 0.838
-0.0112 0.1601 0.838
-0.0098000001 0.1601 0.838
-0.0082999999 0.1601 0.838
-0.0068999999 0.1601 0.838
-0.2335 0.16680001 0.86500001
-0.2322 0.167 0.866
-0.23100001 0.1672 0.86699998
-0.1751 0.1654 0.85799998
-0.1732 0.16509999 0.85600001
-0.1432 0.16140001 0.83700001
-0.14229999 0.162 0.83999997
-0.14129999 0.16249999 0.84299999
-0.1402 0.1629 0.84500003
-0.13869999 0.1629 0.84500003
-0.1374 0.1631 0.84600002
-0.13609999 0.16329999 0.847
-0.1346 0.16329999 0.847
-0.133 0.1631 0.84600002
-0.1311 0.16249999 0.84299999
-0.12899999 0.1618 0.83899999
-0.1269 0.161 0.83499998
-0.1252 0.16060001 0.833
-0.1236 0.1604 0.83200002
-0.1223 0.16060001 0.833
-0.1207 0.1604 0.83200002
-0.063000001 0.1604 0.83200002
-0.061500002 0.16 0.82999998
-0.059900001 0.15989999 0.829
-0.058499999 0.15989999 0.829
-0.057100002 0.15989999 0.829
-0.0557 0.16 0.82999998
-0.054400001 0.1604 0.83200002
-0.052999999 0.16060001 0.833
-0.051899999 0.16159999 0.838
-0.0506 0.1622 0.84100002
-0.0493 0.16249999 0.84299999
-0.047800001 0.16249999 0.84299999
-0.046399999 0.1627 0.84399998
-0.044799998 0.1622 0.84100002
-0.043000001 0.161 0.83499998
-0.041499998 0.16060001 0.833
-0.039999999 0.16060001 0.833
-0.038600001 0.1608 0.83399999
-0.037300002 0.1612 0.83600003
-0.0359 0.16159999 0.838
-0.034499999 0.162 0.83999997
-0.033199999 0.1627 0.84399998
-0.0319 0.16329999 0.847
-0.0305 0.1635 0.84799999
-0.028999999 0.1635 0.84799999
-0.0275 0.16329999 0.847
-0.026000001 0.1631 0.84600002
-0.024499999 0.1631 0.84600002
-0.023 0.1629 0.84500003
-0.021500001 0.1627 0.84399998
-0.02 0.1622 0.84100002
-0.0185 0.16159999 0.838
-0.017000001 0.16159999 0.838
-0.0156 0.16159999 0.838
-0.0141 0.16159999 0.838
-0.0127 0.16159999 0.838
-0.0112 0.16159999 0.838
-0.0098000001 0.16159999 0.838
-0.0082999999 0.16159999 0.838
-0.2335 0.1683 0.86500001
-0.2317 0.1681 0.86400002
-0.2299 0.1679 0.86299998
-0.1429 0.16249999 0.83499998
-0.14210001 0.16320001 0.83899999
-0.141 0.1636 0.84100002
-0.14 0.16419999 0.84399998
-0.13860001 0.16419999 0.84399998
-0.1374 0.1646 0.84600002
-0.13600001 0.1646 0.84600002
-0.1329 0.1644 0.84500003
-0.1312 0.16419999 0.84399998
-0.1293 0.1636 0.84100002
-0.12729999 0.1628 0.83700001
-0.12540001 0.16230001 0.83399999
-0.1238 0.1621 0.833
-0.1225 0.16230001 0.83399999
-0.121 0.16230001 0.83399999
-0.062899999 0.16150001 0.82999998
-0.0614 0.1613 0.829
-0.059900001 0.1613 0.829
-0.058499999 0.1613 0.829
-0.057100002 0.16150001 0.82999998
-0.055799998 0.1617 0.83099997
-0.054400001 0.1619 0.83200002
-0.052999999 0.1621 0.833
-0.051600002 0.16230001 0.83399999
-0.050299998 0.1626 0.83600003
-0.048999999 0.163 0.838
-0.047499999 0.163 0.838
-0.0462 0.16339999 0.83999997
-0.044799998 0.1636 0.84100002
-0.043200001 0.16320001 0.83899999
-0.041700002 0.1628 0.83700001
-0.040199999 0.1628 0.83700001
-0.038800001 0.163 0.838
-0.0374 0.16320001 0.83899999
-0.0359 0.16320001 0.83899999
-0.034499999 0.16339999 0.83999997
-0.033199999 0.164 0.84299999
-0.0319 0.1646 0.84600002
-0.030400001 0.1648 0.847
-0.028999999 0.1648 0.847
-0.0275 0.1646 0.84600002
-0.026000001 0.1646 0.84600002
-0.024499999 0.1646 0.84600002
-0.023 0.1644 0.84500003
-0.021500001 0.1638 0.84200001
-0.02 0.16320001 0.83899999
-0.0185 0.1628 0.83700001
-0.017000001 0.1626 0.83600003
-0.0156 0.1628 0.83700001
-0.0141 0.1628 0.83700001
-0.0127 0.1628 0.83700001
-0.0112 0.1628 0.83700001
-0.0098000001 0.1628 0.83700001
-0.0082999999 0.16249999 0.83499998
-0.234 0.17020001 0.86699998
-0.23199999 0.1698 0.86500001
-0.23019999 0.1696 0.86400002
-0.1418 0.16429999 0.83700001
-0.1408 0.1649 0.83999997
-0.1397 0.1653 0.84200001
-0.1384 0.1655 0.84299999
-0.1371 0.1657 0.84399998
-0.1358 0.16590001 0.84500003
-0.13429999 0.16590001 0.84500003
-0.1327 0.1657 0.84399998
-0.1311 0.1655 0.84299999
-0.1293 0.16509999 0.84100002
-0.1274 0.1645 0.838
-0.12549999 0.1639 0.83499998
-0.1239 0.1637 0.83399999
-0.1225 0.1637 0.83399999
-0.1209 0.1635 0.833
-0.061500002 0.1629 0.82999998
-0.059900001 0.1627 0.829
-0.058600001 0.1629 0.82999998
-0.0572 0.1631 0.83099997
-0.055799998 0.16329999 0.83200002
-0.054499999 0.1635 0.833
-0.052999999 0.1635 0.833
-0.051600002 0.1637 0.83399999
-0.0502 0.1637 0.83399999
-0.048700001 0.1637 0.83399999
-0.047400001 0.1639 0.83499998
-0.046 0.16429999 0.83700001
-0.0447 0.1647 0.83899999
-0.043200001 0.1645 0.838
-0.041700002 0.16429999 0.83700001
-0.040199999 0.16429999 0.83700001
-0.038899999 0.1647 0.83899999
-0.0374 0.1649 0.83999997
-0.0359 0.1647 0.83899999
-0.034499999 0.1645 0.838
-0.033199999 0.1655 0.84299999
-0.0319 0.1661 0.84600002
-0.030400001 0.1661 0.84600002
-0.028899999 0.1661 0.84600002
-0.0275 0.1661 0.84600002
-0.026000001 0.1661 0.84600002
-0.024599999 0.1665 0.84799999
-0.0231 0.1661 0.84600002
-0.021500001 0.1655 0.84299999
-0.02 0.1649 0.83999997
-0.0185 0.1645 0.838
-0.017000001 0.16429999 0.83700001
-0.0156 0.1645 0.838
-0.0141 0.1645 0.838
-0.0127 0.1645 0.838
-0.0112 0.16429999 0.83700001
-0.0098000001 0.16429999 0.83700001
-0.0082999999 0.16429999 0.83700001
-0.2343 0.1719 0.86799997
-0.23199999 0.17129999 0.86500001
-0.2305 0.17129999 0.86500001
-0.22759999 0.17030001 0.86000001
-0.1463 0.1644 0.82999998
-0.14489999 0.1644 0.82999998
-0.1436 0.1646 0.83099997
-0.14219999 0.1646 0.83099997
-0.1409 0.1648 0.83200002
-0.1366 0.1665 0.84100002
-0.1353 0.16670001 0.84200001
-0.134 0.16689999 0.84299999
-0.13249999 0.16689999 0.84299999
-0.1309 0.16670001 0.84200001
-0.1293 0.1665 0.84100002
-0.1277 0.1663 0.83999997
-0.1258 0.1657 0.83700001
-0.1244 0.1657 0.83700001
-0.1228 0.1655 0.83600003
-0.1212 0.1653 0.83499998
-0.0616 0.1648 0.83200002
-0.0601 0.1646 0.83099997
-0.058699999 0.1648 0.83200002
-0.057300001 0.1648 0.83200002
-0.0559 0.16500001 0.833
