ply
format ascii 1.0
comment PCL generated
element vertex 1537
property float x
property float y
property float z
element camera 0
property float view_px
property float view_py
property float view_pz
property float x_axisx
property float x_axisy
property float x_axisz
property float y_axisx
property float y_axisy
property float y_axisz
property float z_axisx
property float z_axisy
property float z_axisz
property float focal
property float scalex
property float scaley
property float centerx
property float centery
property int viewportx
property int viewporty
property float k1
property float k2
end_header
0.0144 0.059300002 0.89499998
0.016000001 0.059700001 0.89999998
0.0176 0.059799999 0.90200001
0.019200001 0.059799999 0.90200001
0.0208 0.059900001 0.903
0.022399999 0.059900001 0.90399998
0.0239 0.059900001 0.903
0.0254 0.059700001 0.90100002
0.026900001 0.059500001 0.898
0.0284 0.059300002 0.89499998
0.041000001 0.059700001 0.89999998
0.0425 0.059700001 0.89999998
0.044199999 0.059700001 0.90100002
0.045699999 0.059700001 0.90100002
0.0473 0.059700001 0.90100002
0.048900001 0.059799999 0.90200001
0.050500002 0.059900001 0.903
0.052099999 0.059900001 0.903
0.053599998 0.059900001 0.903
0.055199999 0.059900001 0.903
0.056600001 0.059700001 0.90100002
0.057999998 0.059500001 0.89700001
0.0592 0.059099998 0.89200002
0.062100001 0.059 0.88999999
0.063699998 0.059099998 0.89099997
0.065300003 0.059099998 0.89099997
0.071500003 0.059099998 0.89099997
0.072999999 0.059099998 0.89099997
0.074600004 0.059099998 0.89099997
0.076099999 0.059099998 0.89099997
0.077699997 0.059099998 0.89200002
0.079400003 0.0592 0.89300001
0.081100002 0.059300002 0.89499998
0.082900003 0.059500001 0.898
0.084700003 0.059700001 0.89999998
0.086300001 0.059700001 0.90100002
0.088100001 0.059900001 0.903
0.091300003 0.059900001 0.90399998
0.093000002 0.059999999 0.90499997
0.094300002 0.059900001 0.903
0.095600002 0.059700001 0.89999998
0.096799999 0.059500001 0.89700001
0.098200001 0.059300002 0.89499998
0.099699996 0.059300002 0.89499998
0.1013 0.059300002 0.89499998
0.1028 0.059300002 0.89499998
0.1044 0.059300002 0.89499998
0.1059 0.059300002 0.89499998
0.1075 0.059300002 0.89499998
0.109 0.059300002 0.89499998
0.1106 0.059300002 0.89499998
0.1122 0.0594 0.89600003
0.1138 0.0594 0.89600003
0.1155 0.059500001 0.89700001
0.1172 0.059500001 0.898
0.1188 0.059599999 0.89899999
0.1218 0.059500001 0.898
0.1247 0.0594 0.89600003
0.1261 0.059300002 0.89499998
0.1275 0.059300002 0.89399999
0.1304 0.0592 0.89300001
0.132 0.0592 0.89300001
0.1337 0.059300002 0.89399999
0.1355 0.0594 0.89600003
0.1374 0.059500001 0.898
0.1389 0.059500001 0.898
0.14049999 0.059500001 0.898
0.1419 0.059500001 0.89700001
0.1433 0.0594 0.89600003
0.14470001 0.059300002 0.89499998
0.1459 0.0592 0.89300001
0.1473 0.059099998 0.89200002
0.149 0.0592 0.89300001
0.1506 0.0592 0.89300001
0.1521 0.0592 0.89300001
0.154 0.059300002 0.89499998
0.15549999 0.059300002 0.89499998
0.15710001 0.059300002 0.89499998
0.1586 0.059300002 0.89499998
0.1602 0.059300002 0.89499998
0.1619 0.0594 0.89600003
0.1661 0.059799999 0.90200001
0.1683 0.059999999 0.90499997
0.17020001 0.0601 0.90700001
0.1718 0.0601 0.90700001
0.1735 0.060199998 0.90799999
0.1749 0.0601 0.90700001
0.17649999 0.0601 0.90700001
0.1781 0.0601 0.90700001
0.17919999 0.059999999 0.90499997
0.18080001 0.059999999 0.90499997
0.1822 0.059900001 0.90399998
0.1837 0.059900001 0.90399998
0.1851 0.059900001 0.903
0.18629999 0.059700001 0.90100002
0.18700001 0.059500001 0.89700001
0.1873 0.059099998 0.89099997
-0.41330001 0.059099998 0.86799997
-0.40369999 0.059900001 0.88
-0.4021 0.0601 0.88300002
-0.40099999 0.0601 0.884
-0.39899999 0.0601 0.88300002
-0.34279999 0.0601 0.884
-0.34009999 0.060199998 0.88499999
-0.33849999 0.060199998 0.88499999
-0.33469999 0.0603 0.88700002
-0.33270001 0.060600001 0.88999999
-0.33050001 0.060400002 0.88800001
-0.32890001 0.060400002 0.88800001
-0.2701 0.0603 0.88700002
-0.26800001 0.060199998 0.88499999
-0.2665 0.060199998 0.88499999
-0.2649 0.060199998 0.88499999
-0.26339999 0.060199998 0.88499999
-0.25029999 0.059999999 0.88200003
-0.2485 0.059900001 0.88099998
-0.2464 0.059799999 0.87900001
-0.2448 0.059799999 0.87900001
-0.24330001 0.059799999 0.87900001
-0.24240001 0.059900001 0.88099998
-0.24079999 0.059900001 0.88099998
-0.2393 0.059900001 0.88099998
-0.23800001 0.059999999 0.88200003
-0.237 0.0601 0.884
-0.2358 0.060199998 0.88499999
-0.234 0.0601 0.884
-0.2286 0.0603 0.88700002
-0.2271 0.0603 0.88700002
-0.22579999 0.060400002 0.88800001
-0.2243 0.060400002 0.88800001
-0.223 0.0605 0.889
-0.2199 0.0605 0.889
-0.2186 0.060600001 0.88999999
-0.189 0.056299999 0.82800001
-0.1874 0.056299999 0.82700002
-0.1859 0.056299999 0.82700002
-0.18449999 0.056299999 0.82700002
-0.1831 0.056299999 0.82700002
-0.18189999 0.056299999 0.82800001
-0.1804 0.056299999 0.82800001
-0.17919999 0.056400001 0.829
-0.1778 0.056400001 0.829
-0.1763 0.056400001 0.829
-0.1749 0.056400001 0.829
-0.1734 0.056400001 0.829
-0.17200001 0.056400001 0.829
-0.1706 0.056400001 0.829
-0.1691 0.056400001 0.829
-0.16769999 0.056400001 0.829
-0.1663 0.056400001 0.829
-0.1648 0.056400001 0.829
-0.16339999 0.056400001 0.829
-0.162 0.056400001 0.829
-0.1591 0.056400001 0.829
-0.1558 0.056299999 0.82700002
-0.15279999 0.056200001 0.82599998
-0.1512 0.0561 0.82499999
-0.1496 0.0561 0.824
-0.1479 0.056000002 0.82300001
-0.14669999 0.0561 0.824
-0.1453 0.0561 0.824
-0.14399999 0.0561 0.82499999
-0.1429 0.056299999 0.82700002
-0.1415 0.056299999 0.82700002
-0.1402 0.056299999 0.82800001
-0.139 0.056400001 0.829
-0.1375 0.056400001 0.829
-0.1363 0.056499999 0.82999998
-0.1348 0.056499999 0.82999998
-0.1332 0.056400001 0.829
-0.1318 0.056400001 0.829
-0.1303 0.056400001 0.829
-0.12890001 0.056400001 0.829
-0.1276 0.056499999 0.82999998
-0.12620001 0.056499999 0.82999998
-0.1247 0.056499999 0.82999998
-0.1233 0.056499999 0.82999998
-0.122 0.056499999 0.83099997
-0.1206 0.056499999 0.83099997
-0.1176 0.056499999 0.82999998
-0.1147 0.056499999 0.82999998
-0.1132 0.056499999 0.82999998
-0.1117 0.056400001 0.829
-0.1102 0.056400001 0.829
-0.1087 0.056299999 0.82800001
-0.1072 0.056299999 0.82800001
-0.1058 0.056299999 0.82800001
-0.1044 0.056299999 0.82800001
-0.103 0.056400001 0.829
-0.1016 0.056400001 0.829
-0.1002 0.056400001 0.829
-0.098700002 0.056400001 0.829
-0.0973 0.056400001 0.829
-0.095700003 0.056299999 0.82800001
-0.0942 0.056299999 0.82700002
-0.092699997 0.056200001 0.82599998
-0.091200002 0.056200001 0.82599998
-0.089900002 0.056299999 0.82700002
-0.088699996 0.056400001 0.829
-0.087300003 0.056499999 0.82999998
-0.086000003 0.056499999 0.83099997
-0.084600002 0.056499999 0.83099997
-0.083099999 0.056499999 0.83099997
-0.081799999 0.056600001 0.83200002
-0.080300003 0.056499999 0.83099997
-0.077399999 0.056499999 0.83099997
-0.075900003 0.056499999 0.83099997
-0.074500002 0.056499999 0.83099997
-0.072999999 0.056499999 0.82999998
-0.071400002 0.056400001 0.829
-0.070100002 0.056499999 0.82999998
-0.068599999 0.056499999 0.82999998
-0.067299999 0.056499999 0.83099997
-0.065899998 0.056499999 0.83099997
-0.064400002 0.056499999 0.83099997
-0.063100003 0.056699999 0.833
-0.061799999 0.056699999 0.83399999
-0.060199998 0.056699999 0.833
-0.057500001 0.0568 0.83499998
-0.056000002 0.0568 0.83499998
-0.0546 0.0568 0.83499998
-0.053100001 0.0568 0.83499998
-0.0517 0.0568 0.83499998
-0.0502 0.0568 0.83499998
-0.048799999 0.0568 0.83499998
-0.047400001 0.0568 0.83499998
-0.045899998 0.0568 0.83499998
-0.044500001 0.0568 0.83499998
-0.043099999 0.056899998 0.83600003
-0.041700002 0.056899998 0.83700001
-0.040199999 0.056899998 0.83700001
-0.038800001 0.056899998 0.83700001
-0.0374 0.057 0.838
-0.0359 0.057100002 0.83899999
-0.034499999 0.0572 0.83999997
-0.033100002 0.0572 0.84100002
-0.0317 0.0572 0.84100002
-0.030300001 0.057399999 0.84299999
-0.0288 0.057399999 0.84399998
-0.024499999 0.0612 0.89999998
-0.023 0.0612 0.89999998
-0.021400001 0.0612 0.89999998
-0.0198 0.0612 0.89999998
-0.018300001 0.0612 0.89999998
-0.0167 0.061099999 0.898
-0.0151 0.061000001 0.89600003
-0.0135 0.060800001 0.89399999
-0.012 0.060800001 0.89300001
-0.0104 0.060800001 0.89300001
0.0128 0.060600001 0.89099997
0.0144 0.060800001 0.89300001
0.016000001 0.061099999 0.898
0.0176 0.061299998 0.90100002
0.019200001 0.0614 0.90200001
0.0208 0.0614 0.903
0.022299999 0.0614 0.903
0.0239 0.0614 0.903
0.0254 0.061299998 0.90100002
0.026900001 0.0612 0.89899999
0.0284 0.061000001 0.89600003
0.029899999 0.060899999 0.89499998
0.031399999 0.060800001 0.89300001
0.0425 0.0612 0.89899999
0.044100001 0.0612 0.89999998
0.045699999 0.0612 0.89999998
0.0473 0.061299998 0.90100002
0.048900001 0.0614 0.90200001
0.050500002 0.0614 0.903
0.052099999 0.061500002 0.90399998
0.053800002 0.0616 0.90600002
0.055399999 0.0616 0.90600002
0.0568 0.0614 0.903
0.0581 0.0612 0.89999998
0.0594 0.060899999 0.89499998
0.060699999 0.060600001 0.89099997
0.063699998 0.060600001 0.89099997
0.065300003 0.060600001 0.89099997
0.066799998 0.060600001 0.88999999
0.069799997 0.060600001 0.88999999
0.071500003 0.060600001 0.89099997
0.072999999 0.060600001 0.89099997
0.074600004 0.060600001 0.89099997
0.076200001 0.060699999 0.89200002
0.077799998 0.060800001 0.89300001
0.079499997 0.060899999 0.89499998
0.081299998 0.061000001 0.89700001
0.083099999 0.0612 0.89999998
0.084799998 0.061299998 0.90100002
0.088299997 0.0616 0.90499997
0.089900002 0.0616 0.90600002
0.091399997 0.0616 0.90499997
0.095700003 0.061299998 0.90100002
0.097000003 0.0612 0.89899999
0.099799998 0.061000001 0.89600003
0.1014 0.061000001 0.89600003
0.1028 0.060899999 0.89499998
0.1045 0.061000001 0.89600003
0.1059 0.060899999 0.89499998
0.1076 0.061000001 0.89600003
0.1091 0.061000001 0.89600003
0.1107 0.061000001 0.89600003
0.1122 0.061000001 0.89600003
0.1139 0.061000001 0.89700001
0.1156 0.061099999 0.898
0.1172 0.061099999 0.898
0.1188 0.0612 0.89899999
0.1205 0.0612 0.89999998
0.1221 0.0612 0.89999998
0.1235 0.0612 0.89899999
0.1249 0.061099999 0.898
0.1261 0.060899999 0.89499998
0.1275 0.060800001 0.89399999
0.13060001 0.060800001 0.89399999
0.1321 0.060800001 0.89399999
0.1338 0.060899999 0.89499998
0.1374 0.061099999 0.898
0.1389 0.061099999 0.898
0.14030001 0.061000001 0.89700001
0.14309999 0.060899999 0.89499998
0.1444 0.060800001 0.89300001
0.14569999 0.060699999 0.89200002
0.1471 0.060600001 0.89099997
0.1488 0.060699999 0.89200002
0.1506 0.060800001 0.89300001
0.1523 0.060800001 0.89399999
0.154 0.060899999 0.89499998
0.1557 0.061000001 0.89600003
0.1573 0.061000001 0.89600003
0.15880001 0.061000001 0.89600003
0.1604 0.061000001 0.89600003
0.1619 0.061000001 0.89600003
0.1638 0.061099999 0.898
0.16580001 0.0612 0.89999998
0.1679 0.0614 0.903
0.1698 0.0616 0.90499997
0.1716 0.0616 0.90600002
0.1733 0.061700001 0.90700001
0.1749 0.061700001 0.90700001
0.1763 0.0616 0.90600002
0.1777 0.0616 0.90499997
0.17919999 0.0616 0.90499997
0.1806 0.061500002 0.90399998
0.182 0.0614 0.903
0.18350001 0.0614 0.903
0.1851 0.0614 0.903
0.18629999 0.061299998 0.90100002
0.18719999 0.061099999 0.898
0.1877 0.060800001 0.89300001
-0.4138 0.060600001 0.86900002
-0.4118 0.060600001 0.86799997
-0.35609999 0.061299998 0.87900001
-0.35609999 0.0616 0.88300002
-0.35499999 0.061700001 0.884
-0.34009999 0.061700001 0.88499999
-0.33849999 0.061700001 0.88499999
-0.33739999 0.061799999 0.88599998
-0.33469999 0.061900001 0.88700002
-0.3339 0.061999999 0.889
-0.33270001 0.062100001 0.88999999
-0.3312 0.062100001 0.88999999
-0.32969999 0.062100001 0.88999999
-0.3096 0.062100001 0.88999999
-0.30840001 0.062199999 0.89099997
-0.30720001 0.062199999 0.89200002
-0.30599999 0.0623 0.89300001
-0.30450001 0.0623 0.89300001
-0.30219999 0.062199999 0.89099997
-0.30039999 0.062100001 0.88999999
-0.27939999 0.061900001 0.88700002
-0.2726 0.061700001 0.88499999
-0.27110001 0.061700001 0.88499999
-0.26949999 0.061700001 0.88499999
-0.26769999 0.061700001 0.884
-0.26620001 0.061700001 0.884
-0.26460001 0.061700001 0.884
-0.2631 0.061700001 0.884
-0.25850001 0.061700001 0.884
-0.257 0.061700001 0.884
-0.2554 0.061700001 0.884
-0.25389999 0.061700001 0.884
-0.2518 0.061500002 0.88200003
-0.25029999 0.061500002 0.88200003
-0.24869999 0.061500002 0.88200003
-0.2464 0.061299998 0.87900001
-0.2448 0.061299998 0.87900001
-0.24330001 0.061299998 0.87900001
-0.24240001 0.061500002 0.88099998
-0.2414 0.0616 0.88300002
-0.23980001 0.0616 0.88300002
-0.2386 0.061700001 0.884
-0.23729999 0.061700001 0.88499999
-0.2358 0.061700001 0.88499999
-0.2342 0.061700001 0.88499999
-0.2299 0.061799999 0.88599998
-0.2286 0.061900001 0.88700002
-0.2273 0.061999999 0.88800001
-0.2261 0.061999999 0.889
-0.22480001 0.062100001 0.88999999
-0.22319999 0.062100001 0.88999999
-0.2219 0.062199999 0.89099997
-0.2201 0.062100001 0.88999999
-0.2186 0.062100001 0.88999999
-0.18880001 0.057700001 0.82700002
-0.18709999 0.057599999 0.82599998
-0.1857 0.057599999 0.82599998
-0.18430001 0.057599999 0.82599998
-0.1831 0.057700001 0.82700002
-0.1816 0.057700001 0.82700002
-0.1802 0.057700001 0.82700002
-0.17900001 0.057799999 0.82800001
-0.1778 0.057799999 0.829
-0.1763 0.057799999 0.829
-0.1749 0.057799999 0.829
-0.1737 0.0579 0.82999998
-0.17219999 0.0579 0.82999998
-0.1708 0.0579 0.82999998
-0.16949999 0.057999998 0.83099997
-0.1679 0.0579 0.82999998
-0.1665 0.0579 0.82999998
-0.16500001 0.0579 0.82999998
-0.16339999 0.057799999 0.829
-0.162 0.057799999 0.829
-0.1603 0.057799999 0.82800001
-0.1575 0.057799999 0.82800001
-0.1558 0.057700001 0.82700002
-0.1542 0.057599999 0.82599998
-0.15279999 0.057599999 0.82599998
-0.1513 0.057599999 0.82599998
-0.1496 0.057500001 0.824
-0.1481 0.057500001 0.824
-0.14650001 0.057399999 0.82300001
-0.1451 0.057399999 0.82300001
-0.1437 0.057399999 0.82300001
-0.1426 0.057599999 0.82499999
-0.14120001 0.057599999 0.82499999
-0.1401 0.057700001 0.82700002
-0.1388 0.057799999 0.82800001
-0.1374 0.057799999 0.82800001
-0.1363 0.0579 0.82999998
-0.1348 0.0579 0.82999998
-0.13339999 0.0579 0.82999998
-0.1318 0.057799999 0.829
-0.1303 0.057799999 0.829
-0.12890001 0.057799999 0.829
-0.1275 0.057799999 0.829
-0.126 0.057799999 0.829
-0.1246 0.057799999 0.829
-0.1232 0.057799999 0.829
-0.1217 0.057799999 0.829
-0.1203 0.057799999 0.829
-0.1187 0.057799999 0.82800001
-0.1174 0.057799999 0.829
-0.116 0.057799999 0.829
-0.1145 0.057799999 0.829
-0.1132 0.0579 0.82999998
-0.1118 0.0579 0.82999998
-0.1102 0.057799999 0.829
-0.1088 0.057799999 0.829
-0.1074 0.057799999 0.829
-0.1059 0.057799999 0.829
-0.1045 0.057799999 0.829
-0.103 0.057799999 0.829
-0.1016 0.057799999 0.829
-0.1003 0.0579 0.82999998
-0.098899998 0.0579 0.82999998
-0.097400002 0.0579 0.82999998
-0.095899999 0.057799999 0.829
-0.094300002 0.057799999 0.82800001
-0.092900001 0.057799999 0.82800001
-0.091399997 0.057799999 0.82800001
-0.090099998 0.057799999 0.829
-0.088799998 0.0579 0.82999998
-0.087300003 0.0579 0.82999998
-0.086000003 0.057999998 0.83099997
-0.084600002 0.057999998 0.83099997
-0.083099999 0.057999998 0.83099997
-0.081699997 0.057999998 0.83099997
-0.080300003 0.057999998 0.83099997
-0.077399999 0.057999998 0.83099997
-0.075800002 0.0579 0.82999998
-0.0744 0.0579 0.82999998
-0.072999999 0.0579 0.82999998
-0.071400002 0.057799999 0.829
-0.070100002 0.0579 0.82999998
-0.068700001 0.057999998 0.83099997
-0.067400001 0.057999998 0.83200002
-0.066 0.0581 0.833
-0.064599998 0.0581 0.833
-0.063199997 0.058200002 0.83399999
-0.061799999 0.0583 0.83499998
-0.0603 0.058200002 0.83399999
-0.058899999 0.0583 0.83499998
-0.057500001 0.0583 0.83499998
-0.056000002 0.0583 0.83499998
-0.0546 0.0583 0.83499998
-0.053100001 0.0583 0.83499998
-0.0517 0.0583 0.83499998
-0.0502 0.0583 0.83499998
-0.048799999 0.0583 0.83499998
-0.047400001 0.0583 0.83499998
-0.045899998 0.0583 0.83499998
-0.044500001 0.0583 0.83499998
-0.043000001 0.0583 0.83499998
-0.0416 0.0583 0.83499998
-0.040199999 0.0583 0.83600003
-0.038699999 0.0583 0.83600003
-0.037300002 0.058400001 0.83700001
-0.0359 0.058499999 0.838
-0.034499999 0.058499999 0.83899999
-0.033100002 0.058600001 0.83999997
-0.0317 0.058699999 0.84100002
-0.030200001 0.058699999 0.84200001
-0.0288 0.058800001 0.84299999
-0.026000001 0.062600002 0.89700001
-0.024499999 0.062700003 0.89899999
-0.023 0.062899999 0.90100002
-0.021400001 0.062799998 0.89999998
-0.0198 0.062799998 0.89999998
-0.018300001 0.062799998 0.89999998
-0.0167 0.062700003 0.89899999
-0.0151 0.062600002 0.89700001
-0.0135 0.0625 0.89600003
-0.012 0.062399998 0.89499998
-0.0104 0.062399998 0.89499998
-0.0088999998 0.0625 0.89600003
-0.0073000002 0.062399998 0.89499998
-0.0057999999 0.062399998 0.89399999
-0.0027000001 0.0623 0.89300001
-0.0011 0.062199999 0.89099997
0.00039999999 0.062100001 0.88999999
0.0128 0.062100001 0.88999999
0.0143 0.062199999 0.89099997
0.015900001 0.062399998 0.89499998
0.0176 0.062799998 0.89999998
0.019200001 0.062899999 0.90100002
0.0208 0.062899999 0.90200001
0.022299999 0.063000001 0.903
0.0239 0.063000001 0.903
0.0254 0.062899999 0.90200001
0.026900001 0.062799998 0.89999998
0.0284 0.062700003 0.898
0.029999999 0.062700003 0.898
0.044 0.062700003 0.898
0.045600001 0.062700003 0.89899999
0.047200002 0.062799998 0.89999998
0.048900001 0.062899999 0.90200001
0.050500002 0.063000001 0.903
0.052200001 0.063100003 0.90499997
0.0539 0.063299999 0.90700001
0.055399999 0.063199997 0.90600002
0.056899998 0.063100003 0.90499997
0.058200002 0.062899999 0.90100002
0.0594 0.0625 0.89600003
0.060800001 0.0623 0.89300001
0.062199999 0.062199999 0.89099997
0.063699998 0.062199999 0.89099997
0.065300003 0.062199999 0.89099997
0.066799998 0.062100001 0.88999999
0.068300001 0.062100001 0.88999999
0.069899999 0.062199999 0.89099997
0.071500003 0.062199999 0.89099997
0.072999999 0.062199999 0.89099997
0.076300003 0.0623 0.89300001
0.078000002 0.062399998 0.89499998
0.079700001 0.062600002 0.89700001
0.0814 0.062700003 0.898
0.0832 0.062899999 0.90100002
0.084899999 0.062899999 0.90200001
0.086499996 0.063000001 0.903
0.088299997 0.063100003 0.90499997
0.0898 0.063100003 0.90499997
0.095700003 0.062899999 0.90100002
0.097000003 0.062700003 0.89899999
0.098300003 0.0625 0.89600003
0.099699996 0.062399998 0.89499998
0.1014 0.0625 0.89600003
0.1028 0.062399998 0.89499998
0.1044 0.062399998 0.89499998
0.1059 0.062399998 0.89499998
0.1076 0.0625 0.89600003
0.1094 0.062700003 0.898
0.1109 0.062700003 0.898
0.1125 0.062700003 0.898
0.1143 0.062799998 0.89999998
0.1159 0.062799998 0.89999998
0.1175 0.062899999 0.90100002
0.1191 0.062899999 0.90100002
0.1207 0.062899999 0.90100002
0.1222 0.062899999 0.90100002
0.1238 0.062899999 0.90100002
0.1252 0.062799998 0.89999998
0.12620001 0.0625 0.89600003
0.1276 0.062399998 0.89499998
0.12899999 0.062399998 0.89399999
0.1304 0.0623 0.89300001
0.132 0.0623 0.89300001
0.1338 0.062399998 0.89499998
0.1355 0.0625 0.89600003
0.13860001 0.0625 0.89600003
0.14129999 0.0623 0.89300001
0.1425 0.062199999 0.89099997
0.14399999 0.062199999 0.89099997
0.1454 0.062100001 0.88999999
0.147 0.062100001 0.88999999
0.1487 0.062199999 0.89099997
0.1506 0.0623 0.89300001
0.1521 0.0623 0.89300001
0.154 0.062399998 0.89499998
0.1557 0.0625 0.89600003
0.1573 0.0625 0.89600003
0.15880001 0.0625 0.89600003
0.1604 0.0625 0.89600003
0.1619 0.0625 0.89600003
0.1638 0.062700003 0.898
0.16580001 0.062799998 0.89999998
0.1679 0.063000001 0.903
0.1696 0.063100003 0.90399998
0.1714 0.063100003 0.90499997
0.1733 0.063299999 0.90700001
0.17470001 0.063199997 0.90600002
0.1763 0.063199997 0.90600002
0.1777 0.063100003 0.90499997
0.17900001 0.063100003 0.90399998
0.1804 0.063000001 0.903
0.18179999 0.062899999 0.90200001
0.1831 0.062899999 0.90100002
0.1847 0.062899999 0.90100002
0.1858 0.062700003 0.89899999
0.1866 0.062399998 0.89499998
0.1873 0.062199999 0.89099997
-0.41420001 0.062199999 0.87
-0.3802 0.063100003 0.88200003
-0.35640001 0.062600002 0.87599999
-0.35690001 0.063000001 0.88099998
-0.3565 0.063199997 0.884
-0.33970001 0.063199997 0.884
-0.33849999 0.063299999 0.88499999
-0.33430001 0.0634 0.88599998
-0.33430001 0.063600004 0.88999999
-0.33309999 0.063699998 0.89099997
-0.33160001 0.063699998 0.89099997
-0.33039999 0.0638 0.89200002
-0.30840001 0.063699998 0.89099997
-0.30720001 0.0638 0.89200002
-0.30379999 0.063699998 0.89099997
-0.3019 0.063600004 0.88999999
-0.30000001 0.063600004 0.889
-0.2978 0.0634 0.88700002
-0.2956 0.063299999 0.88499999
-0.29409999 0.063299999 0.88499999
-0.29249999 0.063299999 0.88499999
-0.29100001 0.063299999 0.88499999
-0.29010001 0.0634 0.88700002
-0.2877 0.063600004 0.889
-0.28619999 0.063600004 0.889
-0.2843 0.063500002 0.88800001
-0.28279999 0.063500002 0.88800001
-0.28119999 0.063500002 0.88800001
-0.27970001 0.063500002 0.88800001
-0.27810001 0.063500002 0.88800001
-0.27630001 0.0634 0.88700002
-0.2744 0.0634 0.88599998
-0.2726 0.063299999 0.88499999
-0.27079999 0.063199997 0.884
-0.25729999 0.063299999 0.88499999
-0.25569999 0.063299999 0.88499999
-0.25420001 0.063299999 0.88499999
-0.25240001 0.063199997 0.884
-0.25080001 0.063199997 0.884
-0.249 0.063100003 0.88300002
-0.24690001 0.063000001 0.88099998
-0.2454 0.063000001 0.88099998
-0.24420001 0.063100003 0.88200003
-0.2432 0.063199997 0.884
-0.2419 0.063299999 0.88499999
-0.2388 0.063299999 0.88499999
-0.2379 0.0634 0.88700002
-0.23630001 0.0634 0.88700002
-0.23019999 0.0634 0.88700002
-0.2286 0.0634 0.88700002
-0.2263 0.063600004 0.88999999
-0.2219 0.063699998 0.89099997
-0.2201 0.063600004 0.88999999
-0.2186 0.063600004 0.88999999
-0.1902 0.059099998 0.82700002
-0.1886 0.059099998 0.82599998
-0.18709999 0.059099998 0.82599998
-0.1859 0.059099998 0.82700002
-0.18449999 0.059099998 0.82700002
-0.1831 0.059099998 0.82700002
-0.18189999 0.0592 0.82800001
-0.1804 0.0592 0.82800001
-0.17919999 0.059300002 0.829
-0.1778 0.059300002 0.829
-0.17649999 0.059300002 0.82999998
-0.1751 0.059300002 0.82999998
-0.1737 0.059300002 0.82999998
-0.1724 0.0594 0.83099997
-0.17120001 0.059500001 0.83200002
-0.1698 0.059500001 0.83200002
-0.1683 0.059500001 0.83200002
-0.16670001 0.0594 0.83099997
-0.16500001 0.059300002 0.82999998
-0.16339999 0.059300002 0.829
-0.1618 0.0592 0.82800001
-0.1601 0.059099998 0.82700002
-0.1585 0.059099998 0.82599998
-0.1556 0.059099998 0.82599998
-0.154 0.059 0.82499999
-0.15279999 0.059099998 0.82599998
-0.1513 0.059099998 0.82599998
-0.1497 0.059 0.82499999
-0.14830001 0.059 0.82499999
-0.14669999 0.058899999 0.824
-0.1451 0.058800001 0.82300001
-0.1437 0.058800001 0.82300001
-0.1424 0.058899999 0.824
-0.14120001 0.059 0.82499999
-0.1399 0.059099998 0.82599998
-0.13860001 0.059099998 0.82700002
-0.13609999 0.059300002 0.829
-0.1347 0.059300002 0.829
-0.1332 0.059300002 0.829
-0.1318 0.059300002 0.829
-0.13 0.059099998 0.82700002
-0.1286 0.059099998 0.82700002
-0.12720001 0.059099998 0.82700002
-0.1257 0.059099998 0.82700002
-0.1244 0.0592 0.82800001
-0.1229 0.059099998 0.82700002
-0.1214 0.059099998 0.82700002
-0.12 0.059099998 0.82700002
-0.1186 0.059099998 0.82700002
-0.1171 0.059099998 0.82700002
-0.1157 0.059099998 0.82700002
-0.1145 0.059300002 0.829
-0.1118 0.059300002 0.82999998
-0.1104 0.059300002 0.82999998
-0.1089 0.059300002 0.82999998
-0.1075 0.059300002 0.82999998
-0.106 0.059300002 0.82999998
-0.1046 0.059300002 0.82999998
-0.1032 0.059300002 0.82999998
-0.1017 0.059300002 0.82999998
-0.1004 0.0594 0.83099997
-0.098999999 0.0594 0.83099997
-0.097400002 0.059300002 0.82999998
-0.096000001 0.059300002 0.82999998
-0.094400004 0.059300002 0.829
-0.093099996 0.059300002 0.82999998
-0.091700003 0.059300002 0.82999998
-0.0902 0.059300002 0.82999998
-0.0889 0.0594 0.83099997
-0.087499999 0.0594 0.83099997
-0.086000003 0.0594 0.83099997
-0.084700003 0.059500001 0.83200002
-0.0832 0.059500001 0.83200002
-0.081799999 0.059500001 0.83200002
-0.0788 0.0594 0.83099997
-0.077299997 0.059300002 0.82999998
-0.075800002 0.059300002 0.82999998
-0.0744 0.059300002 0.82999998
-0.072999999 0.059300002 0.82999998
-0.071500003 0.059300002 0.82999998
-0.070200004 0.0594 0.83099997
-0.068700001 0.0594 0.83099997
-0.067500003 0.059599999 0.833
-0.066 0.059599999 0.833
-0.064599998 0.059599999 0.83399999
-0.063199997 0.059599999 0.83399999
-0.061799999 0.059700001 0.83499998
-0.060400002 0.059700001 0.83499998
-0.058899999 0.059700001 0.83499998
-0.057599999 0.059799999 0.83600003
-0.056000002 0.059700001 0.83499998
-0.0546 0.059700001 0.83499998
-0.053199999 0.059799999 0.83600003
-0.0517 0.059700001 0.83499998
-0.0502 0.059700001 0.83499998
-0.048799999 0.059700001 0.83499998
-0.0473 0.059599999 0.83399999
-0.045899998 0.059599999 0.83399999
-0.044399999 0.059599999 0.83399999
-0.043000001 0.059599999 0.83399999
-0.0416 0.059700001 0.83499998
-0.040100001 0.059599999 0.83399999
-0.038600001 0.059599999 0.83399999
-0.0372 0.059700001 0.83499998
-0.035799999 0.059799999 0.83600003
-0.034499999 0.059900001 0.838
-0.033 0.059900001 0.838
-0.031599998 0.059999999 0.83899999
-0.030200001 0.0601 0.84100002
-0.0288 0.0603 0.84399998
-0.026000001 0.064199999 0.898
-0.024499999 0.064400002 0.89999998
-0.023 0.064400002 0.90100002
-0.021400001 0.064400002 0.89999998
-0.0198 0.064400002 0.89999998
-0.018300001 0.064400002 0.89999998
-0.0167 0.064300001 0.89899999
-0.0151 0.064199999 0.898
-0.0135 0.064099997 0.89600003
-0.012 0.064099997 0.89600003
-0.0104 0.064099997 0.89600003
-0.0088999998 0.064099997 0.89600003
-0.0073000002 0.064099997 0.89600003
-0.0041999999 0.064199999 0.898
-0.0027000001 0.064099997 0.89700001
-0.0011 0.064000003 0.89499998
0.0020000001 0.063699998 0.89099997
0.0035000001 0.063699998 0.89099997
0.0051000002 0.063699998 0.89099997
0.0066 0.063600004 0.88999999
0.0081000002 0.063600004 0.88999999
0.0097000003 0.063600004 0.88999999
0.0112 0.063600004 0.88999999
0.0128 0.063600004 0.88999999
0.0143 0.063699998 0.89099997
0.015900001 0.063900001 0.89300001
0.0175 0.064000003 0.89499998
0.019099999 0.064199999 0.898
0.0207 0.064400002 0.89999998
0.022299999 0.064499997 0.90200001
0.0239 0.064499997 0.90200001
0.0254 0.064400002 0.90100002
0.026900001 0.064400002 0.89999998
0.0285 0.064300001 0.89899999
0.029999999 0.064199999 0.898
0.031500001 0.064099997 0.89600003
0.040800001 0.064000003 0.89499998
0.042300001 0.064000003 0.89499998
0.043900002 0.064099997 0.89600003
0.045499999 0.064099997 0.89600003
0.0471 0.064199999 0.898
0.048799999 0.064400002 0.89999998
0.050500002 0.064599998 0.903
0.052200001 0.0647 0.90499997
0.0539 0.064900003 0.90799999
0.055500001 0.064900003 0.90799999
0.057 0.064800002 0.90600002
0.058400001 0.064599998 0.90399998
0.063699998 0.063699998 0.89099997
0.065200001 0.063600004 0.88999999
0.066600002 0.063500002 0.88800001
0.068099998 0.0634 0.88700002
0.069799997 0.063600004 0.889
0.071400002 0.063600004 0.88999999
0.072999999 0.063699998 0.89099997
0.0748 0.063900001 0.89399999
0.076399997 0.064000003 0.89499998
0.078100003 0.064099997 0.89600003
0.079899997 0.064300001 0.89899999
0.081500001 0.064300001 0.89899999
0.0832 0.064400002 0.90100002
0.084899999 0.064499997 0.90200001
0.086499996 0.064599998 0.903
0.088299997 0.0647 0.90499997
0.0898 0.0647 0.90499997
0.091399997 0.0647 0.90499997
0.093000002 0.0647 0.90499997
0.095799997 0.064499997 0.90200001
0.097199999 0.064400002 0.90100002
0.0986 0.064300001 0.89899999
0.1 0.064199999 0.898
0.1016 0.064199999 0.898
0.1032 0.064199999 0.898
0.1046 0.064099997 0.89700001
0.1061 0.064099997 0.89700001
0.1078 0.064199999 0.898
0.1094 0.064199999 0.898
0.1111 0.064300001 0.89899999
0.1127 0.064400002 0.89999998
0.1143 0.064400002 0.89999998
0.116 0.064400002 0.90100002
0.1177 0.064499997 0.90200001
0.1194 0.064599998 0.903
0.1209 0.064599998 0.903
0.1225 0.064599998 0.903
0.1241 0.064599998 0.903
0.12549999 0.064499997 0.90200001
0.1278 0.064099997 0.89600003
0.13349999 0.063900001 0.89300001
0.13689999 0.064000003 0.89499998
0.13959999 0.0638 0.89200002
0.1408 0.063600004 0.88999999
0.14229999 0.063600004 0.88999999
0.1437 0.063600004 0.889
0.1453 0.063600004 0.889
0.147 0.063600004 0.88999999
0.1488 0.0638 0.89200002
0.1507 0.063900001 0.89399999
0.1524 0.064000003 0.89499998
0.1542 0.064099997 0.89600003
0.1559 0.064099997 0.89700001
0.1574 0.064099997 0.89700001
0.15880001 0.064099997 0.89600003
0.1602 0.064000003 0.89499998
0.1617 0.064000003 0.89499998
0.1637 0.064099997 0.89700001
0.1656 0.064300001 0.89899999
0.16769999 0.064499997 0.90200001
0.1696 0.064599998 0.90399998
0.1714 0.0647 0.90499997
0.1733 0.064900003 0.90700001
0.1749 0.064900003 0.90700001
0.17649999 0.064900003 0.90700001
0.1779 0.064800002 0.90600002
0.17919999 0.0647 0.90499997
0.1806 0.064599998 0.90399998
0.182 0.064599998 0.903
0.1833 0.064499997 0.90200001
0.1847 0.064400002 0.90100002
0.1858 0.064300001 0.89899999
0.1866 0.064000003 0.89499998
0.1877 0.063900001 0.89300001
-0.35690001 0.064499997 0.88099998
-0.34279999 0.0647 0.884
-0.3335 0.064999998 0.88800001
-0.3116 0.064999998 0.88700002
-0.3098 0.064900003 0.88599998
-0.30809999 0.065200001 0.88999999
-0.30649999 0.065200001 0.88999999
-0.30340001 0.065200001 0.88999999
-0.29750001 0.064900003 0.88599998
-0.2956 0.064800002 0.88499999
-0.29409999 0.064800002 0.88499999
-0.29249999 0.064800002 0.88499999
-0.2913 0.064900003 0.88599998
-0.28979999 0.064900003 0.88599998
-0.2886 0.064999998 0.88700002
-0.2877 0.065099999 0.889
-0.28459999 0.065099999 0.889
-0.2834 0.065200001 0.88999999
-0.28150001 0.065099999 0.889
-0.28029999 0.065200001 0.88999999
-0.27880001 0.065200001 0.88999999
-0.27689999 0.065099999 0.889
-0.27469999 0.064999998 0.88700002
-0.2726 0.064800002 0.88499999
-0.257 0.0647 0.884
-0.25569999 0.064800002 0.88499999
-0.25240001 0.0647 0.884
-0.25080001 0.0647 0.884
-0.2493 0.0647 0.884
-0.24779999 0.0647 0.884
-0.2462 0.0647 0.884
-0.2447 0.0647 0.884
-0.24349999 0.064800002 0.88499999
-0.24250001 0.064999998 0.88700002
-0.2412 0.064999998 0.88800001
-0.23989999 0.065099999 0.889
-0.2387 0.065200001 0.88999999
-0.2368 0.065099999 0.889
-0.235 0.064999998 0.88800001
-0.2335 0.064999998 0.88800001
-0.2304 0.064999998 0.88800001
-0.2219 0.065300003 0.89099997
-0.2201 0.065200001 0.88999999
-0.1902 0.060600001 0.82700002
-0.18880001 0.060600001 0.82700002
-0.1876 0.060600001 0.82800001
-0.1864 0.060699999 0.829
-0.1849 0.060699999 0.829
-0.18350001 0.060699999 0.829
-0.1823 0.060800001 0.82999998
-0.18089999 0.060800001 0.82999998
-0.1794 0.060800001 0.82999998
-0.178 0.060800001 0.82999998
-0.17649999 0.060800001 0.82999998
-0.1751 0.060800001 0.82999998
-0.17389999 0.060899999 0.83099997
-0.1726 0.060899999 0.83200002
-0.17120001 0.060899999 0.83200002
-0.1698 0.060899999 0.83200002
-0.1681 0.060899999 0.83099997
-0.16670001 0.060899999 0.83099997
-0.1648 0.060699999 0.829
-0.16320001 0.060600001 0.82800001
-0.16159999 0.060600001 0.82700002
-0.1601 0.060600001 0.82700002
-0.1585 0.0605 0.82599998
-0.15710001 0.0605 0.82599998
-0.1556 0.0605 0.82599998
-0.1542 0.0605 0.82599998
-0.15279999 0.0605 0.82599998
-0.1512 0.060400002 0.82499999
-0.1497 0.060400002 0.82499999
-0.1481 0.0603 0.824
-0.14669999 0.0603 0.824
-0.1453 0.0603 0.824
-0.14399999 0.060400002 0.82499999
-0.1428 0.0605 0.82599998
-0.14129999 0.0605 0.82599998
-0.1402 0.060600001 0.82800001
-0.1388 0.060600001 0.82800001
-0.1345 0.060600001 0.82800001
-0.1329 0.060600001 0.82700002
-0.1313 0.0605 0.82599998
-0.12970001 0.060400002 0.82499999
-0.1283 0.060400002 0.82499999
-0.127 0.0605 0.82599998
-0.1256 0.0605 0.82599998
-0.1243 0.060600001 0.82700002
-0.1227 0.0605 0.82599998
-0.1213 0.0605 0.82599998
-0.1199 0.0605 0.82599998
-0.1184 0.0605 0.82599998
-0.1171 0.060600001 0.82700002
-0.1158 0.060600001 0.82800001
-0.1145 0.060699999 0.829
-0.1132 0.060800001 0.82999998
-0.1118 0.060800001 0.82999998
-0.1104 0.060800001 0.82999998
-0.1089 0.060800001 0.82999998
-0.1075 0.060800001 0.82999998
-0.106 0.060800001 0.82999998
-0.1046 0.060800001 0.82999998
-0.1032 0.060800001 0.82999998
-0.1017 0.060800001 0.82999998
-0.1004 0.060899999 0.83099997
-0.098999999 0.060899999 0.83099997
-0.097400002 0.060800001 0.82999998
-0.096000001 0.060800001 0.82999998
-0.094499998 0.060800001 0.82999998
-0.093099996 0.060800001 0.82999998
-0.091700003 0.060800001 0.82999998
-0.0902 0.060800001 0.82999998
-0.088799998 0.060800001 0.82999998
-0.087499999 0.060899999 0.83099997
-0.086000003 0.060899999 0.83099997
-0.084600002 0.060899999 0.83099997
-0.073100001 0.060899999 0.83099997
-0.071599998 0.060899999 0.83099997
-0.070200004 0.060899999 0.83099997
-0.068800002 0.060899999 0.83200002
-0.067500003 0.061099999 0.83399999
-0.066100001 0.061099999 0.83399999
-0.0647 0.0612 0.83499998
-0.063299999 0.0612 0.83499998
-0.061900001 0.0612 0.83600003
-0.060400002 0.0612 0.83499998
-0.058899999 0.061099999 0.83399999
-0.057500001 0.0612 0.83499998
-0.056000002 0.061099999 0.83399999
-0.0546 0.0612 0.83499998
-0.053100001 0.0612 0.83499998
-0.0517 0.0612 0.83499998
-0.0502 0.0612 0.83499998
-0.048799999 0.0612 0.83499998
-0.0473 0.061099999 0.83399999
-0.045899998 0.061099999 0.83399999
-0.044399999 0.061000001 0.833
-0.043000001 0.061099999 0.83399999
-0.041499998 0.061099999 0.83399999
-0.040100001 0.061099999 0.83399999
-0.038600001 0.061099999 0.83399999
-0.0372 0.061099999 0.83399999
-0.035799999 0.0612 0.83499998
-0.034400001 0.061299998 0.83700001
-0.033 0.0614 0.838
-0.031599998 0.0614 0.83899999
-0.030200001 0.061700001 0.84200001
-0.0288 0.061799999 0.84399998
-0.026000001 0.065700002 0.89700001
-0.024499999 0.065899998 0.89999998
-0.023 0.065899998 0.89999998
-0.021400001 0.065899998 0.89999998
-0.0198 0.065899998 0.89999998
-0.018300001 0.065899998 0.89999998
-0.0167 0.065899998 0.89999998
-0.0151 0.065800004 0.898
-0.0136 0.065800004 0.898
-0.012 0.065700002 0.89700001
-0.0104 0.0656 0.89600003
-0.0088999998 0.065700002 0.89700001
-0.0073000002 0.065700002 0.89700001
-0.0057999999 0.065800004 0.898
-0.0041999999 0.065899998 0.89999998
-0.0027000001 0.065899998 0.89999998
0.0020000001 0.065499999 0.89499998
0.0035000001 0.065499999 0.89399999
0.0051000002 0.065300003 0.89200002
0.0066 0.065300003 0.89099997
0.0082 0.065300003 0.89200002
0.0097000003 0.065300003 0.89099997
0.0112 0.065300003 0.89099997
0.0128 0.065300003 0.89099997
0.0143 0.065300003 0.89099997
0.015900001 0.065300003 0.89099997
0.0174 0.065300003 0.89200002
0.018999999 0.065399997 0.89300001
0.0206 0.065499999 0.89499998
0.0222 0.065800004 0.898
0.023800001 0.065899998 0.89999998
0.0254 0.065899998 0.89999998
0.026900001 0.065800004 0.89899999
0.0284 0.065800004 0.898
0.029999999 0.065800004 0.898
0.031500001 0.0656 0.89600003
0.033 0.0656 0.89600003
0.034600001 0.065499999 0.89499998
0.040800001 0.065499999 0.89499998
0.042300001 0.065499999 0.89399999
0.046999998 0.065499999 0.89499998
0.048700001 0.065800004 0.898
0.050500002 0.066100001 0.903
0.0524 0.066500001 0.90799999
0.054099999 0.066600002 0.91000003
0.055599999 0.066600002 0.91000003
0.057100002 0.066500001 0.90799999
0.062399998 0.065499999 0.89399999
0.063900001 0.065399997 0.89300001
0.065399997 0.065300003 0.89200002
0.066799998 0.065200001 0.88999999
0.0682 0.065099999 0.889
0.069899999 0.065300003 0.89099997
0.071500003 0.065300003 0.89200002
0.073200002 0.065399997 0.89300001
0.0766 0.065700002 0.89700001
0.078199998 0.065800004 0.898
0.079999998 0.065899998 0.89999998
0.081500001 0.065899998 0.89999998
0.0832 0.066 0.90100002
0.084899999 0.066100001 0.903
0.086499996 0.066100001 0.903
0.088299997 0.066299997 0.90499997
0.089900002 0.066399999 0.90600002
0.091399997 0.066299997 0.90499997
0.093000002 0.066299997 0.90499997
0.094400004 0.066200003 0.90399998
0.095899999 0.066100001 0.903
0.097199999 0.066 0.90100002
0.098700002 0.065899998 0.89999998
0.1001 0.065800004 0.89899999
0.1016 0.065800004 0.898
0.1032 0.065800004 0.898
0.1046 0.065700002 0.89700001
0.1063 0.065800004 0.898
0.1079 0.065800004 0.89899999
0.1096 0.065899998 0.89999998
0.1112 0.065899998 0.89999998
0.1127 0.065899998 0.89999998
0.1143 0.065899998 0.89999998
0.116 0.066 0.90100002
0.1177 0.066100001 0.90200001
0.1194 0.066100001 0.903
0.1209 0.066100001 0.903
0.1225 0.066100001 0.903
0.1242 0.066200003 0.90399998
0.1256 0.066100001 0.903
0.1268 0.065899998 0.89999998
0.1279 0.065700002 0.89700001
0.1292 0.065499999 0.89499998
0.1304 0.065399997 0.89300001
0.132 0.065399997 0.89300001
0.13519999 0.065499999 0.89399999
0.13940001 0.065300003 0.89099997
0.142 0.064999998 0.88800001
0.1434 0.064999998 0.88700002
0.1451 0.064999998 0.88800001
0.1468 0.065099999 0.889
0.1487 0.065300003 0.89099997
0.15090001 0.065499999 0.89499998
0.15260001 0.0656 0.89600003
0.15449999 0.065800004 0.898
0.1561 0.065800004 0.898
0.1576 0.065800004 0.898
0.1592 0.065800004 0.898
0.16060001 0.065700002 0.89700001
0.1621 0.065700002 0.89700001
0.164 0.065800004 0.89899999
0.16580001 0.065899998 0.89999998
0.1679 0.066100001 0.903
0.1698 0.066299997 0.90499997
0.1716 0.066399999 0.90600002
0.1733 0.066399999 0.90700001
0.1751 0.066500001 0.90799999
0.17649999 0.066399999 0.90700001
0.1781 0.066399999 0.90700001
0.17919999 0.066299997 0.90499997
0.1806 0.066200003 0.90399998
0.182 0.066100001 0.903
0.18350001 0.066100001 0.903
0.1847 0.066 0.90100002
0.1858 0.065800004 0.89899999
0.18719999 0.065800004 0.898
0.18870001 0.065800004 0.898
-0.4215 0.066100001 0.88200003
-0.34310001 0.066299997 0.88499999
-0.322 0.066699997 0.88999999
-0.31729999 0.066699997 0.88999999
-0.3161 0.066799998 0.89099997
-0.3105 0.066600002 0.88800001
-0.30770001 0.066600002 0.889
-0.3062 0.066600002 0.889
-0.30309999 0.066600002 0.889
-0.3012 0.066600002 0.88800001
-0.29929999 0.066500001 0.88700002
-0.29750001 0.066399999 0.88599998
-0.2956 0.066299997 0.88499999
-0.29409999 0.066299997 0.88499999
-0.29249999 0.066299997 0.88499999
-0.2913 0.066399999 0.88599998
-0.29010001 0.066500001 0.88700002
-0.28889999 0.066600002 0.88800001
-0.28529999 0.066799998 0.89099997
-0.28369999 0.066799998 0.89099997
-0.28060001 0.066799998 0.89099997
-0.27880001 0.066699997 0.88999999
-0.2766 0.066600002 0.88800001
-0.27410001 0.066299997 0.88499999
-0.25569999 0.066299997 0.88499999
-0.25240001 0.066299997 0.884
-0.25080001 0.066299997 0.884
-0.2493 0.066299997 0.884
-0.2475 0.066200003 0.88300002
-0.2432 0.066299997 0.884
-0.2402 0.066699997 0.88999999
-0.23890001 0.066799998 0.89099997
-0.2374 0.066799998 0.89099997
-0.23559999 0.066699997 0.88999999
-0.23379999 0.066600002 0.889
-0.23199999 0.066600002 0.88800001
-0.2304 0.066600002 0.88800001
-0.2291 0.066600002 0.889
-0.2235 0.066799998 0.89099997
-0.2219 0.066799998 0.89099997
-0.2199 0.066600002 0.889
-0.19670001 0.062199999 0.82999998
-0.1952 0.062199999 0.82999998
-0.19050001 0.062100001 0.82800001
-0.189 0.062100001 0.82800001
-0.18799999 0.062199999 0.82999998
-0.1866 0.062199999 0.82999998
-0.18539999 0.0623 0.83099997
-0.1839 0.0623 0.83099997
-0.1825 0.0623 0.83099997
-0.1811 0.0623 0.83099997
-0.1796 0.0623 0.83099997
-0.178 0.062199999 0.82999998
-0.1767 0.0623 0.83099997
-0.1753 0.0623 0.83099997
-0.17389999 0.0623 0.83099997
-0.1726 0.062399998 0.83200002
-0.17120001 0.062399998 0.83200002
-0.1698 0.062399998 0.83200002
-0.1681 0.0623 0.83099997
-0.1665 0.062199999 0.82999998
-0.1648 0.062199999 0.829
-0.163 0.061999999 0.82700002
-0.16140001 0.061900001 0.82599998
-0.15989999 0.061900001 0.82599998
-0.1583 0.061900001 0.82499999
-0.1569 0.061900001 0.82499999
-0.15549999 0.061900001 0.82499999
-0.154 0.061900001 0.82499999
-0.15260001 0.061900001 0.82499999
-0.1513 0.061900001 0.82599998
-0.1497 0.061900001 0.82499999
-0.14830001 0.061900001 0.82499999
-0.1471 0.061900001 0.82599998
-0.14579999 0.061999999 0.82700002
-0.1445 0.062100001 0.82800001
-0.1433 0.062199999 0.829
-0.1418 0.062199999 0.829
-0.14040001 0.062199999 0.829
-0.139 0.062199999 0.829
-0.1323 0.061700001 0.82300001
-0.13070001 0.0616 0.82200003
-0.1292 0.0616 0.82200003
-0.1278 0.0616 0.82200003
-0.1267 0.061799999 0.824
-0.1256 0.061900001 0.82599998
-0.1241 0.061900001 0.82599998
-0.1227 0.061900001 0.82599998
-0.1213 0.061900001 0.82599998
-0.1199 0.061900001 0.82599998
-0.1184 0.061900001 0.82599998
-0.1171 0.061999999 0.82700002
-0.1157 0.061999999 0.82700002
-0.1145 0.062199999 0.829
-0.1132 0.062199999 0.82999998
-0.1118 0.062199999 0.82999998
-0.1104 0.062199999 0.82999998
-0.1089 0.062199999 0.82999998
-0.1075 0.062199999 0.82999998
-0.106 0.062199999 0.82999998
-0.1046 0.062199999 0.82999998
-0.1032 0.062199999 0.82999998
-0.1017 0.062199999 0.82999998
-0.1003 0.062199999 0.82999998
-0.098999999 0.0623 0.83099997
-0.097400002 0.062199999 0.82999998
-0.096000001 0.062199999 0.82999998
-0.094499998 0.062199999 0.82999998
-0.093099996 0.062199999 0.82999998
-0.091700003 0.062199999 0.82999998
-0.0902 0.062199999 0.82999998
-0.088799998 0.062199999 0.82999998
-0.084600002 0.0623 0.83099997
-0.073100001 0.0623 0.83099997
-0.071599998 0.0623 0.83099997
-0.070200004 0.0623 0.83099997
-0.068800002 0.062399998 0.83200002
-0.067500003 0.0625 0.83399999
-0.066100001 0.0625 0.83399999
-0.064599998 0.0625 0.83399999
-0.063299999 0.062600002 0.83499998
-0.061799999 0.062600002 0.83499998
-0.0603 0.0625 0.83399999
-0.058899999 0.0625 0.83399999
-0.057399999 0.0625 0.83399999
-0.056000002 0.0625 0.83399999
-0.054499999 0.0625 0.83399999
-0.053100001 0.062600002 0.83499998
-0.0517 0.062600002 0.83499998
-0.0502 0.0625 0.83399999
-0.048700001 0.0625 0.83399999
-0.047200002 0.0625 0.833
-0.045899998 0.0625 0.83399999
-0.044399999 0.0625 0.833
-0.0429 0.0625 0.833
-0.041499998 0.0625 0.83399999
-0.040100001 0.0625 0.83399999
-0.038600001 0.0625 0.83399999
-0.0372 0.0625 0.83399999
-0.035799999 0.062600002 0.83499998
-0.034400001 0.062799998 0.83700001
-0.033 0.062799998 0.838
-0.031599998 0.063000001 0.83999997
-0.030300001 0.063199997 0.84299999
-0.028899999 0.0634 0.84500003
-0.026000001 0.067299999 0.898
-0.024499999 0.067500003 0.89999998
-0.023 0.067500003 0.89999998
-0.021400001 0.067500003 0.89999998
-0.0198 0.067500003 0.89999998
-0.018300001 0.067500003 0.89999998
-0.0167 0.067500003 0.89999998
-0.0151 0.067400001 0.89899999
-0.0136 0.067400001 0.89899999
-0.012 0.067400001 0.89899999
-0.0105 0.067500003 0.89999998
-0.0088999998 0.067500003 0.90100002
-0.0074 0.067500003 0.89999998
-0.0057999999 0.067500003 0.89999998
-0.0041999999 0.067500003 0.89999998
-0.0027000001 0.067500003 0.90100002
-0.0011 0.067500003 0.89999998
0.00039999999 0.067400001 0.89899999
0.0020000001 0.067199998 0.89600003
0.0035000001 0.067199998 0.89600003
0.0051000002 0.067100003 0.89499998
0.0066 0.067000002 0.89399999
0.0082 0.0669 0.89300001
0.0097000003 0.0669 0.89300001
0.0112 0.066799998 0.89099997
0.0128 0.066799998 0.89099997
0.0143 0.066799998 0.89099997
0.015900001 0.066799998 0.89099997
0.0174 0.0669 0.89200002
0.018999999 0.0669 0.89300001
0.0206 0.067000002 0.89399999
0.0222 0.067199998 0.89600003
0.023800001 0.067400001 0.89899999
0.0254 0.067400001 0.89899999
0.026900001 0.067299999 0.898
0.0284 0.067299999 0.898
0.029999999 0.067299999 0.898
0.031500001 0.067199998 0.89700001
0.033100002 0.067199998 0.89700001
0.034699999 0.067299999 0.898
0.040800001 0.067199998 0.89600003
0.042300001 0.067100003 0.89499998
0.048599999 0.067199998 0.89700001
0.050500002 0.067699999 0.903
0.0524 0.068099998 0.90799999
0.054099999 0.068300001 0.91100001
0.055599999 0.0682 0.91000003
0.057100002 0.068099998 0.90799999
0.058499999 0.067900002 0.90600002
0.059900001 0.067699999 0.903
0.061299998 0.067500003 0.89999998
0.062600002 0.067199998 0.89700001
0.064000003 0.067100003 0.89499998
0.065499999 0.067000002 0.89399999
0.0669 0.0669 0.89200002
0.068400003 0.066799998 0.89099997
0.070100002 0.0669 0.89300001
0.071699999 0.067000002 0.89399999
0.073399998 0.067199998 0.89600003
0.075199999 0.067400001 0.89899999
0.078400001 0.067500003 0.89999998
0.081600003 0.067500003 0.90100002
0.083300002 0.067599997 0.90200001
0.084899999 0.067699999 0.903
0.086499996 0.067699999 0.903
0.088100001 0.067699999 0.903
0.089699998 0.0678 0.90399998
0.091200002 0.067699999 0.903
0.092799999 0.067699999 0.903
0.0942 0.067599997 0.90200001
0.095700003 0.067500003 0.90100002
0.097099997 0.067500003 0.89999998
0.098700002 0.067500003 0.89999998
0.1001 0.067400001 0.89899999
0.1017 0.067400001 0.89899999
0.1033 0.067400001 0.89899999
0.1047 0.067299999 0.898
0.1064 0.067400001 0.89899999
0.1079 0.067400001 0.89899999
0.1096 0.067500003 0.89999998
0.1112 0.067500003 0.89999998
0.1127 0.067500003 0.89999998
0.1143 0.067500003 0.89999998
0.1159 0.067500003 0.89999998
0.1175 0.067500003 0.90100002
0.1192 0.067599997 0.90200001
0.1208 0.067599997 0.90200001
0.1224 0.067599997 0.90200001
0.1241 0.067699999 0.903
0.1256 0.067699999 0.903
0.1269 0.067500003 0.90100002
0.1292 0.067100003 0.89499998
0.1338 0.067100003 0.89499998
0.1354 0.067100003 0.89499998
0.13689999 0.067100003 0.89499998
0.1382 0.0669 0.89300001
0.13940001 0.066799998 0.89099997
0.1408 0.066699997 0.88999999
0.142 0.066600002 0.88800001
0.1434 0.066500001 0.88700002
0.147 0.066699997 0.88999999
0.149 0.0669 0.89300001
0.1514 0.067299999 0.898
0.1533 0.067500003 0.89999998
0.155 0.067500003 0.90100002
0.1566 0.067500003 0.90100002
0.15809999 0.067500003 0.90100002
0.15970001 0.067500003 0.90100002
0.1611 0.067500003 0.89999998
0.1627 0.067500003 0.89999998
0.16419999 0.067500003 0.89999998
0.16599999 0.067500003 0.90100002
0.1681 0.0678 0.90399998
0.1698 0.0678 0.90499997
0.1716 0.067900002 0.90600002
0.1735 0.068099998 0.90799999
0.1751 0.068099998 0.90799999
0.17649999 0.068000004 0.90700001
0.1781 0.068000004 0.90700001
0.17919999 0.0678 0.90499997
0.18080001 0.0678 0.90499997
0.1822 0.0678 0.90399998
0.18350001 0.067699999 0.903
0.1851 0.067699999 0.903
0.1865 0.067599997 0.90200001
0.1882 0.067699999 0.903
0.18979999 0.067699999 0.903
-0.4199 0.067699999 0.88200003
-0.34310001 0.067900002 0.88499999
-0.3362 0.068000004 0.88700002
-0.32120001 0.068099998 0.88800001
-0.31810001 0.068099998 0.88800001
-0.31659999 0.068099998 0.88800001
-0.31009999 0.068000004 0.88700002
-0.3089 0.068099998 0.88800001
-0.30739999 0.068099998 0.88800001
-0.30579999 0.068099998 0.88800001
-0.30430001 0.068099998 0.88800001
-0.3028 0.068099998 0.88800001
-0.30090001 0.068000004 0.88700002
-0.29929999 0.068000004 0.88700002
-0.29750001 0.068000004 0.88599998
-0.29589999 0.068000004 0.88599998
-0.29409999 0.067900002 0.88499999
-0.29249999 0.067900002 0.88499999
-0.29010001 0.068000004 0.88700002
-0.28889999 0.068099998 0.88800001
-0.28799999 0.068300001 0.88999999
-0.2868 0.068300001 0.89099997
-0.2843 0.068499997 0.89300001
-0.2809 0.068400003 0.89200002
-0.2791 0.068300001 0.89099997
-0.27720001 0.068300001 0.88999999
-0.25240001 0.0678 0.884
-0.25080001 0.0678 0.884
-0.2493 0.0678 0.884
-0.24600001 0.067699999 0.88300002
-0.2447 0.0678 0.884
-0.242 0.068300001 0.89099997
-0.2413 0.068599999 0.89399999
-0.2403 0.068700001 0.89600003
-0.2384 0.068599999 0.89499998
-0.23639999 0.068499997 0.89300001
-0.2343 0.068300001 0.89099997
-0.23270001 0.068300001 0.89099997
-0.2309 0.068300001 0.88999999
-0.2235 0.068300001 0.89099997
-0.2217 0.068300001 0.88999999
-0.1971 0.0638 0.83200002
-0.1955 0.063699998 0.83099997
-0.1938 0.063699998 0.82999998
-0.1921 0.063600004 0.829
-0.1902 0.0634 0.82700002
-0.189 0.063500002 0.82800001
-0.1883 0.063699998 0.83099997
-0.1868 0.063699998 0.83099997
-0.18539999 0.063699998 0.83099997
-0.1842 0.0638 0.83200002
-0.1825 0.063699998 0.83099997
-0.1811 0.063699998 0.83099997
-0.1796 0.063699998 0.83099997
-0.178 0.063699998 0.82999998
-0.17649999 0.063699998 0.82999998
-0.1751 0.063699998 0.82999998
-0.17389999 0.063699998 0.83099997
-0.1724 0.063699998 0.83099997
-0.17120001 0.0638 0.83200002
-0.1698 0.0638 0.83200002
-0.1681 0.063699998 0.83099997
-0.1665 0.063699998 0.82999998
-0.1646 0.063500002 0.82800001
-0.163 0.0634 0.82700002
-0.16140001 0.0634 0.82599998
-0.15970001 0.063299999 0.82499999
-0.1583 0.063299999 0.82499999
-0.1569 0.063299999 0.82499999
-0.15549999 0.063299999 0.82499999
-0.1538 0.063199997 0.824
-0.15260001 0.063299999 0.82499999
-0.1513 0.0634 0.82599998
-0.1499 0.0634 0.82599998
-0.1485 0.0634 0.82599998
-0.1472 0.0634 0.82700002
-0.14579999 0.0634 0.82700002
