ply
format ascii 1.0
comment PCL generated
element vertex 1450
property float x
property float y
property float z
element camera 0
property float view_px
property float view_py
property float view_pz
property float x_axisx
property float x_axisy
property float x_axisz
property float y_axisx
property float y_axisy
property float y_axisz
property float z_axisx
property float z_axisy
property float z_axisz
property float focal
property float scalex
property float scaley
property float centerx
property float centery
property int viewportx
property int viewporty
property float k1
property float k2
end_header
-0.1087 -0.085699998 0.88700002
-0.1071 -0.085600004 0.88599998
-0.1054 -0.085500002 0.88499999
-0.1039 -0.085500002 0.88499999
-0.1023 -0.085500002 0.88499999
-0.1008 -0.085500002 0.88499999
-0.099299997 -0.085500002 0.88499999
-0.0977 -0.085500002 0.88499999
-0.096299998 -0.085600004 0.88599998
-0.094899997 -0.085699998 0.88700002
-0.093500003 -0.0858 0.88800001
-0.091899998 -0.0858 0.88800001
-0.090400003 -0.0858 0.88800001
-0.088799998 -0.0858 0.88800001
-0.087300003 -0.0858 0.88800001
-0.085699998 -0.085699998 0.88700002
-0.083800003 -0.0854 0.884
-0.082199998 -0.085299999 0.88300002
-0.080600001 -0.085199997 0.88200003
-0.0792 -0.085299999 0.88300002
-0.077699997 -0.0854 0.884
-0.076300003 -0.085500002 0.88499999
-0.074900001 -0.085699998 0.88700002
-0.073399998 -0.085699998 0.88700002
-0.071800001 -0.085699998 0.88700002
-0.070299998 -0.085699998 0.88700002
-0.068700001 -0.085600004 0.88599998
-0.067100003 -0.085600004 0.88599998
-0.065499999 -0.085500002 0.88499999
-0.063900001 -0.0854 0.884
-0.062399998 -0.0854 0.884
-0.060899999 -0.085500002 0.88499999
-0.0594 -0.085500002 0.88499999
-0.0579 -0.085500002 0.88499999
-0.056299999 -0.085500002 0.88499999
-0.0548 -0.085500002 0.88499999
-0.053300001 -0.085500002 0.88499999
-0.048799999 -0.085699998 0.88700002
-0.047200002 -0.085699998 0.88700002
-0.045699999 -0.0858 0.88800001
-0.044300001 -0.085900001 0.889
-0.042800002 -0.086099997 0.89099997
-0.039700001 -0.086099997 0.89099997
-0.038199998 -0.086099997 0.89099997
-0.036600001 -0.086099997 0.89099997
-0.035100002 -0.086099997 0.89099997
-0.033500001 -0.086000003 0.88999999
-0.032000002 -0.086000003 0.88999999
-0.030400001 -0.085900001 0.889
-0.028899999 -0.086000003 0.88999999
-0.0273 -0.085900001 0.889
-0.012 -0.086400002 0.89399999
-0.0104 -0.086300001 0.89300001
-0.0088 -0.086199999 0.89200002
-0.0073000002 -0.086199999 0.89200002
-0.0057999999 -0.086300001 0.89300001
-0.0041999999 -0.086300001 0.89300001
-0.0027000001 -0.086300001 0.89300001
-0.0011 -0.086300001 0.89300001
0.00039999999 -0.086400002 0.89399999
0.0020000001 -0.086400002 0.89399999
0.0035000001 -0.086400002 0.89399999
0.020500001 -0.086199999 0.89200002
0.1019 -0.086999997 0.90100002
0.1036 -0.087099999 0.90200001
0.1051 -0.086999997 0.90100002
0.1066 -0.086999997 0.90100002
0.1081 -0.086900003 0.89999998
-0.3633 -0.083300002 0.87800002
-0.3576 -0.083400004 0.87900001
-0.35229999 -0.0836 0.88099998
-0.34240001 -0.083800003 0.88300002
-0.34079999 -0.083800003 0.88300002
-0.3389 -0.083700001 0.88200003
-0.33739999 -0.083700001 0.88200003
-0.3355 -0.0836 0.88099998
-0.33360001 -0.083499998 0.88
-0.33059999 -0.083099999 0.87599999
-0.32789999 -0.082800001 0.87300003
-0.3256 -0.082599998 0.87099999
-0.3238 -0.082500003 0.87
-0.32260001 -0.082599998 0.87099999
-0.315 -0.082999997 0.875
-0.3116 -0.082900003 0.87400001
-0.30939999 -0.082699999 0.87199998
-0.30790001 -0.082699999 0.87199998
-0.30669999 -0.082800001 0.87300003
-0.30520001 -0.082800001 0.87300003
-0.30090001 -0.083300002 0.87800002
-0.29769999 -0.083700001 0.88200003
-0.29609999 -0.083700001 0.88200003
-0.2949 -0.083800003 0.88300002
-0.2931 -0.083700001 0.88200003
-0.2922 -0.083899997 0.884
-0.27410001 -0.083499998 0.88
-0.27200001 -0.083300002 0.87800002
-0.26980001 -0.083099999 0.87599999
-0.26679999 -0.083099999 0.87599999
-0.26530001 -0.083099999 0.87599999
-0.264 -0.0832 0.87699997
-0.2631 -0.083400004 0.87900001
-0.26159999 -0.083400004 0.87900001
-0.2604 -0.083499998 0.88
-0.25889999 -0.083499998 0.88
-0.25729999 -0.083499998 0.88
-0.25549999 -0.083400004 0.87900001
-0.2525 -0.083400004 0.87900001
-0.25119999 -0.083499998 0.88
-0.24969999 -0.083499998 0.88
-0.2385 -0.083300002 0.87800002
-0.23720001 -0.083400004 0.87900001
-0.23029999 -0.083099999 0.87599999
-0.2288 -0.083099999 0.87599999
-0.22660001 -0.083400004 0.87900001
-0.22400001 -0.0836 0.88099998
-0.2228 -0.083700001 0.88200003
-0.2212 -0.083700001 0.88200003
-0.21969999 -0.083700001 0.88200003
-0.2182 -0.083700001 0.88200003
-0.2164 -0.0836 0.88099998
-0.2149 -0.0836 0.88099998
-0.2133 -0.0836 0.88099998
-0.21160001 -0.083499998 0.88
-0.20999999 -0.083499998 0.88
-0.2085 -0.083499998 0.88
-0.20720001 -0.0836 0.88099998
-0.2018 -0.083899997 0.884
-0.20029999 -0.083899997 0.884
-0.199 -0.083999999 0.88499999
-0.1974 -0.083999999 0.88499999
-0.1957 -0.083899997 0.884
-0.1913 -0.083999999 0.88499999
-0.18979999 -0.083999999 0.88499999
-0.1882 -0.083999999 0.88499999
-0.1865 -0.083899997 0.884
-0.185 -0.083899997 0.884
-0.18340001 -0.083899997 0.884
-0.18189999 -0.083899997 0.884
-0.1806 -0.083999999 0.88499999
-0.1769 -0.083700001 0.88200003
-0.1754 -0.083700001 0.88200003
-0.17380001 -0.083700001 0.88200003
-0.1723 -0.083700001 0.88200003
-0.1708 -0.083700001 0.88200003
-0.1693 -0.083700001 0.88200003
-0.1679 -0.083800003 0.88300002
-0.16680001 -0.083999999 0.88499999
-0.1652 -0.083999999 0.88499999
-0.1637 -0.083999999 0.88499999
-0.1608 -0.084100001 0.88599998
-0.1593 -0.084100001 0.88599998
-0.1577 -0.084100001 0.88599998
-0.15620001 -0.084100001 0.88599998
-0.1548 -0.084200002 0.88700002
-0.15180001 -0.084200002 0.88700002
-0.1485 -0.084100001 0.88599998
-0.1453 -0.083999999 0.88499999
-0.14380001 -0.083999999 0.88499999
-0.14219999 -0.083999999 0.88499999
-0.13590001 -0.083899997 0.884
-0.1327 -0.083800003 0.88300002
-0.1312 -0.083800003 0.88300002
-0.1295 -0.083700001 0.88200003
-0.12800001 -0.083700001 0.88200003
-0.1265 -0.083700001 0.88200003
-0.1248 -0.0836 0.88099998
-0.1234 -0.083700001 0.88200003
-0.1217 -0.0836 0.88099998
-0.1203 -0.083700001 0.88200003
-0.1191 -0.083899997 0.884
-0.1175 -0.083899997 0.884
-0.1161 -0.083999999 0.88499999
-0.1146 -0.083999999 0.88499999
-0.1132 -0.084100001 0.88599998
-0.1118 -0.084200002 0.88700002
-0.1101 -0.084100001 0.88599998
-0.1086 -0.084100001 0.88599998
-0.1069 -0.083999999 0.88499999
-0.1053 -0.083899997 0.884
-0.1038 -0.083899997 0.884
-0.1022 -0.083899997 0.884
-0.1007 -0.083899997 0.884
-0.099200003 -0.083899997 0.884
-0.097599998 -0.083899997 0.884
-0.096199997 -0.083999999 0.88499999
-0.094899997 -0.084200002 0.88700002
-0.0933 -0.084200002 0.88700002
-0.091799997 -0.084200002 0.88700002
-0.090400003 -0.084200002 0.88800001
-0.088799998 -0.084200002 0.88800001
-0.087200001 -0.084200002 0.88700002
-0.085600004 -0.084100001 0.88599998
-0.083800003 -0.083899997 0.884
-0.082199998 -0.083800003 0.88300002
-0.080600001 -0.083700001 0.88200003
-0.079099998 -0.083700001 0.88200003
-0.077600002 -0.083800003 0.88300002
-0.076300003 -0.083999999 0.88499999
-0.0748 -0.084100001 0.88599998
-0.073399998 -0.084200002 0.88700002
-0.071900003 -0.084200002 0.88800001
-0.070299998 -0.084200002 0.88700002
-0.068800002 -0.084200002 0.88700002
-0.067199998 -0.084200002 0.88700002
-0.065499999 -0.083999999 0.88499999
-0.064000003 -0.083999999 0.88499999
-0.0625 -0.083999999 0.88499999
-0.060899999 -0.083999999 0.88499999
-0.0594 -0.083999999 0.88499999
-0.0579 -0.083999999 0.88499999
-0.056299999 -0.083999999 0.88499999
-0.0548 -0.083999999 0.88499999
-0.053300001 -0.083999999 0.88499999
-0.051800001 -0.084100001 0.88599998
-0.0502 -0.084100001 0.88599998
-0.048799999 -0.084200002 0.88700002
-0.0473 -0.084200002 0.88800001
-0.045699999 -0.084200002 0.88800001
-0.044300001 -0.084299996 0.889
-0.042800002 -0.084399998 0.88999999
-0.041200001 -0.084399998 0.88999999
-0.0396 -0.084299996 0.889
-0.037999999 -0.084200002 0.88800001
-0.036499999 -0.084200002 0.88800001
-0.035 -0.084200002 0.88800001
-0.033399999 -0.084200002 0.88800001
-0.0319 -0.084200002 0.88800001
-0.030400001 -0.084200002 0.88800001
-0.0288 -0.084200002 0.88800001
-0.0273 -0.084200002 0.88800001
-0.025699999 -0.084200002 0.88800001
-0.0242 -0.084299996 0.889
-0.022700001 -0.084299996 0.889
-0.0211 -0.084299996 0.889
-0.0196 -0.084399998 0.88999999
-0.018100001 -0.084600002 0.89200002
-0.0166 -0.084700003 0.89300001
-0.0151 -0.084899999 0.89499998
-0.0135 -0.084799998 0.89399999
-0.012 -0.084799998 0.89399999
-0.0104 -0.084700003 0.89300001
-0.0088999998 -0.084700003 0.89300001
-0.0073000002 -0.084600002 0.89200002
-0.0057999999 -0.084600002 0.89200002
-0.0041999999 -0.084600002 0.89200002
-0.0027000001 -0.084700003 0.89300001
-0.0011 -0.084700003 0.89300001
0.00039999999 -0.084799998 0.89399999
0.0020000001 -0.084799998 0.89399999
0.0035000001 -0.084899999 0.89499998
0.0051000002 -0.084899999 0.89499998
0.0066 -0.084799998 0.89399999
0.0082 -0.084600002 0.89200002
0.0097000003 -0.0845 0.89099997
0.0112 -0.084399998 0.88999999
0.0128 -0.084399998 0.88999999
0.0143 -0.084399998 0.88999999
0.015900001 -0.084399998 0.88999999
0.0174 -0.084399998 0.88999999
0.018999999 -0.0845 0.89099997
0.020500001 -0.084399998 0.88999999
0.022 -0.084399998 0.88999999
0.023600001 -0.084399998 0.88999999
0.0251 -0.084200002 0.88800001
0.0266 -0.084200002 0.88800001
0.028100001 -0.084200002 0.88800001
0.0297 -0.084200002 0.88800001
0.031199999 -0.084200002 0.88800001
0.032699998 -0.084200002 0.88800001
0.034400001 -0.084399998 0.88999999
0.0359 -0.084399998 0.88999999
0.0374 -0.084399998 0.88999999
0.039000001 -0.084399998 0.88999999
0.0405 -0.084399998 0.88999999
0.042100001 -0.084399998 0.88999999
0.0436 -0.084399998 0.88999999
0.045200001 -0.084399998 0.88999999
0.1016 -0.085199997 0.898
0.1034 -0.0854 0.89999998
0.1049 -0.0854 0.89999998
0.1066 -0.085500002 0.90100002
0.1082 -0.085500002 0.90100002
0.1097 -0.085500002 0.90100002
0.1114 -0.085600004 0.90200001
0.1428 -0.084700003 0.89300001
0.14480001 -0.085000001 0.89600003
0.1462 -0.084899999 0.89499998
0.14749999 -0.084700003 0.89300001
0.14929999 -0.084899999 0.89499998
0.15090001 -0.084899999 0.89499998
0.1523 -0.084799998 0.89399999
0.1548 -0.0845 0.89099997
0.1564 -0.0845 0.89099997
0.1578 -0.084399998 0.88999999
0.15889999 -0.084200002 0.88800001
0.1605 -0.084200002 0.88800001
0.16240001 -0.084399998 0.88999999
0.17120001 -0.085000001 0.89600003
-0.40619999 -0.080899999 0.86900002
-0.36019999 -0.081799999 0.87800002
-0.3576 -0.081900001 0.87900001
-0.35609999 -0.081900001 0.87900001
-0.3416 -0.082099997 0.88099998
-0.34009999 -0.082099997 0.88099998
-0.33849999 -0.082099997 0.88099998
-0.33700001 -0.082099997 0.88099998
-0.33469999 -0.081900001 0.87900001
-0.33320001 -0.081900001 0.87900001
-0.33059999 -0.081600003 0.87599999
-0.32789999 -0.081299998 0.87300003
-0.3256 -0.081100002 0.87099999
-0.32300001 -0.081200004 0.87199998
-0.31959999 -0.081500001 0.875
-0.3154 -0.081600003 0.87599999
-0.31380001 -0.081600003 0.87599999
-0.31200001 -0.081500001 0.875
-0.30939999 -0.081200004 0.87199998
-0.30790001 -0.081200004 0.87199998
-0.3064 -0.081200004 0.87199998
-0.30489999 -0.081200004 0.87199998
-0.2978 -0.081799999 0.87800002
-0.29660001 -0.081900001 0.87900001
-0.29550001 -0.082000002 0.88
-0.29429999 -0.082099997 0.88099998
-0.29269999 -0.082099997 0.88099998
-0.28330001 -0.082400002 0.88499999
-0.28150001 -0.0823 0.884
-0.27590001 -0.082099997 0.88099998
-0.27379999 -0.081900001 0.87900001
-0.27160001 -0.081699997 0.87699997
-0.2701 -0.081699997 0.87699997
-0.2683 -0.081600003 0.87599999
-0.26679999 -0.081600003 0.87599999
-0.26589999 -0.081799999 0.87800002
-0.26440001 -0.081799999 0.87800002
-0.2631 -0.081900001 0.87900001
-0.26159999 -0.081900001 0.87900001
-0.2604 -0.082000002 0.88
-0.25889999 -0.082000002 0.88
-0.25729999 -0.082000002 0.88
-0.25549999 -0.081900001 0.87900001
-0.2525 -0.081900001 0.87900001
-0.2509 -0.081900001 0.87900001
-0.2494 -0.081900001 0.87900001
-0.2403 -0.081900001 0.87900001
-0.23720001 -0.081900001 0.87900001
-0.2306 -0.081699997 0.87699997
-0.22759999 -0.081699997 0.87699997
-0.22660001 -0.081900001 0.87900001
-0.2256 -0.082099997 0.88099998
-0.2243 -0.082199998 0.88200003
-0.2228 -0.082199998 0.88200003
-0.2212 -0.082199998 0.88200003
-0.21969999 -0.082199998 0.88200003
-0.21789999 -0.082099997 0.88099998
-0.21610001 -0.082000002 0.88
-0.21439999 -0.081900001 0.87900001
-0.2111 -0.081799999 0.87800002
-0.2096 -0.081799999 0.87800002
-0.208 -0.081799999 0.87800002
-0.207 -0.082000002 0.88
-0.2059 -0.082199998 0.88200003
-0.2044 -0.082199998 0.88200003
-0.2031 -0.082199998 0.88300002
-0.19310001 -0.082500003 0.88599998
-0.1913 -0.082400002 0.88499999
-0.19 -0.082500003 0.88599998
-0.1882 -0.082400002 0.88499999
-0.1867 -0.082400002 0.88499999
-0.185 -0.0823 0.884
-0.18340001 -0.0823 0.884
-0.18189999 -0.0823 0.884
-0.1806 -0.082400002 0.88499999
-0.17900001 -0.082400002 0.88499999
-0.1771 -0.082199998 0.88300002
-0.17560001 -0.082199998 0.88300002
-0.17399999 -0.082199998 0.88300002
-0.1723 -0.082199998 0.88200003
-0.1708 -0.082199998 0.88200003
-0.16940001 -0.082199998 0.88300002
-0.1681 -0.0823 0.884
-0.16680001 -0.082400002 0.88499999
-0.1652 -0.082400002 0.88499999
-0.1637 -0.082400002 0.88499999
-0.16230001 -0.082500003 0.88599998
-0.161 -0.082599998 0.88700002
-0.1595 -0.082599998 0.88700002
-0.15790001 -0.082599998 0.88700002
-0.1564 -0.082599998 0.88700002
-0.1533 -0.082599998 0.88700002
-0.15180001 -0.082599998 0.88700002
-0.15009999 -0.082500003 0.88599998
-0.1468 -0.082400002 0.88499999
-0.1451 -0.0823 0.884
-0.1436 -0.0823 0.884
-0.14049999 -0.0823 0.884
-0.1372 -0.082199998 0.88200003
-0.1358 -0.082199998 0.88300002
-0.13420001 -0.082199998 0.88300002
-0.1327 -0.082199998 0.88300002
-0.131 -0.082199998 0.88200003
-0.1294 -0.082099997 0.88099998
-0.1278 -0.082099997 0.88099998
-0.12630001 -0.082099997 0.88099998
-0.1246 -0.082000002 0.88
-0.1231 -0.082000002 0.88
-0.1216 -0.082000002 0.88
-0.1202 -0.082099997 0.88099998
-0.1188 -0.082199998 0.88200003
-0.1174 -0.082199998 0.88300002
-0.116 -0.0823 0.884
-0.1146 -0.082400002 0.88499999
-0.1131 -0.082400002 0.88499999
-0.1115 -0.082400002 0.88499999
-0.11 -0.082400002 0.88499999
-0.1085 -0.082400002 0.88499999
-0.1069 -0.082400002 0.88499999
-0.1053 -0.0823 0.884
-0.1038 -0.0823 0.884
-0.1021 -0.082199998 0.88300002
-0.1006 -0.082199998 0.88300002
-0.098999999 -0.082199998 0.88300002
-0.097599998 -0.0823 0.884
-0.096100003 -0.0823 0.884
-0.094800003 -0.082500003 0.88599998
-0.0933 -0.082599998 0.88700002
-0.091799997 -0.082599998 0.88700002
-0.090300001 -0.082599998 0.88700002
-0.088699996 -0.082599998 0.88700002
-0.087200001 -0.082599998 0.88700002
-0.085500002 -0.082400002 0.88499999
-0.083800003 -0.0823 0.884
-0.0823 -0.0823 0.884
-0.080600001 -0.082199998 0.88200003
-0.079099998 -0.082199998 0.88200003
-0.077600002 -0.082199998 0.88300002
-0.076300003 -0.082400002 0.88499999
-0.0748 -0.082500003 0.88599998
-0.073399998 -0.082599998 0.88700002
-0.071800001 -0.082599998 0.88700002
-0.0704 -0.082699999 0.88800001
-0.068800002 -0.082599998 0.88700002
-0.067199998 -0.082599998 0.88700002
-0.0656 -0.082500003 0.88599998
-0.064000003 -0.082400002 0.88499999
-0.0625 -0.082400002 0.88499999
-0.060899999 -0.082400002 0.88499999
-0.059300002 -0.0823 0.884
-0.0579 -0.082400002 0.88499999
-0.056299999 -0.082400002 0.88499999
-0.0548 -0.082400002 0.88499999
-0.051800001 -0.082599998 0.88700002
-0.0504 -0.082699999 0.88800001
-0.048799999 -0.082699999 0.88800001
-0.047400001 -0.082900003 0.88999999
-0.0458 -0.082900003 0.88999999
-0.044300001 -0.082900003 0.88999999
-0.042800002 -0.082900003 0.88999999
-0.041200001 -0.082900003 0.88999999
-0.0396 -0.082699999 0.88800001
-0.037999999 -0.082699999 0.88800001
-0.036499999 -0.082599998 0.88700002
-0.034899998 -0.082599998 0.88700002
-0.033399999 -0.082699999 0.88800001
-0.0319 -0.082800001 0.889
-0.0288 -0.082699999 0.88800001
-0.025699999 -0.082699999 0.88800001
-0.0242 -0.082699999 0.88800001
-0.022700001 -0.082699999 0.88800001
-0.0211 -0.082699999 0.88800001
-0.0196 -0.082900003 0.88999999
-0.018100001 -0.082999997 0.89099997
-0.0166 -0.0832 0.89300001
-0.0151 -0.083300002 0.89399999
-0.0135 -0.0832 0.89300001
-0.012 -0.083300002 0.89399999
-0.0104 -0.083300002 0.89399999
-0.0088999998 -0.0832 0.89300001
-0.0073000002 -0.082999997 0.89099997
-0.0057999999 -0.083099999 0.89200002
-0.0041999999 -0.0832 0.89300001
-0.0027000001 -0.0832 0.89300001
-0.0011 -0.083300002 0.89399999
0.00039999999 -0.083300002 0.89399999
0.0020000001 -0.083300002 0.89399999
0.0035000001 -0.083400004 0.89499998
0.0051000002 -0.083400004 0.89499998
0.0066 -0.083300002 0.89399999
0.0082 -0.083099999 0.89200002
0.0097000003 -0.082999997 0.89099997
0.0112 -0.082900003 0.88999999
0.0128 -0.082900003 0.88999999
0.0143 -0.082900003 0.88999999
0.015900001 -0.082900003 0.88999999
0.0174 -0.082900003 0.88999999
0.0189 -0.082900003 0.88999999
0.020500001 -0.082900003 0.88999999
0.022 -0.082800001 0.889
0.023499999 -0.082699999 0.88800001
0.0251 -0.082699999 0.88800001
0.0266 -0.082699999 0.88800001
0.028100001 -0.082699999 0.88800001
0.0297 -0.082699999 0.88800001
0.031199999 -0.082699999 0.88800001
0.0328 -0.082800001 0.889
0.034400001 -0.082900003 0.88999999
0.0359 -0.082900003 0.88999999
0.037500001 -0.082999997 0.89099997
0.039000001 -0.082999997 0.89099997
0.0405 -0.082900003 0.88999999
0.042100001 -0.082900003 0.88999999
0.0436 -0.082900003 0.88999999
0.045200001 -0.082900003 0.88999999
0.046700001 -0.082900003 0.88999999
0.048099998 -0.082699999 0.88800001
0.0528 -0.082699999 0.88800001
0.0557 -0.082500003 0.88599998
0.0572 -0.082400002 0.88499999
0.058699999 -0.082400002 0.88499999
0.0616 -0.082199998 0.88300002
0.0902 -0.0832 0.89300001
0.091499999 -0.082999997 0.89099997
0.093000002 -0.082900003 0.88999999
0.094499998 -0.082900003 0.88999999
0.096100003 -0.082900003 0.88999999
0.0977 -0.082999997 0.89099997
0.0995 -0.0832 0.89300001
0.1014 -0.083499998 0.89600003
0.1032 -0.0836 0.898
0.1049 -0.083800003 0.89999998
0.1066 -0.083899997 0.90100002
0.1082 -0.083899997 0.90100002
0.1097 -0.083899997 0.90100002
0.1115 -0.084100001 0.903
0.113 -0.083999999 0.90200001
0.1144 -0.083899997 0.90100002
0.1157 -0.083700001 0.89899999
0.1169 -0.083499998 0.89600003
0.1184 -0.083499998 0.89600003
0.12 -0.083499998 0.89600003
0.13959999 -0.083099999 0.89200002
0.14129999 -0.0832 0.89300001
0.1433 -0.083499998 0.89600003
0.1452 -0.0836 0.898
0.1464 -0.083499998 0.89600003
0.1478 -0.083400004 0.89499998
0.14920001 -0.083300002 0.89399999
0.1507 -0.083300002 0.89399999
0.1523 -0.083300002 0.89399999
0.15360001 -0.0832 0.89300001
0.1552 -0.0832 0.89300001
0.1569 -0.083300002 0.89399999
0.1583 -0.0832 0.89300001
0.15970001 -0.083099999 0.89200002
0.1612 -0.083099999 0.89200002
0.1631 -0.083300002 0.89399999
0.1649 -0.083400004 0.89499998
0.1664 -0.083400004 0.89499998
0.1691 -0.0832 0.89300001
0.1709 -0.083300002 0.89399999
0.1726 -0.083400004 0.89499998
0.1744 -0.083499998 0.89600003
0.1759 -0.083499998 0.89600003
0.17749999 -0.083499998 0.89600003
-0.38679999 -0.0792 0.866
-0.35569999 -0.080300003 0.87800002
-0.34079999 -0.080300003 0.87900001
-0.33930001 -0.080300003 0.87900001
-0.3378 -0.080300003 0.87900001
-0.33629999 -0.080300003 0.87900001
-0.33430001 -0.080300003 0.87800002
-0.3328 -0.080300003 0.87800002
-0.33059999 -0.0801 0.87599999
-0.3283 -0.079899997 0.87400001
-0.32600001 -0.079700001 0.87199998
-0.32300001 -0.079700001 0.87199998
-0.31920001 -0.079899997 0.87400001
-0.31799999 -0.079999998 0.875
-0.3154 -0.0801 0.87599999
-0.31380001 -0.0801 0.87599999
-0.3123 -0.0801 0.87599999
-0.30970001 -0.079800002 0.87300003
-0.3082 -0.079800002 0.87300003
-0.30669999 -0.079800002 0.87300003
-0.30489999 -0.079700001 0.87199998
-0.30329999 -0.079700001 0.87199998
-0.30180001 -0.079700001 0.87199998
-0.29949999 -0.079899997 0.87400001
-0.2983 -0.079999998 0.875
-0.29750001 -0.080200002 0.87699997
-0.29629999 -0.080300003 0.87800002
-0.2951 -0.080300003 0.87900001
-0.29359999 -0.080300003 0.87900001
-0.29210001 -0.080300003 0.87900001
-0.28330001 -0.080899999 0.88499999
-0.28150001 -0.080799997 0.884
-0.27959999 -0.080700003 0.88300002
-0.27779999 -0.080600001 0.88200003
-0.27590001 -0.080499999 0.88099998
-0.27200001 -0.080300003 0.87800002
-0.27039999 -0.080300003 0.87800002
-0.26890001 -0.080300003 0.87800002
-0.26710001 -0.080200002 0.87699997
-0.26589999 -0.080300003 0.87800002
-0.2647 -0.080300003 0.87900001
-0.26339999 -0.080399998 0.88
-0.26190001 -0.080399998 0.88
-0.2604 -0.080399998 0.88
-0.25909999 -0.080499999 0.88099998
-0.25729999 -0.080399998 0.88
-0.25549999 -0.080300003 0.87900001
-0.25400001 -0.080300003 0.87900001
-0.2525 -0.080300003 0.87900001
-0.24969999 -0.080399998 0.88
-0.2448 -0.080300003 0.87900001
-0.2406 -0.080399998 0.88
-0.22579999 -0.080600001 0.88200003
-0.22480001 -0.080799997 0.884
-0.2217 -0.080799997 0.884
-0.21969999 -0.080600001 0.88200003
-0.21789999 -0.080499999 0.88099998
-0.2159 -0.080300003 0.87900001
-0.21359999 -0.0801 0.87599999
-0.2121 -0.0801 0.87599999
-0.2106 -0.0801 0.87599999
-0.2093 -0.080200002 0.87699997
-0.20829999 -0.080300003 0.87900001
-0.20720001 -0.080499999 0.88099998
-0.2059 -0.080600001 0.88200003
-0.2044 -0.080600001 0.88200003
-0.2033 -0.080799997 0.884
-0.1917 -0.081100002 0.88700002
-0.18520001 -0.080899999 0.88499999
-0.18340001 -0.080799997 0.884
-0.1821 -0.080899999 0.88499999
-0.1806 -0.080899999 0.88499999
-0.17900001 -0.080899999 0.88499999
-0.1771 -0.080700003 0.88300002
-0.17560001 -0.080700003 0.88300002
-0.17380001 -0.080600001 0.88200003
-0.1723 -0.080600001 0.88200003
-0.1708 -0.080600001 0.88200003
-0.16940001 -0.080700003 0.88300002
-0.1681 -0.080799997 0.884
-0.16680001 -0.080899999 0.88499999
-0.1654 -0.081 0.88599998
-0.1639 -0.081 0.88599998
-0.161 -0.081100002 0.88700002
-0.1596 -0.081200004 0.88800001
-0.1564 -0.081100002 0.88700002
-0.15350001 -0.081200004 0.88800001
-0.15180001 -0.081100002 0.88700002
-0.1499 -0.080899999 0.88499999
-0.14820001 -0.080799997 0.884
-0.14650001 -0.080700003 0.88300002
-0.145 -0.080700003 0.88300002
-0.1434 -0.080700003 0.88300002
-0.1419 -0.080700003 0.88300002
-0.14040001 -0.080700003 0.88300002
-0.13869999 -0.080600001 0.88200003
-0.1356 -0.080600001 0.88200003
-0.13410001 -0.080600001 0.88200003
-0.13259999 -0.080600001 0.88200003
-0.131 -0.080600001 0.88200003
-0.12909999 -0.080300003 0.87900001
-0.1275 -0.080300003 0.87900001
-0.126 -0.080300003 0.87900001
-0.1245 -0.080300003 0.87900001
-0.1228 -0.080300003 0.87800002
-0.1213 -0.080300003 0.87800002
-0.1201 -0.080399998 0.88
-0.1188 -0.080600001 0.88200003
-0.1174 -0.080700003 0.88300002
-0.116 -0.080799997 0.884
-0.1145 -0.080799997 0.884
-0.1131 -0.080899999 0.88499999
-0.1115 -0.080899999 0.88499999
-0.1099 -0.080799997 0.884
-0.1082 -0.080700003 0.88300002
-0.1067 -0.080700003 0.88300002
-0.1051 -0.080600001 0.88200003
-0.1035 -0.080600001 0.88200003
-0.102 -0.080600001 0.88200003
-0.1005 -0.080600001 0.88200003
-0.098899998 -0.080600001 0.88200003
-0.097499996 -0.080700003 0.88300002
-0.096100003 -0.080799997 0.884
-0.094700001 -0.080899999 0.88499999
-0.093099996 -0.080899999 0.88499999
-0.091600001 -0.080899999 0.88499999
-0.0902 -0.081 0.88599998
-0.086999997 -0.080899999 0.88499999
-0.085500002 -0.080899999 0.88499999
-0.083800003 -0.080799997 0.884
-0.0823 -0.080799997 0.884
-0.080700003 -0.080700003 0.88300002
-0.0792 -0.080700003 0.88300002
-0.077699997 -0.080799997 0.884
-0.076300003 -0.080899999 0.88499999
-0.0748 -0.081 0.88599998
-0.073399998 -0.081100002 0.88700002
-0.071800001 -0.081100002 0.88700002
-0.070299998 -0.081100002 0.88700002
-0.068800002 -0.081100002 0.88700002
-0.067199998 -0.081100002 0.88700002
-0.0656 -0.081 0.88599998
-0.064099997 -0.081 0.88599998
-0.0625 -0.080899999 0.88499999
-0.060899999 -0.080899999 0.88499999
-0.0594 -0.080899999 0.88499999
-0.0579 -0.080899999 0.88499999
-0.056299999 -0.080799997 0.884
-0.0548 -0.080899999 0.88499999
-0.051800001 -0.081 0.88599998
-0.050299998 -0.081100002 0.88700002
-0.048799999 -0.081200004 0.88800001
-0.047400001 -0.0814 0.88999999
-0.0458 -0.0814 0.88999999
-0.044399999 -0.0814 0.89099997
-0.042800002 -0.0814 0.88999999
-0.041200001 -0.0814 0.88999999
-0.0396 -0.081200004 0.88800001
-0.037999999 -0.081100002 0.88700002
-0.036400001 -0.081 0.88599998
-0.034899998 -0.081100002 0.88700002
-0.033399999 -0.081100002 0.88700002
-0.0319 -0.081200004 0.88800001
-0.0288 -0.081299998 0.889
-0.0273 -0.081200004 0.88800001
-0.025699999 -0.081200004 0.88800001
-0.0242 -0.081200004 0.88800001
-0.022700001 -0.081200004 0.88800001
-0.0211 -0.081200004 0.88800001
-0.0196 -0.0814 0.88999999
-0.018100001 -0.0814 0.88999999
-0.0166 -0.0814 0.89099997
-0.015 -0.081600003 0.89300001
-0.0135 -0.081600003 0.89300001
-0.012 -0.081600003 0.89300001
-0.0104 -0.081699997 0.89399999
-0.0088999998 -0.081600003 0.89300001
-0.0073000002 -0.081500001 0.89200002
-0.0057999999 -0.081500001 0.89200002
-0.0041999999 -0.081600003 0.89300001
-0.0027000001 -0.081799999 0.89499998
-0.0011 -0.081699997 0.89399999
0.00039999999 -0.081600003 0.89300001
0.0020000001 -0.081600003 0.89300001
0.0035000001 -0.081699997 0.89399999
0.0051000002 -0.081799999 0.89499998
0.0066 -0.081600003 0.89300001
0.0082 -0.081500001 0.89200002
0.0097000003 -0.0814 0.89099997
0.0112 -0.0814 0.89099997
0.0128 -0.0814 0.88999999
0.0143 -0.0814 0.88999999
0.015799999 -0.081299998 0.889
0.0174 -0.0814 0.88999999
0.0189 -0.0814 0.88999999
0.020500001 -0.0814 0.88999999
0.022 -0.081200004 0.88800001
0.023499999 -0.081100002 0.88700002
0.025 -0.081100002 0.88700002
0.0266 -0.081100002 0.88700002
0.028100001 -0.081100002 0.88700002
0.0296 -0.081100002 0.88700002
0.031199999 -0.081100002 0.88700002
0.032699998 -0.081200004 0.88800001
0.034400001 -0.0814 0.88999999
0.0359 -0.0814 0.88999999
0.037500001 -0.0814 0.89099997
0.039000001 -0.0814 0.89099997
0.040600002 -0.0814 0.89099997
0.042100001 -0.0814 0.89099997
0.043699998 -0.0814 0.89099997
0.045200001 -0.0814 0.88999999
0.046700001 -0.0814 0.88999999
0.048099998 -0.081200004 0.88800001
0.049699999 -0.081200004 0.88800001
0.051199999 -0.081200004 0.88800001
0.0528 -0.081200004 0.88800001
0.054200001 -0.081100002 0.88700002
0.0557 -0.081 0.88599998
0.0572 -0.080899999 0.88499999
0.058699999 -0.080899999 0.88499999
0.060199998 -0.080899999 0.88499999
0.061700001 -0.080799997 0.884
0.063199997 -0.080799997 0.884
0.064800002 -0.080899999 0.88499999
0.066500001 -0.081 0.88599998
0.071199998 -0.081200004 0.88800001
0.072800003 -0.081200004 0.88800001
0.074299999 -0.081200004 0.88800001
0.075800002 -0.081100002 0.88700002
0.077299997 -0.081100002 0.88700002
0.087399997 -0.081900001 0.89600003
0.088799998 -0.081799999 0.89499998
0.0902 -0.081600003 0.89300001
0.091600001 -0.081500001 0.89200002
0.093099996 -0.0814 0.89099997
0.094599999 -0.0814 0.89099997
0.096199997 -0.0814 0.89099997
0.0977 -0.0814 0.89099997
0.099399999 -0.081500001 0.89200002
0.1013 -0.081799999 0.89499998
0.1029 -0.081900001 0.89600003
0.1047 -0.082099997 0.898
0.1065 -0.0823 0.89999998
0.1081 -0.0823 0.89999998
0.1096 -0.0823 0.89999998
0.1112 -0.0823 0.89999998
0.1127 -0.0823 0.89999998
0.1142 -0.082199998 0.89899999
0.1156 -0.082099997 0.898
0.117 -0.082000002 0.89700001
0.1186 -0.082000002 0.89700001
0.1203 -0.082099997 0.898
0.1217 -0.082000002 0.89700001
0.1231 -0.081900001 0.89600003
0.1247 -0.081900001 0.89600003
0.12620001 -0.081900001 0.89600003
0.1276 -0.081799999 0.89499998
0.12890001 -0.081600003 0.89300001
0.1301 -0.0814 0.89099997
0.13150001 -0.0814 0.88999999
0.1331 -0.0814 0.88999999
0.1346 -0.0814 0.88999999
0.1365 -0.081500001 0.89200002
0.1382 -0.081600003 0.89300001
0.1399 -0.081699997 0.89399999
0.1416 -0.081799999 0.89499998
0.1433 -0.081900001 0.89600003
0.14480001 -0.081900001 0.89600003
0.1462 -0.081799999 0.89499998
0.1476 -0.081699997 0.89399999
0.149 -0.081600003 0.89300001
0.1506 -0.081600003 0.89300001
0.1521 -0.081600003 0.89300001
0.15360001 -0.081600003 0.89300001
0.1552 -0.081600003 0.89300001
0.15710001 -0.081799999 0.89499998
0.1586 -0.081799999 0.89499998
0.1602 -0.081799999 0.89499998
0.1619 -0.081900001 0.89600003
0.1638 -0.082099997 0.898
0.1654 -0.082099997 0.898
0.1671 -0.082199998 0.89899999
0.1693 -0.081699997 0.89399999
0.1707 -0.081600003 0.89300001
0.17219999 -0.081600003 0.89300001
0.17380001 -0.081600003 0.89300001
0.1751 -0.081500001 0.89200002
0.17649999 -0.0814 0.89099997
0.17839999 -0.081600003 0.89300001
-0.38600001 -0.078100003 0.87099999
-0.3858 -0.078400001 0.87400001
-0.3389 -0.078699999 0.87800002
-0.3378 -0.0788 0.87900001
-0.33590001 -0.078699999 0.87800002
-0.33430001 -0.078699999 0.87800002
-0.3328 -0.078699999 0.87800002
-0.3283 -0.078400001 0.87400001
-0.32600001 -0.078199998 0.87199998
-0.32260001 -0.078100003 0.87099999
-0.31920001 -0.078400001 0.87400001
-0.3177 -0.078400001 0.87400001
-0.31650001 -0.078500003 0.875
-0.3154 -0.078599997 0.87599999
-0.31380001 -0.078599997 0.87599999
-0.3123 -0.078599997 0.87599999
-0.3105 -0.078500003 0.875
-0.30860001 -0.078400001 0.87400001
-0.3071 -0.078400001 0.87400001
-0.30520001 -0.078299999 0.87300003
-0.2992 -0.078299999 0.87300003
-0.29800001 -0.078400001 0.87400001
-0.2933 -0.078699999 0.87800002
-0.29170001 -0.078699999 0.87800002
-0.29120001 -0.079000004 0.88099998
-0.2897 -0.079000004 0.88099998
-0.28850001 -0.079099998 0.88200003
-0.27070001 -0.0788 0.87900001
-0.2692 -0.0788 0.87900001
-0.26769999 -0.0788 0.87900001
-0.2665 -0.078900002 0.88
-0.2647 -0.0788 0.87900001
-0.2631 -0.0788 0.87900001
-0.26159999 -0.0788 0.87900001
-0.26010001 -0.0788 0.87900001
-0.2586 -0.0788 0.87900001
-0.257 -0.0788 0.87900001
-0.25549999 -0.0788 0.87900001
-0.25400001 -0.0788 0.87900001
-0.2525 -0.0788 0.87900001
-0.2518 -0.079099998 0.88200003
-0.2485 -0.079000004 0.88099998
-0.24240001 -0.079000004 0.88099998
-0.2406 -0.078900002 0.88
-0.2362 -0.079000004 0.88099998
-0.2261 -0.0792 0.88300002
-0.22480001 -0.079300001 0.884
-0.223 -0.0792 0.88300002
-0.22149999 -0.0792 0.88300002
-0.21969999 -0.079099998 0.88200003
-0.2174 -0.0788 0.87900001
-0.21520001 -0.078599997 0.87599999
-0.2132 -0.078400001 0.87400001
-0.21160001 -0.078400001 0.87400001
-0.2104 -0.078500003 0.875
-0.20909999 -0.078599997 0.87599999
-0.208 -0.078699999 0.87800002
-0.20720001 -0.079000004 0.88099998
-0.2059 -0.079099998 0.88200003
-0.2033 -0.079300001 0.884
-0.1955 -0.079800002 0.88999999
-0.19220001 -0.079700001 0.889
-0.1904 -0.079599999 0.88800001
-0.18539999 -0.079499997 0.88599998
-0.17730001 -0.079300001 0.884
-0.1758 -0.079300001 0.884
-0.1742 -0.079300001 0.884
-0.1725 -0.0792 0.88300002
-0.1696 -0.079300001 0.884
-0.1681 -0.079300001 0.884
-0.16689999 -0.079499997 0.88599998
-0.1639 -0.079499997 0.88599998
-0.16249999 -0.079499997 0.88700002
-0.161 -0.079499997 0.88700002
-0.1596 -0.079599999 0.88800001
-0.15809999 -0.079599999 0.88800001
-0.1566 -0.079599999 0.88800001
-0.155 -0.079599999 0.88800001
-0.1533 -0.079499997 0.88700002
-0.15180001 -0.079499997 0.88700002
-0.1499 -0.079400003 0.88499999
-0.14820001 -0.079300001 0.884
-0.14650001 -0.0792 0.88300002
-0.14480001 -0.079099998 0.88200003
-0.1433 -0.079099998 0.88200003
-0.1417 -0.079099998 0.88200003
-0.1402 -0.079099998 0.88200003
-0.13680001 -0.078900002 0.88
-0.1353 -0.078900002 0.88
-0.1336 -0.0788 0.87900001
-0.1323 -0.078900002 0.88
-0.13070001 -0.078900002 0.88
-0.12909999 -0.0788 0.87900001
-0.1274 -0.078699999 0.87800002
-0.1259 -0.078699999 0.87800002
-0.1244 -0.078699999 0.87800002
-0.1228 -0.078699999 0.87800002
-0.1213 -0.078699999 0.87800002
-0.1199 -0.0788 0.87900001
-0.1187 -0.079000004 0.88099998
-0.1173 -0.079099998 0.88200003
-0.116 -0.079300001 0.884
-0.1145 -0.079300001 0.884
-0.1115 -0.079400003 0.88499999
-0.1099 -0.079300001 0.884
-0.1081 -0.079099998 0.88200003
-0.1066 -0.079099998 0.88200003
-0.1049 -0.079000004 0.88099998
-0.1034 -0.079000004 0.88099998
-0.1019 -0.079000004 0.88099998
-0.1004 -0.079000004 0.88099998
-0.098899998 -0.079099998 0.88200003
-0.097400002 -0.079099998 0.88200003
-0.095899999 -0.079099998 0.88200003
-0.094499998 -0.0792 0.88300002
-0.092900001 -0.0792 0.88300002
-0.091399997 -0.0792 0.88300002
-0.090000004 -0.079300001 0.884
-0.088399999 -0.079300001 0.884
-0.085299999 -0.0792 0.88300002
-0.0836 -0.079099998 0.88200003
-0.082199998 -0.0792 0.88300002
-0.080700003 -0.0792 0.88300002
-0.0792 -0.079300001 0.884
-0.077799998 -0.079400003 0.88499999
-0.076300003 -0.079400003 0.88499999
-0.0748 -0.079499997 0.88599998
-0.073399998 -0.079499997 0.88700002
-0.071900003 -0.079599999 0.88800001
-0.0704 -0.079599999 0.88800001
-0.068800002 -0.079499997 0.88700002
-0.067199998 -0.079499997 0.88700002
-0.065700002 -0.079499997 0.88700002
-0.064099997 -0.079499997 0.88700002
-0.0625 -0.079400003 0.88499999
-0.060899999 -0.079400003 0.88499999
-0.0594 -0.079400003 0.88499999
-0.0579 -0.079400003 0.88499999
-0.056299999 -0.079300001 0.884
-0.0517 -0.079400003 0.88499999
-0.050299998 -0.079499997 0.88700002
-0.048799999 -0.079599999 0.88800001
-0.047400001 -0.079800002 0.88999999
-0.0458 -0.079800002 0.88999999
-0.044300001 -0.079800002 0.88999999
-0.041200001 -0.079800002 0.88999999
-0.0396 -0.079599999 0.88800001
-0.037999999 -0.079499997 0.88700002
-0.036400001 -0.079400003 0.88499999
-0.034899998 -0.079400003 0.88499999
-0.033399999 -0.079499997 0.88599998
-0.0319 -0.079499997 0.88700002
-0.030300001 -0.079499997 0.88700002
-0.0288 -0.079599999 0.88800001
-0.0273 -0.079599999 0.88800001
-0.025699999 -0.079599999 0.88800001
-0.0242 -0.079599999 0.88800001
-0.022700001 -0.079599999 0.88800001
-0.0211 -0.079599999 0.88800001
-0.0196 -0.079800002 0.88999999
-0.018100001 -0.079800002 0.88999999
-0.0165 -0.079800002 0.88999999
-0.015 -0.079899997 0.89099997
-0.0119 -0.079999998 0.89200002
-0.0104 -0.0801 0.89300001
-0.0088999998 -0.0801 0.89300001
-0.0073000002 -0.079999998 0.89200002
-0.0057999999 -0.0801 0.89300001
-0.0041999999 -0.0801 0.89300001
-0.0027000001 -0.080300003 0.89499998
-0.0011 -0.080300003 0.89499998
0.00039999999 -0.0801 0.89300001
0.0020000001 -0.0801 0.89300001
0.0035000001 -0.0801 0.89300001
0.0051000002 -0.0801 0.89300001
0.0066 -0.0801 0.89300001
0.0081000002 -0.079899997 0.89099997
0.0097000003 -0.079899997 0.89099997
0.0112 -0.079899997 0.89099997
0.0128 -0.079800002 0.88999999
0.0143 -0.079800002 0.88999999
0.015900001 -0.079800002 0.88999999
0.0174 -0.079700001 0.889
0.0189 -0.079700001 0.889
0.020500001 -0.079700001 0.889
0.022 -0.079599999 0.88800001
0.023499999 -0.079499997 0.88700002
0.025 -0.079499997 0.88700002
0.0266 -0.079499997 0.88700002
0.028100001 -0.079499997 0.88700002
0.0296 -0.079499997 0.88700002
0.031199999 -0.079499997 0.88700002
0.032699998 -0.079599999 0.88800001
0.034299999 -0.079700001 0.889
0.0359 -0.079800002 0.88999999
0.037500001 -0.079899997 0.89099997
0.039000001 -0.079899997 0.89099997
0.040600002 -0.079899997 0.89099997
0.042100001 -0.079899997 0.89099997
0.043699998 -0.079899997 0.89099997
0.045200001 -0.079899997 0.89099997
0.046700001 -0.079800002 0.88999999
0.048099998 -0.079599999 0.88800001
0.049699999 -0.079599999 0.88800001
0.051199999 -0.079599999 0.88800001
0.0528 -0.079599999 0.88800001
0.054200001 -0.079499997 0.88700002
0.055799998 -0.079499997 0.88700002
0.0572 -0.079499997 0.88599998
0.058800001 -0.079499997 0.88599998
0.060199998 -0.079400003 0.88499999
0.061799999 -0.079400003 0.88499999
0.063299999 -0.079400003 0.88499999
0.066500001 -0.079499997 0.88599998
0.068099998 -0.079499997 0.88700002
0.069600001 -0.079499997 0.88700002
0.071099997 -0.079499997 0.88700002
0.072700001 -0.079499997 0.88700002
0.074199997 -0.079499997 0.88700002
0.075800002 -0.079499997 0.88700002
0.077299997 -0.079499997 0.88700002
0.0788 -0.079499997 0.88700002
0.080399998 -0.079499997 0.88700002
0.082099997 -0.079700001 0.889
0.083800003 -0.079899997 0.89099997
0.085600004 -0.080200002 0.89399999
0.087300003 -0.080300003 0.89499998
0.088699996 -0.080200002 0.89399999
0.0902 -0.0801 0.89300001
0.091600001 -0.079999998 0.89200002
0.093199998 -0.079999998 0.89200002
0.094599999 -0.079899997 0.89099997
0.096199997 -0.079899997 0.89099997
0.097800002 -0.079999998 0.89200002
0.0995 -0.0801 0.89300001
0.1013 -0.080300003 0.89499998
0.1029 -0.080300003 0.89600003
0.1047 -0.080499999 0.898
0.1064 -0.080600001 0.89899999
0.1079 -0.080600001 0.89899999
0.1096 -0.080700003 0.89999998
0.1113 -0.080799997 0.90100002
0.1127 -0.080700003 0.89999998
0.1142 -0.080600001 0.89899999
0.1156 -0.080499999 0.898
0.1172 -0.080499999 0.898
0.1187 -0.080499999 0.898
0.1203 -0.080499999 0.898
0.1217 -0.080399998 0.89700001
0.1232 -0.080399998 0.89700001
0.1248 -0.080399998 0.89700001
0.12620001 -0.080300003 0.89600003
0.1276 -0.080300003 0.89499998
0.12890001 -0.0801 0.89300001
0.1301 -0.079899997 0.89099997
0.13169999 -0.079899997 0.89099997
0.1331 -0.079800002 0.88999999
0.1348 -0.079899997 0.89099997
0.1366 -0.0801 0.89300001
0.1383 -0.080200002 0.89399999
0.1399 -0.080200002 0.89399999
0.14139999 -0.080200002 0.89399999
0.14309999 -0.080300003 0.89499998
0.14470001 -0.080300003 0.89499998
0.1459 -0.0801 0.89300001
0.1471 -0.079899997 0.89099997
0.1487 -0.079899997 0.89099997
0.15000001 -0.079800002 0.88999999
0.1516 -0.079800002 0.88999999
0.1531 -0.079800002 0.88999999
0.1548 -0.079899997 0.89099997
0.1567 -0.0801 0.89300001
0.1585 -0.080200002 0.89399999
0.16 -0.080200002 0.89399999
0.1617 -0.080300003 0.89499998
0.1637 -0.080399998 0.89700001
0.1652 -0.080399998 0.89700001
0.1666 -0.080300003 0.89600003
0.16760001 -0.0801 0.89300001
0.1734 -0.079899997 0.89099997
0.17470001 -0.079800002 0.88999999
0.1763 -0.079800002 0.88999999
0.1778 -0.079800002 0.88999999
-0.41029999 -0.076300003 0.86799997
-0.40880001 -0.076300003 0.86799997
-0.40580001 -0.076300003 0.86799997
-0.3865 -0.076700002 0.87199998
-0.3854 -0.076800004 0.87300003
-0.38519999 -0.077 0.87599999
-0.38370001 -0.077699997 0.88300002
-0.3328 -0.077200003 0.87800002
-0.31650001 -0.077 0.875
-0.31569999 -0.077100001 0.87699997
-0.31459999 -0.077200003 0.87800002
-0.3127 -0.077100001 0.87699997
-0.31119999 -0.077100001 0.87699997
-0.31 -0.077200003 0.87800002
-0.30849999 -0.077200003 0.87800002
-0.30630001 -0.077 0.87599999
-0.3044 -0.077 0.875
-0.30250001 -0.076899998 0.87400001
-0.29949999 -0.076899998 0.87400001
-0.29679999 -0.077 0.875
-0.29440001 -0.077100001 0.87699997
-0.29210001 -0.077299997 0.87900001
-0.29120001 -0.077500001 0.88099998
-0.28999999 -0.077600002 0.88200003
-0.2888 -0.077699997 0.88300002
-0.2879 -0.077799998 0.88499999
-0.287 -0.078000002 0.88700002
-0.2852 -0.0779 0.88599998
-0.28330001 -0.077799998 0.88499999
-0.28119999 -0.077699997 0.88300002
-0.27590001 -0.077500001 0.88099998
-0.27410001 -0.077399999 0.88
-0.2723 -0.077299997 0.87900001
-0.27110001 -0.077399999 0.88
-0.26949999 -0.077399999 0.88
-0.26769999 -0.077299997 0.87900001
-0.26620001 -0.077299997 0.87900001
-0.2647 -0.077299997 0.87900001
-0.2631 -0.077299997 0.87900001
-0.2613 -0.077200003 0.87800002
-0.26010001 -0.077299997 0.87900001
-0.2586 -0.077299997 0.87900001
-0.257 -0.077299997 0.87900001
-0.25549999 -0.077299997 0.87900001
-0.25400001 -0.077299997 0.87900001
-0.25279999 -0.077399999 0.88
-0.2518 -0.077600002 0.88200003
-0.25060001 -0.077699997 0.88300002
-0.2472 -0.077600002 0.88200003
-0.2378 -0.077500001 0.88099998
-0.22579999 -0.077600002 0.88200003
-0.2228 -0.077600002 0.88200003
-0.2192 -0.077399999 0.88
-0.2149 -0.077 0.875
-0.2132 -0.076899998 0.87400001
-0.2119 -0.077 0.875
-0.2106 -0.077 0.87599999
-0.2093 -0.077100001 0.87699997
-0.20829999 -0.077299997 0.87900001
-0.20720001 -0.077500001 0.88099998
-0.2059 -0.077600002 0.88200003
-0.2033 -0.077699997 0.884
-0.19220001 -0.078199998 0.889
-0.1904 -0.078100003 0.88800001
-0.18870001 -0.078000002 0.88700002
-0.18520001 -0.077799998 0.88499999
-0.18359999 -0.077799998 0.88499999
-0.1821 -0.077799998 0.88499999
-0.1806 -0.077799998 0.88499999
-0.17900001 -0.077799998 0.88499999
-0.17749999 -0.077799998 0.88499999
-0.1758 -0.077699997 0.884
-0.1742 -0.077699997 0.884
-0.1725 -0.077699997 0.88300002
-0.171 -0.077699997 0.88300002
-0.1696 -0.077699997 0.884
-0.1683 -0.077799998 0.88499999
-0.16689999 -0.0779 0.88599998
-0.1656 -0.078000002 0.88700002
-0.16410001 -0.078000002 0.88700002
-0.16249999 -0.078000002 0.88700002
-0.1612 -0.078100003 0.88800001
-0.1596 -0.078100003 0.88800001
-0.15790001 -0.078000002 0.88700002
-0.1497 -0.077699997 0.884
-0.1479 -0.077600002 0.88200003
-0.1463 -0.077600002 0.88200003
-0.14480001 -0.077600002 0.88200003
-0.1433 -0.077600002 0.88200003
-0.1417 -0.077600002 0.88200003
-0.14 -0.077500001 0.88099998
-0.1367 -0.077299997 0.87900001
-0.1353 -0.077399999 0.88
-0.1338 -0.077399999 0.88
-0.1323 -0.077399999 0.88
-0.1309 -0.077500001 0.88099998
-0.12909999 -0.077299997 0.87900001
-0.1275 -0.077299997 0.87900001
-0.126 -0.077299997 0.87900001
-0.1244 -0.077200003 0.87800002
-0.1227 -0.077100001 0.87699997
-0.1212 -0.077100001 0.87699997
-0.1198 -0.077200003 0.87800002
-0.1185 -0.077399999 0.88
-0.1171 -0.077500001 0.88099998
-0.1159 -0.077699997 0.88300002
-0.1129 -0.077699997 0.884
-0.1114 -0.077699997 0.884
-0.1098 -0.077699997 0.88300002
-0.1081 -0.077600002 0.88200003
-0.1066 -0.077600002 0.88200003
-0.1049 -0.077500001 0.88099998
-0.1034 -0.077500001 0.88099998
-0.1019 -0.077500001 0.88099998
-0.1005 -0.077600002 0.88200003
-0.098800004 -0.077500001 0.88099998
-0.0973 -0.077500001 0.88099998
-0.095899999 -0.077600002 0.88200003
-0.094400004 -0.077600002 0.88200003
-0.092799999 -0.077600002 0.88200003
-0.091200002 -0.077500001 0.88099998
-0.088200003 -0.077600002 0.88200003
-0.085199997 -0.077600002 0.88200003
-0.0836 -0.077600002 0.88200003
-0.082199998 -0.077699997 0.88300002
-0.080799997 -0.077699997 0.884
-0.0792 -0.077699997 0.884
-0.077699997 -0.077699997 0.884
-0.076300003 -0.077799998 0.88499999
-0.074699998 -0.077799998 0.88499999
-0.073399998 -0.078000002 0.88700002
-0.071800001 -0.078000002 0.88700002
-0.0704 -0.078100003 0.88800001
-0.068800002 -0.078100003 0.88800001
-0.067199998 -0.078000002 0.88700002
-0.065700002 -0.078000002 0.88700002
-0.064099997 -0.0779 0.88599998
-0.0625 -0.077799998 0.88499999
-0.060899999 -0.077799998 0.88499999
-0.0594 -0.077799998 0.88499999
-0.057799999 -0.077699997 0.884
-0.056299999 -0.077799998 0.88499999
-0.0548 -0.077799998 0.88499999
-0.053300001 -0.077799998 0.88499999
-0.051800001 -0.078000002 0.88700002
-0.0504 -0.078100003 0.88800001
-0.048799999 -0.078100003 0.88800001
-0.047400001 -0.078299999 0.88999999
-0.0458 -0.078299999 0.88999999
-0.044300001 -0.078299999 0.88999999
-0.042800002 -0.078299999 0.88999999
-0.041099999 -0.078100003 0.88800001
-0.0363 -0.077699997 0.884
-0.0348 -0.077699997 0.88300002
-0.033300001 -0.077699997 0.884
-0.031800002 -0.0779 0.88599998
-0.030300001 -0.0779 0.88599998
-0.0288 -0.078000002 0.88700002
-0.0273 -0.078100003 0.88800001
-0.025699999 -0.078100003 0.88800001
-0.0211 -0.078100003 0.88800001
-0.0196 -0.078199998 0.889
-0.018100001 -0.078199998 0.889
-0.0165 -0.078299999 0.88999999
-0.015 -0.078400001 0.89099997
-0.0135 -0.078400001 0.89099997
-0.0119 -0.078400001 0.89099997
-0.0104 -0.078500003 0.89300001
-0.0088999998 -0.078500003 0.89300001
-0.0073000002 -0.078500003 0.89300001
-0.0057999999 -0.078500003 0.89300001
-0.0041999999 -0.078699999 0.89499998
-0.0027000001 -0.0788 0.89600003
-0.0011 -0.0788 0.89600003
0.00039999999 -0.078599997 0.89399999
0.0020000001 -0.078500003 0.89300001
0.0035000001 -0.078500003 0.89300001
0.0051000002 -0.078500003 0.89300001
0.0066 -0.078400001 0.89200002
0.0081000002 -0.078400001 0.89099997
0.0097000003 -0.078400001 0.89099997
0.0112 -0.078299999 0.88999999
0.0128 -0.078299999 0.88999999
0.0143 -0.078299999 0.88999999
0.015900001 -0.078299999 0.88999999
0.0174 -0.078100003 0.88800001
0.0189 -0.078100003 0.88800001
0.020400001 -0.078100003 0.88800001
0.022 -0.078100003 0.88800001
0.023499999 -0.078100003 0.88800001
0.025 -0.078000002 0.88700002
0.0266 -0.078000002 0.88700002
0.028100001 -0.078000002 0.88700002
0.0296 -0.078000002 0.88700002
0.031199999 -0.078000002 0.88700002
0.032699998 -0.078100003 0.88800001
0.034299999 -0.078100003 0.88800001
0.0359 -0.078299999 0.88999999
0.037500001 -0.078400001 0.89099997
0.039099999 -0.078400001 0.89200002
0.0407 -0.078500003 0.89300001
0.042199999 -0.078400001 0.89200002
0.0438 -0.078500003 0.89300001
0.045200001 -0.078400001 0.89099997
0.046700001 -0.078299999 0.88999999
0.0482 -0.078199998 0.889
0.049699999 -0.078100003 0.88800001
0.051199999 -0.078100003 0.88800001
0.0528 -0.078100003 0.88800001
0.054200001 -0.078000002 0.88700002
0.055799998 -0.078000002 0.88700002
0.057300001 -0.078000002 0.88700002
0.058800001 -0.078000002 0.88700002
0.060400002 -0.078000002 0.88700002
0.061900001 -0.078000002 0.88700002
0.063500002 -0.078000002 0.88700002
0.064999998 -0.078000002 0.88700002
0.066500001 -0.078000002 0.88700002
0.068099998 -0.078100003 0.88800001
0.069700003 -0.078100003 0.88800001
0.071199998 -0.078100003 0.88800001
0.072700001 -0.078000002 0.88700002
0.074199997 -0.078000002 0.88700002
0.075800002 -0.078000002 0.88700002
0.077200003 -0.0779 0.88599998
0.078699999 -0.0779 0.88599998
0.080399998 -0.078000002 0.88700002
0.082000002 -0.078100003 0.88800001
0.083800003 -0.078400001 0.89099997
0.085600004 -0.078500003 0.89300001
0.087099999 -0.078500003 0.89300001
0.088600002 -0.078500003 0.89300001
0.090099998 -0.078400001 0.89200002
0.091499999 -0.078400001 0.89099997
0.093099996 -0.078400001 0.89099997
0.094599999 -0.078400001 0.89099997
0.096199997 -0.078400001 0.89099997
0.0977 -0.078400001 0.89099997
0.099399999 -0.078400001 0.89200002
0.101 -0.078500003 0.89300001
0.1026 -0.078500003 0.89300001
0.1044 -0.078699999 0.89499998
0.106 -0.0788 0.89600003
0.1078 -0.079000004 0.898
0.1094 -0.079000004 0.898
0.1111 -0.079099998 0.89899999
0.1125 -0.079000004 0.898
0.114 -0.079000004 0.898
0.1155 -0.078900002 0.89700001
0.1169 -0.0788 0.89600003
0.1184 -0.0788 0.89600003
0.1201 -0.078900002 0.89700001
0.1217 -0.078900002 0.89700001
0.1234 -0.079000004 0.898
0.1249 -0.079000004 0.898
0.12639999 -0.078900002 0.89700001
0.1278 -0.0788 0.89600003
0.12890001 -0.078500003 0.89300001
0.1301 -0.078400001 0.89099997
0.13169999 -0.078400001 0.89099997
0.1331 -0.078299999 0.88999999
0.1348 -0.078400001 0.89099997
0.1366 -0.078500003 0.89300001
0.13850001 -0.078699999 0.89499998
0.14 -0.078699999 0.89499998
0.1416 -0.078699999 0.89499998
0.14309999 -0.078699999 0.89499998
0.1445 -0.078599997 0.89399999
0.14569999 -0.078400001 0.89200002
0.147 -0.078299999 0.88999999
0.15000001 -0.078299999 0.88999999
0.1516 -0.078299999 0.88999999
0.1548 -0.078400001 0.89099997
0.1567 -0.078500003 0.89300001
0.1583 -0.078500003 0.89300001
0.15979999 -0.078500003 0.89300001
0.16159999 -0.078599997 0.89399999
0.16329999 -0.078699999 0.89499998
0.1649 -0.078699999 0.89499998
0.1674 -0.078400001 0.89200002
0.16869999 -0.078400001 0.89099997
0.1734 -0.078400001 0.89099997
0.1749 -0.078400001 0.89099997
0.1763 -0.078299999 0.88999999
-0.4043 -0.0748 0.86799997
-0.3863 -0.075400002 0.875
-0.38519999 -0.075499997 0.87599999
-0.38460001 -0.0757 0.87800002
-0.36050001 -0.075400002 0.875
-0.36059999 -0.075800002 0.87900001
-0.35949999 -0.075900003 0.88
-0.35839999 -0.075999998 0.88099998
-0.35260001 -0.0757 0.87800002
-0.3389 -0.0757 0.87800002
-0.31729999 -0.075300001 0.87300003
-0.31650001 -0.075400002 0.875
-0.3161 -0.0757 0.87800002
-0.31459999 -0.0757 0.87800002
-0.3127 -0.075599998 0.87699997
-0.31079999 -0.075499997 0.87599999
-0.31 -0.0757 0.87800002
-0.30849999 -0.0757 0.87800002
-0.30630001 -0.075499997 0.87599999
-0.30399999 -0.075300001 0.87400001
-0.30219999 -0.075300001 0.87300003
-0.2992 -0.075300001 0.87300003
-0.2976 -0.075300001 0.87300003
-0.29609999 -0.075300001 0.87300003
-0.29530001 -0.075400002 0.875
-0.29409999 -0.075499997 0.87599999
-0.2933 -0.0757 0.87800002
-0.29210001 -0.075800002 0.87900001
-0.29089999 -0.075900003 0.88
