ply
format ascii 1.0
comment PCL generated
element vertex 1541
property float x
property float y
property float z
element camera 0
property float view_px
property float view_py
property float view_pz
property float x_axisx
property float x_axisy
property float x_axisz
property float y_axisx
property float y_axisy
property float y_axisz
property float z_axisx
property float z_axisy
property float z_axisz
property float focal
property float scalex
property float scaley
property float centerx
property float centery
property int viewportx
property int viewporty
property float k1
property float k2
end_header
0.0427 0.061500002 0.90399998
0.044300001 0.0614 0.903
0.0458 0.0614 0.903
0.047400001 0.0614 0.903
0.048900001 0.0614 0.903
0.050500002 0.0614 0.903
0.052099999 0.0614 0.903
0.053599998 0.0614 0.903
0.055100001 0.061299998 0.90100002
0.056499999 0.061099999 0.898
0.057799999 0.060800001 0.89399999
0.059099998 0.060600001 0.89099997
0.065300003 0.060600001 0.89099997
0.066799998 0.060600001 0.88999999
0.068300001 0.060600001 0.88999999
0.069899999 0.060600001 0.89099997
0.071500003 0.060600001 0.89099997
0.073100001 0.060699999 0.89200002
0.074699998 0.060800001 0.89300001
0.076399997 0.060899999 0.89499998
0.078199998 0.061099999 0.898
0.079999998 0.0612 0.89999998
0.081600003 0.061299998 0.90100002
0.083400004 0.0614 0.903
0.085000001 0.061500002 0.90399998
0.088299997 0.0616 0.90499997
0.0898 0.0616 0.90499997
0.091399997 0.0616 0.90499997
0.093000002 0.0616 0.90499997
0.094499998 0.0616 0.90499997
0.096100003 0.0616 0.90499997
0.097599998 0.061500002 0.90399998
0.099100001 0.061500002 0.90399998
0.1007 0.061500002 0.90399998
0.1022 0.0614 0.903
0.1037 0.0614 0.903
0.1052 0.0614 0.90200001
0.1066 0.061299998 0.90100002
0.1082 0.061299998 0.90100002
0.1099 0.0614 0.90200001
0.1113 0.061299998 0.90100002
0.1129 0.061299998 0.90100002
0.1146 0.0614 0.90200001
0.1162 0.0614 0.903
0.1178 0.0614 0.903
0.1194 0.0614 0.903
0.1209 0.0614 0.903
0.1225 0.0614 0.903
0.1239 0.0614 0.90200001
0.1258 0.060800001 0.89300001
0.12710001 0.060600001 0.89099997
0.1303 0.060699999 0.89200002
0.132 0.060800001 0.89300001
0.1338 0.060899999 0.89499998
0.1357 0.061000001 0.89700001
0.1374 0.061099999 0.898
0.1391 0.0612 0.89899999
0.1408 0.0612 0.89999998
0.14219999 0.0612 0.89899999
0.1436 0.061099999 0.898
0.1452 0.061099999 0.898
0.14659999 0.061000001 0.89700001
0.1481 0.061000001 0.89700001
0.1498 0.061099999 0.898
0.1514 0.061099999 0.898
0.1531 0.0612 0.89899999
0.1549 0.0612 0.89999998
0.1564 0.0612 0.89999998
0.15809999 0.061299998 0.90100002
0.15989999 0.0614 0.90200001
0.16150001 0.0614 0.90200001
0.1628 0.061299998 0.90100002
0.1646 0.0614 0.90200001
0.1661 0.0614 0.90200001
0.1679 0.0614 0.903
0.1696 0.061500002 0.90399998
0.17120001 0.061500002 0.90399998
0.17299999 0.0616 0.90499997
0.1745 0.0616 0.90499997
0.1761 0.0616 0.90499997
0.1777 0.0616 0.90499997
0.17900001 0.061500002 0.90399998
0.1806 0.061500002 0.90399998
0.1822 0.061500002 0.90399998
0.18350001 0.0614 0.903
0.1855 0.0616 0.90499997
0.1873 0.0616 0.90600002
0.1893 0.061799999 0.90799999
0.1917 0.062100001 0.912
0.1937 0.062199999 0.91399997
-0.4224 0.061700001 0.884
-0.42140001 0.061700001 0.88499999
-0.37819999 0.061500002 0.88099998
-0.37239999 0.061299998 0.87800002
-0.3549 0.0614 0.88
-0.33930001 0.0616 0.88300002
-0.3382 0.061700001 0.884
-0.33660001 0.061700001 0.884
-0.3355 0.061700001 0.88499999
-0.33360001 0.061700001 0.884
-0.33239999 0.061700001 0.88499999
-0.33129999 0.061799999 0.88599998
-0.3301 0.061900001 0.88700002
-0.32859999 0.061900001 0.88700002
-0.32699999 0.061900001 0.88700002
-0.3193 0.061900001 0.88700002
-0.31810001 0.061999999 0.88800001
-0.31659999 0.061999999 0.88800001
-0.31510001 0.061999999 0.88800001
-0.3123 0.061999999 0.889
-0.31119999 0.062100001 0.88999999
-0.31029999 0.062199999 0.89200002
-0.3091 0.0623 0.89300001
-0.30759999 0.0623 0.89300001
-0.30669999 0.062399998 0.89499998
-0.28760001 0.061700001 0.884
-0.2735 0.061999999 0.88800001
-0.27200001 0.061999999 0.88800001
-0.27039999 0.061999999 0.88800001
-0.26859999 0.061900001 0.88700002
-0.26710001 0.061900001 0.88700002
-0.26550001 0.061900001 0.88700002
-0.264 0.061900001 0.88700002
-0.26190001 0.061700001 0.88499999
-0.26030001 0.061700001 0.88499999
-0.2588 0.061700001 0.88499999
-0.25729999 0.061700001 0.88499999
-0.25569999 0.061700001 0.88499999
-0.25389999 0.061700001 0.884
-0.25240001 0.061700001 0.884
-0.2511 0.061700001 0.88499999
-0.24959999 0.061700001 0.88499999
-0.24779999 0.061700001 0.884
-0.2457 0.061500002 0.88200003
-0.24420001 0.061500002 0.88200003
-0.24259999 0.061500002 0.88200003
-0.24160001 0.061700001 0.884
-0.23980001 0.0616 0.88300002
-0.2383 0.0616 0.88300002
-0.237 0.061700001 0.884
-0.2358 0.061700001 0.88499999
-0.2289 0.061999999 0.88800001
-0.2263 0.062100001 0.88999999
-0.22319999 0.062100001 0.88999999
-0.2217 0.062100001 0.88999999
-0.2201 0.062100001 0.88999999
-0.1912 0.057999998 0.83099997
-0.1895 0.0579 0.82999998
-0.18780001 0.057799999 0.829
-0.1864 0.057799999 0.829
-0.1849 0.057799999 0.829
-0.1831 0.057700001 0.82700002
-0.1816 0.057700001 0.82700002
-0.1804 0.057799999 0.82800001
-0.1794 0.0579 0.82999998
-0.17820001 0.057999998 0.83099997
-0.1767 0.057999998 0.83099997
-0.1753 0.057999998 0.83099997
-0.1741 0.057999998 0.83200002
-0.1726 0.057999998 0.83200002
-0.1714 0.0581 0.833
-0.17 0.0581 0.833
-0.1683 0.057999998 0.83200002
-0.16670001 0.057999998 0.83099997
-0.1652 0.057999998 0.83099997
-0.1638 0.057999998 0.83099997
-0.1622 0.0579 0.82999998
-0.16069999 0.0579 0.82999998
-0.1591 0.057799999 0.829
-0.1576 0.057799999 0.829
-0.15620001 0.057799999 0.829
-0.155 0.0579 0.82999998
-0.15350001 0.0579 0.82999998
-0.1521 0.0579 0.82999998
-0.1505 0.057799999 0.829
-0.149 0.057799999 0.829
-0.1472 0.057700001 0.82700002
-0.14560001 0.057599999 0.82599998
-0.14399999 0.057599999 0.82499999
-0.1426 0.057599999 0.82499999
-0.14120001 0.057599999 0.82499999
-0.1399 0.057599999 0.82599998
-0.13860001 0.057700001 0.82700002
-0.1375 0.057799999 0.829
-0.13500001 0.057999998 0.83099997
-0.13349999 0.057999998 0.83099997
-0.1321 0.057999998 0.83099997
-0.13070001 0.057999998 0.83099997
-0.1292 0.057999998 0.83099997
-0.1278 0.057999998 0.83099997
-0.12630001 0.057999998 0.83099997
-0.1249 0.057999998 0.83099997
-0.1235 0.057999998 0.83099997
-0.122 0.057999998 0.83099997
-0.1206 0.057999998 0.83099997
-0.119 0.0579 0.82999998
-0.1174 0.057799999 0.829
-0.116 0.057799999 0.829
-0.1145 0.057799999 0.829
-0.1132 0.0579 0.82999998
-0.1119 0.057999998 0.83099997
-0.1105 0.057999998 0.83099997
-0.1091 0.057999998 0.83099997
-0.1076 0.057999998 0.83099997
-0.1062 0.057999998 0.83099997
-0.1047 0.057999998 0.83099997
-0.1033 0.057999998 0.83099997
-0.1017 0.0579 0.82999998
-0.1003 0.0579 0.82999998
-0.098899998 0.0579 0.82999998
-0.097400002 0.0579 0.82999998
-0.095899999 0.057799999 0.829
-0.094400004 0.057799999 0.829
-0.093000002 0.057799999 0.829
-0.091600001 0.057799999 0.829
-0.0902 0.0579 0.82999998
-0.088799998 0.0579 0.82999998
-0.087300003 0.0579 0.82999998
-0.085900001 0.0579 0.82999998
-0.0845 0.0579 0.82999998
-0.082900003 0.057799999 0.829
-0.081500001 0.057799999 0.829
-0.079899997 0.057700001 0.82700002
-0.078199998 0.057599999 0.82499999
-0.076800004 0.057599999 0.82499999
-0.075499997 0.057599999 0.82599998
-0.074100003 0.057700001 0.82700002
-0.072800003 0.057799999 0.82800001
-0.071400002 0.057799999 0.829
-0.070100002 0.0579 0.82999998
-0.068700001 0.057999998 0.83099997
-0.067400001 0.057999998 0.83200002
-0.066 0.0581 0.833
-0.064599998 0.058200002 0.83399999
-0.063299999 0.0583 0.83499998
-0.060400002 0.0583 0.83499998
-0.058899999 0.0583 0.83499998
-0.057500001 0.0583 0.83499998
-0.056000002 0.0583 0.83499998
-0.054699998 0.058400001 0.83700001
-0.053300001 0.058499999 0.838
-0.051899999 0.058499999 0.83899999
-0.0506 0.058600001 0.83999997
-0.049199998 0.058699999 0.84100002
-0.047699999 0.058699999 0.84100002
-0.0462 0.058699999 0.84100002
-0.044799998 0.058699999 0.84100002
-0.043299999 0.058699999 0.84100002
-0.041900001 0.058699999 0.84100002
-0.040399998 0.058699999 0.84100002
-0.038899999 0.058600001 0.83999997
-0.0374 0.058600001 0.83999997
-0.035999998 0.058699999 0.84100002
-0.034600001 0.058699999 0.84100002
-0.033100002 0.058699999 0.84100002
-0.0317 0.058699999 0.84100002
-0.030200001 0.058600001 0.83999997
-0.0288 0.058699999 0.84200001
-0.023 0.062799998 0.89999998
-0.021400001 0.062899999 0.90100002
-0.0199 0.062899999 0.90200001
-0.018300001 0.063000001 0.903
-0.016799999 0.062899999 0.90200001
-0.0152 0.062899999 0.90200001
-0.0136 0.062899999 0.90200001
-0.0121 0.062899999 0.90100002
-0.0105 0.062899999 0.90200001
0.0035000001 0.061799999 0.88599998
0.0049999999 0.061700001 0.88499999
0.0066 0.061700001 0.88499999
0.0081000002 0.061700001 0.88499999
0.0097000003 0.061900001 0.88700002
0.0112 0.061900001 0.88700002
0.0127 0.061999999 0.88800001
0.0143 0.062100001 0.88999999
0.015900001 0.0623 0.89300001
0.0175 0.0625 0.89600003
0.019099999 0.062700003 0.898
0.0207 0.062700003 0.898
0.022299999 0.062799998 0.89999998
0.023800001 0.062799998 0.89999998
0.0254 0.062799998 0.89999998
0.026900001 0.062700003 0.898
0.0284 0.062700003 0.898
0.029999999 0.062700003 0.898
0.031599998 0.062799998 0.89999998
0.0396 0.063100003 0.90499997
0.041200001 0.063100003 0.90499997
0.042800002 0.063100003 0.90499997
0.044300001 0.063100003 0.90399998
0.045899998 0.063100003 0.90399998
0.047400001 0.063100003 0.90399998
0.048999999 0.063100003 0.90399998
0.0506 0.063100003 0.90399998
0.052099999 0.063100003 0.90399998
0.053800002 0.063100003 0.90499997
0.055199999 0.063000001 0.903
0.056600001 0.062899999 0.90100002
0.057999998 0.062700003 0.898
0.0594 0.062399998 0.89499998
0.060800001 0.0623 0.89300001
0.0623 0.0623 0.89300001
0.0638 0.062199999 0.89200002
0.065300003 0.062199999 0.89099997
0.066799998 0.062199999 0.89099997
0.068400003 0.062199999 0.89099997
0.069899999 0.062199999 0.89099997
0.071500003 0.062199999 0.89099997
0.072999999 0.062199999 0.89099997
0.0748 0.062399998 0.89399999
0.076499999 0.0625 0.89600003
0.078199998 0.062700003 0.898
0.079999998 0.062799998 0.89999998
0.081600003 0.062899999 0.90100002
0.083400004 0.063000001 0.903
0.085000001 0.063100003 0.90399998
0.0867 0.063100003 0.90499997
0.088299997 0.063100003 0.90499997
0.0898 0.063100003 0.90499997
0.093000002 0.063100003 0.90499997
0.094599999 0.063199997 0.90600002
0.096100003 0.063100003 0.90499997
0.097599998 0.063100003 0.90399998
0.098999999 0.063000001 0.903
0.1007 0.063100003 0.90399998
0.1022 0.063000001 0.903
0.1037 0.063000001 0.903
0.1052 0.062899999 0.90200001
0.1067 0.062899999 0.90200001
0.1084 0.063000001 0.903
0.11 0.063000001 0.903
0.1115 0.063000001 0.903
0.1131 0.063000001 0.903
0.1148 0.063100003 0.90399998
0.1165 0.063100003 0.90499997
0.1181 0.063100003 0.90499997
0.1196 0.063100003 0.90499997
0.1212 0.063100003 0.90499997
0.1226 0.063100003 0.90399998
0.1241 0.063000001 0.903
0.1251 0.062700003 0.89899999
0.1258 0.0623 0.89300001
0.12710001 0.062199999 0.89099997
0.1286 0.062199999 0.89099997
0.132 0.0623 0.89300001
0.1338 0.062399998 0.89499998
0.1371 0.0625 0.89600003
0.1388 0.062600002 0.89700001
0.1417 0.0625 0.89600003
0.14309999 0.062399998 0.89499998
0.1445 0.062399998 0.89399999
0.1462 0.062399998 0.89499998
0.1478 0.062399998 0.89499998
0.1495 0.0625 0.89600003
0.1514 0.062700003 0.898
0.1531 0.062700003 0.89899999
0.1549 0.062799998 0.89999998
0.1566 0.062899999 0.90100002
0.1583 0.062899999 0.90200001
0.1601 0.063000001 0.903
0.16150001 0.062899999 0.90200001
0.163 0.062899999 0.90200001
0.1646 0.062899999 0.90200001
0.1663 0.063000001 0.903
0.1681 0.063100003 0.90399998
0.1696 0.063100003 0.90399998
0.1714 0.063100003 0.90499997
0.1733 0.063299999 0.90700001
0.1749 0.063299999 0.90700001
0.1763 0.063199997 0.90600002
0.1779 0.063199997 0.90600002
0.17919999 0.063100003 0.90499997
0.18080001 0.063100003 0.90499997
0.1824 0.063100003 0.90499997
0.18350001 0.063000001 0.903
0.1855 0.063100003 0.90499997
0.18709999 0.063100003 0.90499997
0.1893 0.0634 0.90799999
-0.3793 0.062899999 0.88
-0.37740001 0.062899999 0.87900001
-0.35609999 0.062899999 0.87900001
-0.35530001 0.063000001 0.88099998
-0.34079999 0.063100003 0.88300002
-0.33970001 0.063199997 0.884
-0.3382 0.063199997 0.884
-0.33700001 0.063299999 0.88499999
-0.3355 0.063299999 0.88499999
-0.33430001 0.0634 0.88599998
-0.3328 0.0634 0.88599998
-0.33160001 0.0634 0.88700002
-0.33050001 0.063500002 0.88800001
-0.32890001 0.063500002 0.88800001
-0.3274 0.063500002 0.88800001
-0.3258 0.063500002 0.88800001
-0.32390001 0.0634 0.88700002
-0.3197 0.063500002 0.88800001
-0.31850001 0.063600004 0.889
-0.31659999 0.063500002 0.88800001
-0.31580001 0.063600004 0.88999999
-0.31220001 0.063900001 0.89300001
-0.3114 0.064000003 0.89499998
-0.31009999 0.064099997 0.89600003
-0.30860001 0.064099997 0.89600003
-0.30700001 0.064099997 0.89600003
-0.30579999 0.064099997 0.89700001
-0.30430001 0.064099997 0.89700001
-0.29910001 0.063699998 0.89099997
-0.29730001 0.063600004 0.88999999
-0.29570001 0.063600004 0.88999999
-0.29390001 0.063600004 0.889
-0.292 0.063500002 0.88800001
-0.29010001 0.0634 0.88700002
-0.2791 0.063699998 0.89099997
-0.27779999 0.0638 0.89200002
-0.27599999 0.063699998 0.89099997
-0.27410001 0.063600004 0.88999999
-0.2726 0.063600004 0.88999999
-0.264 0.0634 0.88700002
-0.25729999 0.063299999 0.88499999
-0.25569999 0.063299999 0.88499999
-0.25389999 0.063199997 0.884
-0.25240001 0.063199997 0.884
-0.25080001 0.063199997 0.884
-0.2493 0.063199997 0.884
-0.2472 0.063100003 0.88200003
-0.2454 0.063000001 0.88099998
-0.2439 0.063000001 0.88099998
-0.24240001 0.063000001 0.88099998
-0.2414 0.063100003 0.88300002
-0.23980001 0.063100003 0.88300002
-0.2386 0.063199997 0.884
-0.237 0.063199997 0.884
-0.2358 0.063299999 0.88499999
-0.23019999 0.0634 0.88700002
-0.2289 0.063500002 0.88800001
-0.2263 0.063600004 0.88999999
-0.2217 0.063600004 0.88999999
-0.1912 0.0594 0.83099997
-0.1895 0.059300002 0.82999998
-0.18780001 0.059300002 0.829
-0.1864 0.059300002 0.829
-0.1849 0.059300002 0.829
-0.1833 0.0592 0.82800001
-0.18189999 0.0592 0.82800001
-0.1804 0.0592 0.82800001
-0.1794 0.059300002 0.82999998
-0.17820001 0.0594 0.83099997
-0.1767 0.0594 0.83099997
-0.17550001 0.059500001 0.83200002
-0.1741 0.059500001 0.83200002
-0.1728 0.059599999 0.833
-0.1716 0.059599999 0.83399999
-0.17020001 0.059599999 0.83399999
-0.16850001 0.059599999 0.833
-0.16689999 0.059500001 0.83200002
-0.1652 0.0594 0.83099997
-0.1636 0.059300002 0.82999998
-0.162 0.059300002 0.829
-0.15889999 0.0592 0.82800001
-0.1575 0.0592 0.82800001
-0.15620001 0.059300002 0.829
-0.1548 0.059300002 0.829
-0.15350001 0.059300002 0.82999998
-0.1521 0.059300002 0.82999998
-0.1505 0.059300002 0.829
-0.149 0.059300002 0.829
-0.14740001 0.0592 0.82800001
-0.14560001 0.059099998 0.82599998
-0.14380001 0.058899999 0.824
-0.14219999 0.058800001 0.82300001
-0.1408 0.058800001 0.82300001
-0.13959999 0.058899999 0.824
-0.13850001 0.059099998 0.82599998
-0.1372 0.059099998 0.82700002
-0.1363 0.059300002 0.82999998
-0.13500001 0.0594 0.83099997
-0.13349999 0.0594 0.83099997
-0.1321 0.0594 0.83099997
-0.13070001 0.0594 0.83099997
-0.12909999 0.059300002 0.82999998
-0.1276 0.059300002 0.82999998
-0.12620001 0.059300002 0.82999998
-0.1247 0.059300002 0.82999998
-0.1235 0.0594 0.83099997
-0.122 0.0594 0.83099997
-0.1206 0.0594 0.83099997
-0.1191 0.0594 0.83099997
-0.1176 0.059300002 0.82999998
-0.1163 0.0594 0.83099997
-0.1148 0.0594 0.83099997
-0.1135 0.059500001 0.83200002
-0.1122 0.059599999 0.833
-0.1106 0.059500001 0.83200002
-0.1092 0.059500001 0.83200002
-0.1077 0.059500001 0.83200002
-0.1063 0.059500001 0.83200002
-0.1047 0.0594 0.83099997
-0.1033 0.0594 0.83099997
-0.1019 0.0594 0.83099997
-0.1004 0.0594 0.83099997
-0.098999999 0.0594 0.83099997
-0.097499996 0.0594 0.83099997
-0.096100003 0.0594 0.83099997
-0.094499998 0.059300002 0.82999998
-0.093099996 0.059300002 0.82999998
-0.091700003 0.059300002 0.82999998
-0.0902 0.059300002 0.82999998
-0.0889 0.0594 0.83099997
-0.087300003 0.059300002 0.82999998
-0.085900001 0.059300002 0.82999998
-0.0845 0.059300002 0.82999998
-0.082900003 0.059300002 0.829
-0.0814 0.0592 0.82800001
-0.079800002 0.059099998 0.82599998
-0.078199998 0.059 0.82499999
-0.076800004 0.059 0.82499999
-0.075499997 0.059099998 0.82599998
-0.074199997 0.0592 0.82800001
-0.072800003 0.0592 0.82800001
-0.071400002 0.059300002 0.829
-0.070100002 0.059300002 0.82999998
-0.068700001 0.0594 0.83099997
-0.067400001 0.059500001 0.83200002
-0.066 0.059599999 0.833
-0.064599998 0.059599999 0.83399999
-0.063299999 0.059700001 0.83499998
-0.061900001 0.059799999 0.83600003
-0.060400002 0.059700001 0.83499998
-0.057500001 0.059700001 0.83499998
-0.056000002 0.059700001 0.83499998
-0.054699998 0.059799999 0.83600003
-0.053300001 0.059900001 0.838
-0.051899999 0.059999999 0.83899999
-0.0506 0.0601 0.83999997
-0.049199998 0.060199998 0.84200001
-0.047800001 0.060199998 0.84200001
-0.046300001 0.060199998 0.84200001
-0.0449 0.0603 0.84299999
-0.043299999 0.0601 0.84100002
-0.041900001 0.060199998 0.84200001
-0.0405 0.060199998 0.84200001
-0.038899999 0.0601 0.84100002
-0.037500001 0.0601 0.84100002
-0.035999998 0.0601 0.84100002
-0.034600001 0.0601 0.84100002
-0.033199999 0.060199998 0.84200001
-0.0317 0.0601 0.84100002
-0.030200001 0.0601 0.84100002
-0.0288 0.0603 0.84299999
-0.024499999 0.064199999 0.898
-0.023 0.064400002 0.89999998
-0.021400001 0.064400002 0.89999998
-0.0199 0.064400002 0.90100002
-0.018300001 0.064400002 0.90100002
-0.0167 0.064400002 0.90100002
-0.0152 0.064400002 0.90100002
-0.0136 0.064400002 0.90100002
-0.0121 0.064400002 0.90100002
-0.0105 0.064499997 0.90200001
-0.0088999998 0.064499997 0.90200001
0.0035000001 0.063600004 0.889
0.0049999999 0.0634 0.88700002
0.0066 0.0634 0.88700002
0.0081000002 0.0634 0.88700002
0.0097000003 0.0634 0.88700002
0.0112 0.0634 0.88700002
0.0127 0.063500002 0.88800001
0.0143 0.063600004 0.88999999
0.015900001 0.063699998 0.89099997
0.0175 0.063900001 0.89399999
0.019099999 0.064099997 0.89600003
0.0206 0.064099997 0.89700001
0.0222 0.064300001 0.89899999
0.023800001 0.064400002 0.89999998
0.0254 0.064400002 0.89999998
0.026900001 0.064400002 0.89999998
0.0285 0.064300001 0.89899999
0.030099999 0.064400002 0.89999998
0.031599998 0.064400002 0.89999998
0.0348 0.064499997 0.90200001
0.036400001 0.064599998 0.903
0.037999999 0.064599998 0.90399998
0.0396 0.0647 0.90499997
0.041200001 0.0647 0.90499997
0.042800002 0.0647 0.90499997
0.044399999 0.0647 0.90499997
0.045899998 0.0647 0.90499997
0.047400001 0.064599998 0.90399998
0.048999999 0.064599998 0.90399998
0.0506 0.064599998 0.90399998
0.052200001 0.0647 0.90499997
0.053800002 0.0647 0.90499997
0.055199999 0.064599998 0.903
0.056600001 0.064400002 0.90100002
0.0581 0.064400002 0.89999998
0.0594 0.064099997 0.89600003
0.060899999 0.064000003 0.89499998
0.0623 0.063900001 0.89300001
0.0638 0.0638 0.89200002
0.065300003 0.063699998 0.89099997
0.066799998 0.063699998 0.89099997
0.068300001 0.063600004 0.88999999
0.069899999 0.063699998 0.89099997
0.071500003 0.063699998 0.89099997
0.072999999 0.063699998 0.89099997
0.0748 0.063900001 0.89399999
0.076499999 0.064099997 0.89600003
0.078199998 0.064199999 0.898
0.079899997 0.064300001 0.89899999
0.081500001 0.064400002 0.89999998
0.0832 0.064400002 0.90100002
0.084899999 0.064599998 0.903
0.086499996 0.064599998 0.903
0.088200003 0.064599998 0.90399998
0.0898 0.0647 0.90499997
0.091399997 0.0647 0.90499997
0.093000002 0.0647 0.90499997
0.094499998 0.0647 0.90499997
0.096100003 0.0647 0.90499997
0.097599998 0.064599998 0.90399998
0.099200003 0.0647 0.90499997
0.1008 0.0647 0.90499997
0.1023 0.064599998 0.90399998
0.104 0.0647 0.90499997
0.1053 0.064599998 0.903
0.1069 0.064599998 0.903
0.1085 0.064599998 0.90399998
0.1101 0.064599998 0.90399998
0.1117 0.064599998 0.90399998
0.1132 0.064599998 0.90399998
0.1149 0.0647 0.90499997
0.1165 0.0647 0.90499997
0.1181 0.0647 0.90499997
0.1196 0.0647 0.90499997
0.1212 0.0647 0.90499997
0.1226 0.064599998 0.90399998
0.1241 0.064599998 0.903
0.1252 0.064400002 0.89999998
0.1261 0.064000003 0.89499998
0.12720001 0.0638 0.89200002
0.1286 0.063699998 0.89099997
0.1301 0.063699998 0.89099997
0.1337 0.063900001 0.89399999
0.13850001 0.064000003 0.89499998
0.14 0.064000003 0.89499998
0.1428 0.063900001 0.89300001
0.1442 0.0638 0.89200002
0.1459 0.063900001 0.89300001
0.1478 0.064000003 0.89499998
0.1495 0.064099997 0.89600003
0.1512 0.064099997 0.89700001
0.1533 0.064400002 0.89999998
0.155 0.064400002 0.90100002
0.1566 0.064400002 0.90100002
0.1585 0.064599998 0.903
0.1601 0.064599998 0.903
0.16150001 0.064499997 0.90200001
0.163 0.064499997 0.90200001
0.1646 0.064499997 0.90200001
0.1663 0.064599998 0.903
0.1681 0.064599998 0.90399998
0.1696 0.064599998 0.90399998
0.1714 0.0647 0.90499997
0.1733 0.064900003 0.90700001
0.1751 0.064900003 0.90799999
0.1767 0.064900003 0.90799999
0.1781 0.064900003 0.90700001
0.1794 0.064800002 0.90600002
0.18099999 0.064800002 0.90600002
0.18260001 0.064800002 0.90600002
0.1839 0.0647 0.90499997
0.1855 0.0647 0.90499997
0.1875 0.064900003 0.90700001
0.18970001 0.065099999 0.91000003
0.1919 0.065300003 0.91299999
-0.37889999 0.064400002 0.87900001
-0.377 0.064300001 0.87800002
-0.35569999 0.064300001 0.87800002
-0.34009999 0.064800002 0.88499999
-0.3362 0.064999998 0.88700002
-0.33469999 0.064999998 0.88700002
-0.33320001 0.064999998 0.88700002
-0.33199999 0.064999998 0.88800001
-0.3308 0.065099999 0.889
-0.32890001 0.064999998 0.88800001
-0.3258 0.064999998 0.88800001
-0.32280001 0.064999998 0.88800001
-0.32089999 0.064999998 0.88700002
-0.3197 0.064999998 0.88800001
-0.31299999 0.065300003 0.89099997
-0.3114 0.065499999 0.89499998
-0.31009999 0.0656 0.89600003
-0.3082 0.065499999 0.89499998
-0.301 0.065300003 0.89200002
-0.29879999 0.065200001 0.88999999
-0.29660001 0.064999998 0.88800001
-0.2951 0.064999998 0.88800001
-0.29350001 0.064999998 0.88800001
-0.292 0.064999998 0.88800001
-0.29010001 0.064999998 0.88700002
-0.28580001 0.064999998 0.88800001
-0.2843 0.064999998 0.88800001
-0.28279999 0.064999998 0.88800001
-0.28119999 0.064999998 0.88800001
-0.28029999 0.065200001 0.88999999
-0.28029999 0.065499999 0.89499998
-0.27970001 0.065800004 0.898
-0.2775 0.0656 0.89600003
-0.25729999 0.064800002 0.88499999
-0.2554 0.0647 0.884
-0.25389999 0.0647 0.884
-0.25240001 0.0647 0.884
-0.25060001 0.0647 0.88300002
-0.2493 0.0647 0.884
-0.2475 0.0647 0.88300002
-0.2457 0.064599998 0.88200003
-0.24439999 0.0647 0.88300002
-0.2432 0.0647 0.884
-0.24160001 0.0647 0.884
-0.2401 0.0647 0.884
-0.23729999 0.064800002 0.88499999
-0.2348 0.064999998 0.88700002
-0.2332 0.064999998 0.88700002
-0.2304 0.064999998 0.88800001
-0.2289 0.064999998 0.88800001
-0.22759999 0.065099999 0.889
-0.2212 0.064999998 0.88800001
-0.1912 0.060899999 0.83099997
-0.1895 0.060800001 0.82999998
-0.18799999 0.060800001 0.82999998
-0.1866 0.060800001 0.82999998
-0.18520001 0.060800001 0.82999998
-0.18350001 0.060699999 0.829
-0.1821 0.060699999 0.829
-0.1806 0.060699999 0.829
-0.1794 0.060800001 0.82999998
-0.17820001 0.060899999 0.83099997
-0.1767 0.060899999 0.83099997
-0.1753 0.060899999 0.83099997
-0.1741 0.060899999 0.83200002
-0.1728 0.061000001 0.833
-0.1716 0.061099999 0.83399999
-0.17020001 0.061099999 0.83399999
-0.16850001 0.061000001 0.833
-0.16689999 0.060899999 0.83200002
-0.1652 0.060899999 0.83099997
-0.1636 0.060800001 0.82999998
-0.15889999 0.060600001 0.82800001
-0.1575 0.060600001 0.82800001
-0.15620001 0.060699999 0.829
-0.1548 0.060699999 0.829
-0.15350001 0.060800001 0.82999998
-0.1521 0.060800001 0.82999998
-0.1505 0.060699999 0.829
-0.149 0.060699999 0.829
-0.1472 0.060600001 0.82700002
-0.1454 0.060400002 0.82499999
-0.1437 0.0603 0.82300001
-0.1419 0.0601 0.82099998
-0.14049999 0.0601 0.82099998
-0.139 0.0601 0.82099998
-0.138 0.0603 0.82300001
-0.13609999 0.060699999 0.829
-0.1348 0.060800001 0.82999998
-0.13349999 0.060899999 0.83099997
-0.1321 0.060899999 0.83099997
-0.13070001 0.060899999 0.83099997
-0.12909999 0.060800001 0.82999998
-0.1276 0.060800001 0.82999998
-0.12620001 0.060800001 0.82999998
-0.1247 0.060800001 0.82999998
-0.1233 0.060800001 0.82999998
-0.1219 0.060800001 0.82999998
-0.1204 0.060800001 0.82999998
-0.1189 0.060699999 0.829
-0.1173 0.060600001 0.82800001
-0.116 0.060699999 0.829
-0.1148 0.060899999 0.83099997
-0.1135 0.060899999 0.83200002
-0.1122 0.061000001 0.833
-0.1108 0.061000001 0.833
-0.1092 0.060899999 0.83200002
-0.1077 0.060899999 0.83200002
-0.1063 0.060899999 0.83200002
-0.1049 0.060899999 0.83200002
-0.1033 0.060899999 0.83099997
-0.1019 0.060899999 0.83099997
-0.1004 0.060899999 0.83099997
-0.099100001 0.060899999 0.83200002
-0.097499996 0.060899999 0.83099997
-0.096100003 0.060899999 0.83099997
-0.094700001 0.060899999 0.83099997
-0.093199998 0.060899999 0.83099997
-0.091700003 0.060800001 0.82999998
-0.0902 0.060800001 0.82999998
-0.088799998 0.060800001 0.82999998
-0.087300003 0.060800001 0.82999998
-0.0858 0.060699999 0.829
-0.084399998 0.060699999 0.829
-0.082800001 0.060600001 0.82800001
-0.081299998 0.060600001 0.82700002
-0.078199998 0.060400002 0.82499999
-0.076899998 0.0605 0.82599998
-0.075599998 0.060600001 0.82700002
-0.074199997 0.060600001 0.82800001
-0.072899997 0.060699999 0.829
-0.071400002 0.060699999 0.829
-0.070100002 0.060800001 0.82999998
-0.068700001 0.060899999 0.83099997
-0.067400001 0.060899999 0.83200002
-0.066 0.061000001 0.833
-0.064599998 0.061099999 0.83399999
-0.063299999 0.0612 0.83499998
-0.061900001 0.0612 0.83600003
-0.0603 0.061099999 0.83399999
-0.058899999 0.061099999 0.83399999
-0.057399999 0.061099999 0.83399999
-0.056000002 0.061099999 0.83399999
-0.0546 0.0612 0.83499998
-0.053300001 0.061299998 0.83700001
-0.051899999 0.0614 0.838
-0.050500002 0.0614 0.83899999
-0.0491 0.061500002 0.83999997
-0.047699999 0.0616 0.84100002
-0.0462 0.0616 0.84100002
-0.044799998 0.0616 0.84100002
-0.043299999 0.0616 0.84100002
-0.041900001 0.0616 0.84100002
-0.040399998 0.0616 0.84100002
-0.038899999 0.061500002 0.83999997
-0.0374 0.061500002 0.83999997
-0.035999998 0.0616 0.84100002
-0.034600001 0.0616 0.84100002
-0.033199999 0.061700001 0.84200001
-0.0317 0.061700001 0.84200001
-0.030300001 0.061700001 0.84299999
-0.0288 0.061799999 0.84399998
-0.025800001 0.065300003 0.89099997
-0.0244 0.0656 0.89600003
-0.023 0.065899998 0.89999998
-0.021400001 0.065899998 0.89999998
-0.0199 0.066 0.90100002
-0.018300001 0.066100001 0.90200001
-0.016799999 0.066100001 0.90200001
-0.0152 0.066100001 0.90200001
-0.0136 0.066100001 0.90200001
-0.0121 0.066100001 0.90200001
-0.0105 0.066100001 0.903
-0.0089999996 0.066200003 0.90399998
-0.0074 0.066299997 0.90499997
-0.0057999999 0.066299997 0.90499997
-0.0043000001 0.066299997 0.90499997
-0.0027000001 0.066299997 0.90499997
-0.0011 0.066100001 0.903
0.00039999999 0.065899998 0.89999998
0.0020000001 0.0656 0.89600003
0.0035000001 0.065300003 0.89200002
0.0051000002 0.065200001 0.88999999
0.0066 0.064999998 0.88800001
0.0081000002 0.064999998 0.88800001
0.0097000003 0.064999998 0.88800001
0.0112 0.064999998 0.88800001
0.0128 0.065099999 0.889
0.0143 0.065200001 0.88999999
0.015900001 0.065300003 0.89099997
0.0175 0.065399997 0.89300001
0.018999999 0.065499999 0.89399999
0.0206 0.065499999 0.89499998
0.0222 0.065800004 0.898
0.023800001 0.065800004 0.89899999
0.0254 0.065899998 0.89999998
0.026900001 0.065899998 0.89999998
0.0285 0.065899998 0.89999998
0.030099999 0.065899998 0.89999998
0.0317 0.066 0.90100002
0.033199999 0.066 0.90100002
0.034899998 0.066100001 0.903
0.036400001 0.066100001 0.903
0.0396 0.066200003 0.90399998
0.041200001 0.066200003 0.90399998
0.044300001 0.066100001 0.903
0.0458 0.066100001 0.903
0.047400001 0.066100001 0.903
0.048900001 0.066100001 0.903
0.050500002 0.066100001 0.903
0.052099999 0.066200003 0.90399998
0.053800002 0.066299997 0.90499997
0.055199999 0.066100001 0.903
0.056699999 0.066100001 0.90200001
0.058200002 0.066 0.90100002
0.059700001 0.065899998 0.89999998
0.061099999 0.065800004 0.898
0.0625 0.0656 0.89600003
0.064000003 0.065499999 0.89499998
0.065399997 0.065399997 0.89300001
0.066799998 0.065300003 0.89099997
0.068300001 0.065200001 0.88999999
0.069899999 0.065300003 0.89099997
0.071500003 0.065300003 0.89099997
0.073100001 0.065300003 0.89200002
0.075000003 0.0656 0.89600003
0.076700002 0.065800004 0.898
0.078299999 0.065800004 0.89899999
0.079999998 0.065899998 0.89999998
0.081600003 0.066 0.90100002
0.0832 0.066 0.90100002
0.084899999 0.066100001 0.903
0.086499996 0.066100001 0.903
0.088100001 0.066100001 0.903
0.089699998 0.066200003 0.90399998
0.091300003 0.066200003 0.90399998
0.092900001 0.066200003 0.90399998
0.094499998 0.066299997 0.90499997
0.096000001 0.066200003 0.90399998
0.097499996 0.066100001 0.903
0.099100001 0.066200003 0.90399998
0.1008 0.066299997 0.90499997
0.1023 0.066200003 0.90399998
0.104 0.066299997 0.90499997
0.1053 0.066100001 0.903
0.1071 0.066299997 0.90499997
0.1087 0.066299997 0.90499997
0.1102 0.066299997 0.90499997
0.1117 0.066200003 0.90399998
0.1132 0.066200003 0.90399998
0.1165 0.066299997 0.90499997
0.1181 0.066299997 0.90499997
0.1196 0.066299997 0.90499997
0.1212 0.066299997 0.90499997
0.1226 0.066200003 0.90399998
0.1242 0.066200003 0.90399998
0.12540001 0.066 0.90100002
0.1265 0.065800004 0.898
0.1275 0.065499999 0.89399999
0.1286 0.065300003 0.89099997
0.1304 0.065399997 0.89300001
0.1323 0.065499999 0.89499998
0.1459 0.065399997 0.89300001
0.1478 0.065499999 0.89499998
0.14929999 0.065499999 0.89499998
0.1512 0.065700002 0.89700001
0.1533 0.065899998 0.89999998
0.155 0.066 0.90100002
0.1566 0.066 0.90100002
0.1585 0.066100001 0.903
0.1601 0.066100001 0.903
0.16159999 0.066100001 0.903
0.163 0.066100001 0.90200001
0.1646 0.066100001 0.90200001
0.1663 0.066100001 0.903
0.1683 0.066299997 0.90499997
0.1698 0.066299997 0.90499997
0.1718 0.066399999 0.90700001
0.1735 0.066500001 0.90799999
0.1753 0.066600002 0.90899998
0.1767 0.066500001 0.90799999
0.17829999 0.066500001 0.90799999
0.1796 0.066399999 0.90700001
0.1812 0.066399999 0.90700001
0.1824 0.066299997 0.90499997
0.1839 0.066299997 0.90499997
0.1855 0.066299997 0.90499997
0.1875 0.066399999 0.90700001
0.1901 0.066799998 0.912
0.19230001 0.067000002 0.91500002
-0.37850001 0.065800004 0.87800002
-0.3761 0.065700002 0.87599999
-0.33970001 0.066600002 0.88800001
-0.3382 0.066600002 0.88800001
-0.3312 0.066699997 0.88999999
-0.32969999 0.066699997 0.88999999
-0.32659999 0.066699997 0.88999999
-0.3247 0.066600002 0.889
-0.3231 0.066600002 0.889
-0.32159999 0.066600002 0.889
-0.3204 0.066699997 0.88999999
-0.31920001 0.066799998 0.89099997
-0.31729999 0.066699997 0.88999999
-0.31220001 0.0669 0.89300001
-0.3107 0.0669 0.89300001
-0.3091 0.0669 0.89300001
-0.30599999 0.0669 0.89300001
-0.30450001 0.0669 0.89300001
-0.3026 0.0669 0.89200002
-0.29809999 0.066600002 0.88800001
-0.29660001 0.066600002 0.88800001
-0.2947 0.066500001 0.88700002
-0.29319999 0.066500001 0.88700002
-0.29170001 0.066500001 0.88700002
-0.28459999 0.066600002 0.889
-0.2834 0.066699997 0.88999999
-0.2818 0.066699997 0.88999999
-0.28029999 0.066699997 0.88999999
-0.28029999 0.067100003 0.89499998
-0.27939999 0.067199998 0.89700001
-0.2775 0.067199998 0.89600003
-0.25729999 0.066299997 0.88499999
-0.25569999 0.066299997 0.88499999
-0.25389999 0.066299997 0.884
-0.25240001 0.066299997 0.884
-0.25080001 0.066299997 0.884
-0.2493 0.066299997 0.884
-0.24779999 0.066299997 0.884
-0.24600001 0.066200003 0.88300002
-0.24439999 0.066200003 0.88300002
-0.2429 0.066200003 0.88300002
-0.24160001 0.066299997 0.884
-0.2401 0.066299997 0.884
-0.2388 0.066299997 0.88499999
-0.23729999 0.066299997 0.88499999
-0.23630001 0.066500001 0.88700002
-0.2348 0.066500001 0.88700002
-0.2335 0.066600002 0.88800001
-0.23199999 0.066600002 0.88800001
-0.2304 0.066600002 0.88800001
-0.2289 0.066600002 0.88800001
-0.2273 0.066600002 0.88800001
-0.22579999 0.066600002 0.88800001
-0.2227 0.066600002 0.88800001
-0.1971 0.062399998 0.83200002
-0.1957 0.062399998 0.83200002
-0.1943 0.062399998 0.83200002
-0.1926 0.0623 0.83099997
-0.1912 0.0623 0.83099997
-0.1895 0.062199999 0.82999998
-0.18799999 0.062199999 0.82999998
-0.1866 0.062199999 0.82999998
-0.18539999 0.0623 0.83099997
-0.1837 0.062199999 0.82999998
-0.1823 0.062199999 0.82999998
-0.1806 0.062199999 0.829
-0.1794 0.062199999 0.82999998
-0.17820001 0.0623 0.83099997
-0.1767 0.0623 0.83099997
-0.1753 0.0623 0.83099997
-0.1741 0.062399998 0.83200002
-0.1726 0.062399998 0.83200002
-0.1716 0.0625 0.83399999
-0.17020001 0.0625 0.83399999
-0.1683 0.062399998 0.83200002
-0.16670001 0.0623 0.83099997
-0.1652 0.0623 0.83099997
-0.16339999 0.062199999 0.829
-0.162 0.062199999 0.829
-0.1603 0.062100001 0.82800001
-0.15889999 0.062100001 0.82800001
-0.1575 0.062100001 0.82800001
-0.15620001 0.062199999 0.829
-0.155 0.062199999 0.82999998
-0.15350001 0.062199999 0.82999998
-0.1521 0.062199999 0.82999998
-0.1506 0.062199999 0.82999998
-0.14920001 0.062199999 0.82999998
-0.1476 0.062199999 0.829
-0.14560001 0.061900001 0.82599998
-0.14380001 0.061799999 0.824
-0.14210001 0.0616 0.82200003
-0.139 0.0616 0.82099998
-0.1381 0.061799999 0.824
-0.13699999 0.061900001 0.82599998
-0.1348 0.062199999 0.82999998
-0.13349999 0.0623 0.83099997
-0.1321 0.0623 0.83099997
-0.13070001 0.0623 0.83099997
-0.12909999 0.062199999 0.82999998
-0.1276 0.062199999 0.82999998
-0.12620001 0.062199999 0.82999998
-0.1247 0.062199999 0.82999998
-0.1233 0.062199999 0.82999998
-0.1217 0.062199999 0.829
-0.1201 0.062100001 0.82800001
-0.1187 0.062100001 0.82800001
-0.1173 0.062100001 0.82800001
-0.1161 0.062199999 0.82999998
-0.1148 0.0623 0.83099997
-0.1135 0.062399998 0.83200002
-0.1123 0.0625 0.83399999
-0.1108 0.0625 0.833
-0.1093 0.0625 0.833
-0.1079 0.0625 0.833
-0.1064 0.0625 0.833
-0.105 0.0625 0.833
-0.1034 0.062399998 0.83200002
-0.102 0.062399998 0.83200002
-0.1005 0.062399998 0.83200002
-0.099100001 0.062399998 0.83200002
-0.0977 0.062399998 0.83200002
-0.096199997 0.062399998 0.83200002
-0.094700001 0.0623 0.83099997
-0.093199998 0.0623 0.83099997
-0.091700003 0.062199999 0.82999998
-0.0902 0.062199999 0.82999998
-0.088799998 0.062199999 0.82999998
-0.084299996 0.062100001 0.82800001
-0.082800001 0.062100001 0.82800001
-0.079899997 0.061999999 0.82700002
-0.078400001 0.061999999 0.82700002
-0.077 0.061999999 0.82700002
-0.0757 0.062199999 0.829
-0.074299999 0.062199999 0.829
-0.072899997 0.062199999 0.829
-0.071400002 0.062199999 0.829
-0.070100002 0.062199999 0.82999998
-0.068700001 0.0623 0.83099997
-0.067400001 0.062399998 0.83200002
-0.066 0.0625 0.833
-0.064599998 0.0625 0.833
-0.063199997 0.0625 0.83399999
-0.061799999 0.0625 0.83399999
-0.060199998 0.0625 0.833
-0.058800001 0.0625 0.833
-0.057300001 0.0625 0.833
-0.056000002 0.0625 0.83399999
-0.0546 0.062600002 0.83499998
-0.053300001 0.062799998 0.83700001
-0.051800001 0.062799998 0.83700001
-0.0504 0.062799998 0.838
-0.048999999 0.062899999 0.83899999
-0.047600001 0.063000001 0.83999997
-0.0462 0.063100003 0.84100002
-0.044799998 0.063100003 0.84100002
-0.043299999 0.063000001 0.83999997
-0.041900001 0.063100003 0.84100002
-0.040399998 0.063100003 0.84100002
-0.038899999 0.063000001 0.83999997
-0.0374 0.063000001 0.83999997
-0.035999998 0.063000001 0.83999997
-0.034499999 0.063000001 0.83999997
-0.033100002 0.063100003 0.84100002
-0.0317 0.063100003 0.84200001
-0.030300001 0.063199997 0.84299999
-0.028899999 0.0634 0.84500003
-0.025800001 0.066799998 0.89099997
-0.0244 0.067199998 0.89600003
-0.0229 0.067400001 0.89899999
-0.021400001 0.067500003 0.89999998
-0.0199 0.067500003 0.90100002
-0.018300001 0.067500003 0.90100002
-0.016799999 0.067599997 0.90200001
-0.0152 0.067500003 0.90100002
-0.0136 0.067599997 0.90200001
-0.0121 0.067699999 0.903
-0.0105 0.067699999 0.903
-0.0089999996 0.0678 0.90499997
-0.0074 0.0678 0.90499997
-0.0057999999 0.0678 0.90499997
-0.0043000001 0.0678 0.90499997
-0.0027000001 0.0678 0.90499997
-0.0011 0.067699999 0.903
0.00039999999 0.067599997 0.90200001
0.0020000001 0.067500003 0.89999998
0.0035000001 0.067199998 0.89700001
0.0051000002 0.067000002 0.89399999
0.0066 0.066799998 0.89099997
0.0081000002 0.066799998 0.89099997
0.0097000003 0.066799998 0.89099997
0.0112 0.066799998 0.89099997
0.0128 0.066799998 0.89099997
0.0143 0.066799998 0.89099997
0.015900001 0.0669 0.89300001
0.0175 0.0669 0.89300001
0.018999999 0.067000002 0.89399999
0.0206 0.067100003 0.89499998
0.0222 0.067199998 0.89600003
0.023800001 0.067199998 0.89700001
0.0253 0.067299999 0.898
0.026900001 0.067299999 0.898
0.0285 0.067400001 0.89899999
0.030099999 0.067500003 0.89999998
0.031599998 0.067500003 0.89999998
0.033199999 0.067500003 0.90100002
0.0348 0.067599997 0.90200001
0.036400001 0.067699999 0.903
0.037999999 0.067699999 0.903
0.0396 0.067699999 0.903
0.041200001 0.0678 0.90399998
0.0427 0.067699999 0.903
0.0458 0.067699999 0.903
0.048900001 0.067699999 0.903
0.050500002 0.067599997 0.90200001
0.052099999 0.067699999 0.903
0.0537 0.0678 0.90399998
0.055199999 0.067699999 0.903
0.0568 0.067699999 0.903
0.0583 0.067699999 0.903
0.059799999 0.067599997 0.90200001
0.061299998 0.067500003 0.90100002
0.062799998 0.067500003 0.89999998
0.064400002 0.067500003 0.89999998
0.065899998 0.067400001 0.89899999
0.067400001 0.067299999 0.898
0.068800002 0.067199998 0.89600003
0.070299998 0.067199998 0.89600003
0.071900003 0.067199998 0.89600003
0.073600002 0.067299999 0.898
0.075300001 0.067500003 0.89999998
0.077 0.067599997 0.90200001
0.078500003 0.067500003 0.90100002
0.080200002 0.067599997 0.90200001
0.081799999 0.067699999 0.903
0.083400004 0.067699999 0.903
0.085000001 0.0678 0.90399998
0.086499996 0.067699999 0.903
0.088100001 0.067699999 0.903
0.089699998 0.0678 0.90399998
0.091399997 0.0678 0.90499997
0.092900001 0.0678 0.90399998
0.094400004 0.0678 0.90399998
0.095899999 0.067699999 0.903
0.097499996 0.067699999 0.903
0.099100001 0.0678 0.90399998
0.1008 0.0678 0.90499997
0.1023 0.0678 0.90399998
0.1038 0.0678 0.90399998
0.1054 0.0678 0.90399998
0.1071 0.0678 0.90499997
0.1087 0.0678 0.90499997
0.1102 0.0678 0.90499997
0.1117 0.0678 0.90399998
0.1131 0.067699999 0.903
0.1147 0.067699999 0.903
0.1165 0.0678 0.90499997
0.1179 0.0678 0.90399998
0.1196 0.0678 0.90499997
0.1211 0.0678 0.90399998
0.1226 0.0678 0.90399998
0.1241 0.067699999 0.903
0.12549999 0.067599997 0.90200001
0.1265 0.067299999 0.898
0.1275 0.067000002 0.89399999
0.1286 0.066799998 0.89099997
0.1301 0.066799998 0.89099997
0.1323 0.067100003 0.89499998
0.1338 0.067100003 0.89499998
0.1371 0.067199998 0.89600003
0.14139999 0.067000002 0.89399999
0.1428 0.0669 0.89300001
0.1461 0.067000002 0.89399999
0.1478 0.067100003 0.89499998
0.1495 0.067199998 0.89600003
0.1516 0.067400001 0.89899999
0.15360001 0.067599997 0.90200001
0.15539999 0.067699999 0.903
0.1569 0.067699999 0.903
0.1587 0.0678 0.90399998
0.1604 0.0678 0.90499997
0.16159999 0.067699999 0.903
0.16320001 0.067699999 0.903
0.1646 0.067599997 0.90200001
0.1663 0.067699999 0.903
0.1683 0.0678 0.90499997
0.1698 0.0678 0.90499997
0.1718 0.068000004 0.90700001
0.1735 0.068099998 0.90799999
0.1753 0.068099998 0.90899998
0.1767 0.068099998 0.90799999
0.17829999 0.068099998 0.90799999
0.1796 0.068000004 0.90700001
0.18099999 0.067900002 0.90600002
0.1824 0.0678 0.90499997
0.1837 0.0678 0.90399998
0.1855 0.0678 0.90499997
0.1873 0.067900002 0.90600002
0.18970001 0.0682 0.91000003
0.1921 0.068499997 0.91399997
-0.39399999 0.0669 0.87199998
-0.37889999 0.067400001 0.87900001
-0.34279999 0.068099998 0.88800001
-0.33970001 0.068099998 0.88800001
-0.3382 0.068099998 0.88800001
-0.33239999 0.0682 0.889
-0.3312 0.068300001 0.88999999
-0.33000001 0.068300001 0.89099997
-0.3285 0.068300001 0.89099997
-0.32659999 0.068300001 0.88999999
-0.3247 0.0682 0.889
-0.322 0.068300001 0.88999999
-0.31889999 0.068300001 0.88999999
-0.31729999 0.068300001 0.88999999
-0.31189999 0.068400003 0.89200002
-0.3107 0.068499997 0.89300001
-0.30880001 0.068400003 0.89200002
-0.30720001 0.068400003 0.89200002
-0.3053 0.068300001 0.89099997
-0.30340001 0.068300001 0.88999999
-0.3019 0.068300001 0.88999999
-0.29969999 0.068099998 0.88800001
-0.2956 0.067900002 0.88499999
-0.29409999 0.067900002 0.88499999
-0.29249999 0.067900002 0.88499999
-0.29170001 0.068000004 0.88700002
-0.29010001 0.068000004 0.88700002
-0.2877 0.0682 0.889
-0.2868 0.068300001 0.89099997
-0.28560001 0.068400003 0.89200002
-0.28279999 0.068499997 0.89300001
-0.28119999 0.068499997 0.89300001
-0.27880001 0.068599999 0.89499998
-0.27689999 0.068599999 0.89399999
-0.2527 0.067900002 0.88499999
-0.25080001 0.0678 0.884
-0.2493 0.0678 0.884
-0.24779999 0.0678 0.884
-0.2465 0.067900002 0.88499999
-0.245 0.067900002 0.88499999
-0.24349999 0.067900002 0.88499999
-0.24089999 0.068000004 0.88700002
-0.2394 0.068000004 0.88700002
-0.2379 0.068000004 0.88700002
-0.23630001 0.068000004 0.88700002
-0.235 0.068099998 0.88800001
-0.2335 0.068099998 0.88800001
-0.23199999 0.068099998 0.88800001
-0.2304 0.068099998 0.88800001
-0.2286 0.068000004 0.88700002
-0.2256 0.068000004 0.88700002
-0.22400001 0.068000004 0.88700002
-0.2225 0.068000004 0.88700002
-0.1988 0.063900001 0.833
-0.1971 0.0638 0.83200002
-0.1957 0.0638 0.83200002
-0.1943 0.0638 0.83200002
-0.1926 0.063699998 0.83099997
-0.1912 0.063699998 0.83099997
-0.1895 0.063699998 0.82999998
-0.1883 0.063699998 0.83099997
-0.1868 0.063699998 0.83099997
-0.18539999 0.063699998 0.83099997
-0.1839 0.063699998 0.83099997
-0.1825 0.063699998 0.83099997
-0.1811 0.063699998 0.83099997
-0.1796 0.063699998 0.83099997
-0.17820001 0.063699998 0.83099997
-0.1767 0.063699998 0.83099997
-0.1751 0.063699998 0.82999998
-0.17389999 0.063699998 0.83099997
-0.1724 0.063699998 0.83099997
-0.17120001 0.0638 0.83200002
-0.1698 0.0638 0.83200002
-0.1681 0.063699998 0.83099997
-0.16670001 0.063699998 0.83099997
-0.16500001 0.063699998 0.82999998
-0.16339999 0.063600004 0.829
-0.162 0.063600004 0.829
-0.1601 0.0634 0.82700002
-0.1587 0.0634 0.82700002
-0.1573 0.0634 0.82700002
-0.156 0.063500002 0.82800001
-0.1548 0.063600004 0.829
-0.15350001 0.063699998 0.82999998
-0.1523 0.063699998 0.83099997
-0.1508 0.063699998 0.83099997
-0.14920001 0.063699998 0.82999998
-0.1478 0.063699998 0.82999998
-0.146 0.063500002 0.82800001
-0.1444 0.0634 0.82700002
-0.1408 0.063100003 0.82300001
-0.13860001 0.0634 0.82700002
-0.1375 0.063600004 0.829
-0.13349999 0.063699998 0.83099997
-0.1323 0.0638 0.83200002
-0.13070001 0.063699998 0.83099997
-0.1292 0.063699998 0.83099997
-0.1278 0.063699998 0.83099997
-0.12620001 0.063699998 0.82999998
-0.1247 0.063699998 0.82999998
-0.1233 0.063699998 0.82999998
-0.1217 0.063600004 0.829
-0.1203 0.063600004 0.829
-0.1189 0.063600004 0.829
-0.1174 0.063600004 0.829
-0.1161 0.063699998 0.82999998
-0.1148 0.063699998 0.83099997
-0.1137 0.063900001 0.833
-0.1123 0.064000003 0.83399999
-0.1109 0.064000003 0.83399999
-0.1093 0.063900001 0.833
-0.1079 0.063900001 0.833
-0.1064 0.063900001 0.833
-0.105 0.063900001 0.833
-0.1034 0.0638 0.83200002
-0.102 0.0638 0.83200002
-0.1007 0.063900001 0.833
-0.099200003 0.063900001 0.833
-0.097800002 0.063900001 0.833
-0.096199997 0.0638 0.83200002
-0.094800003 0.0638 0.83200002
-0.093199998 0.063699998 0.83099997
-0.091700003 0.063699998 0.82999998
-0.0902 0.063699998 0.82999998
-0.088699996 0.063600004 0.829
-0.084200002 0.0634 0.82700002
-0.082800001 0.063500002 0.82800001
-0.078500003 0.063500002 0.82800001
-0.077200003 0.063600004 0.829
-0.0757 0.063600004 0.829
-0.0744 0.063699998 0.82999998
-0.072999999 0.063699998 0.82999998
-0.071400002 0.063600004 0.829
-0.070100002 0.063699998 0.82999998
-0.068700001 0.063699998 0.83099997
-0.067400001 0.0638 0.83200002
-0.065899998 0.0638 0.83200002
-0.064599998 0.063900001 0.833
-0.063100003 0.063900001 0.833
-0.061700001 0.063900001 0.833
-0.060199998 0.0638 0.83200002
-0.058699999 0.0638 0.83200002
-0.057300001 0.063900001 0.833
-0.0559 0.063900001 0.833
-0.0546 0.064000003 0.83499998
-0.053199999 0.064099997 0.83600003
-0.051800001 0.064199999 0.83700001
-0.0504 0.064300001 0.838
-0.048999999 0.064300001 0.838
-0.047600001 0.064400002 0.83899999
-0.046100002 0.064400002 0.83899999
-0.044599999 0.064300001 0.838
-0.043200001 0.064300001 0.838
-0.0418 0.064400002 0.83999997
-0.040399998 0.064400002 0.83999997
-0.038899999 0.064400002 0.83899999
-0.0374 0.064400002 0.83899999
-0.0359 0.064400002 0.83899999
-0.034499999 0.064400002 0.83999997
-0.033199999 0.064599998 0.84200001
-0.0317 0.0647 0.84299999
-0.030300001 0.0647 0.84399998
-0.028899999 0.064900003 0.84600002
-0.0275 0.064900003 0.84600002
-0.025800001 0.068300001 0.88999999
-0.0243 0.068499997 0.89300001
-0.0229 0.068700001 0.89600003
-0.021400001 0.068899997 0.898
-0.0198 0.068999998 0.89999998
-0.018300001 0.068999998 0.89999998
-0.0167 0.068999998 0.89999998
-0.0152 0.0691 0.90100002
-0.0136 0.0691 0.90100002
-0.0121 0.069200002 0.90200001
-0.0105 0.069300003 0.903
-0.0089999996 0.069300003 0.903
-0.0074 0.069300003 0.90399998
-0.0057999999 0.069300003 0.90399998
-0.0043000001 0.069300003 0.90399998
-0.0027000001 0.069399998 0.90499997
-0.0011 0.069300003 0.903
0.00039999999 0.0691 0.90100002
0.0020000001 0.068999998 0.89999998
0.0035000001 0.068899997 0.898
0.0051000002 0.068700001 0.89600003
0.0066 0.068599999 0.89499998
0.0082 0.068599999 0.89399999
0.0097000003 0.068499997 0.89300001
0.0113 0.068499997 0.89300001
0.0128 0.068499997 0.89300001
0.0144 0.068499997 0.89300001
0.015900001 0.068499997 0.89300001
0.0175 0.068499997 0.89300001
0.018999999 0.068499997 0.89300001
0.0206 0.068599999 0.89399999
0.0221 0.068599999 0.89499998
0.023700001 0.068599999 0.89499998
0.0253 0.068700001 0.89600003
0.026799999 0.068700001 0.89600003
0.0284 0.068800002 0.89700001
0.029999999 0.068899997 0.898
0.031599998 0.068999998 0.89899999
0.033199999 0.068999998 0.89999998
0.0348 0.0691 0.90100002
0.036400001 0.069200002 0.90200001
0.037999999 0.069300003 0.903
0.0396 0.069300003 0.903
0.041099999 0.069300003 0.903
0.0427 0.069300003 0.903
0.044300001 0.069300003 0.903
0.0458 0.069300003 0.903
0.048799999 0.0691 0.90100002
0.0504 0.0691 0.90100002
0.052099999 0.069300003 0.903
0.053599998 0.069300003 0.903
0.055199999 0.069300003 0.903
0.056600001 0.0691 0.90100002
0.0583 0.069200002 0.90200001
0.059799999 0.069200002 0.90200001
0.061299998 0.0691 0.90100002
0.062799998 0.068999998 0.89999998
0.064300001 0.068999998 0.89899999
0.065800004 0.068899997 0.898
0.067500003 0.068999998 0.89999998
0.068999998 0.068999998 0.89899999
0.070500001 0.068999998 0.89899999
0.071999997 0.068899997 0.898
0.073700003 0.068999998 0.89999998
0.075400002 0.0691 0.90100002
0.076899998 0.0691 0.90100002
0.078500003 0.0691 0.90100002
0.0801 0.0691 0.90100002
0.081600003 0.0691 0.90100002
0.083300002 0.069200002 0.90200001
0.084899999 0.069200002 0.90200001
0.086300001 0.0691 0.90100002
0.088 0.069200002 0.90200001
0.089599997 0.069300003 0.903
0.091300003 0.069300003 0.90399998
0.092799999 0.069300003 0.903
0.094300002 0.069300003 0.903
0.095799997 0.069200002 0.90200001
0.097400002 0.069200002 0.90200001
0.098899998 0.069200002 0.90200001
0.1006 0.069300003 0.903
0.1022 0.069300003 0.903
0.1038 0.069300003 0.90399998
0.1053 0.069300003 0.903
0.1071 0.069399998 0.90499997
0.1087 0.069399998 0.90499997
0.1101 0.069300003 0.90399998
0.1115 0.069300003 0.903
0.1131 0.069300003 0.903
0.1147 0.069300003 0.903
0.1164 0.069300003 0.90399998
0.1179 0.069300003 0.90399998
0.1195 0.069300003 0.90399998
0.1209 0.069300003 0.903
0.1241 0.069300003 0.903
0.12540001 0.0691 0.90100002
0.1265 0.068899997 0.898
0.1278 0.068700001 0.89600003
0.12890001 0.068499997 0.89300001
0.13060001 0.068599999 0.89399999
0.13240001 0.068700001 0.89600003
0.134 0.068700001 0.89600003
0.1357 0.068800002 0.89700001
0.1374 0.068899997 0.898
0.1402 0.068700001 0.89600003
0.1416 0.068599999 0.89499998
0.1462 0.068599999 0.89499998
0.1478 0.068599999 0.89499998
0.1495 0.068700001 0.89600003
0.1517 0.068999998 0.89999998
0.1538 0.069300003 0.903
