ply
format ascii 1.0
comment PCL generated
element vertex 1507
property float x
property float y
property float z
element camera 0
property float view_px
property float view_py
property float view_pz
property float x_axisx
property float x_axisy
property float x_axisz
property float y_axisx
property float y_axisy
property float y_axisz
property float z_axisx
property float z_axisy
property float z_axisz
property float focal
property float scalex
property float scaley
property float centerx
property float centery
property int viewportx
property int viewporty
property float k1
property float k2
end_header
-0.096299998 0.046599999 0.833
-0.094899997 0.046599999 0.833
-0.093400002 0.046599999 0.833
-0.091899998 0.046500001 0.83200002
-0.090599999 0.046599999 0.833
-0.089100003 0.046599999 0.833
-0.087700002 0.046599999 0.833
-0.086300001 0.046599999 0.83399999
-0.084899999 0.046599999 0.83399999
-0.083400004 0.046599999 0.83399999
-0.082000002 0.046599999 0.83399999
-0.080499999 0.046599999 0.83399999
-0.079000004 0.046599999 0.833
-0.077600002 0.046599999 0.833
-0.076099999 0.046599999 0.833
-0.074600004 0.046500001 0.83200002
-0.071800001 0.046599999 0.833
-0.070299998 0.046500001 0.83200002
-0.068899997 0.046599999 0.833
-0.067500003 0.046599999 0.833
-0.066 0.046599999 0.833
-0.064599998 0.046599999 0.833
-0.063100003 0.046599999 0.833
-0.061700001 0.046599999 0.833
-0.0603 0.046599999 0.83399999
-0.059 0.046700001 0.83600003
-0.057599999 0.046700001 0.83600003
-0.056000002 0.046700001 0.83499998
-0.054499999 0.046599999 0.83399999
-0.053100001 0.046599999 0.83399999
-0.0517 0.046700001 0.83499998
-0.0502 0.046700001 0.83499998
-0.048799999 0.046700001 0.83499998
-0.0473 0.046599999 0.83399999
-0.045899998 0.046700001 0.83499998
-0.044599999 0.046799999 0.83700001
-0.043200001 0.046799999 0.838
-0.041700002 0.046799999 0.838
-0.0403 0.046799999 0.838
-0.038800001 0.046799999 0.83700001
-0.037300002 0.046799999 0.83700001
-0.0359 0.046799999 0.83700001
-0.034400001 0.046700001 0.83600003
-0.032900002 0.046700001 0.83499998
-0.031399999 0.046700001 0.83499998
-0.029999999 0.046700001 0.83499998
-0.0285 0.046700001 0.83499998
-0.027100001 0.046700001 0.83600003
-0.025699999 0.046799999 0.83700001
-0.0243 0.046799999 0.838
-0.0229 0.0469 0.83899999
-0.021400001 0.046999998 0.83999997
-0.02 0.046999998 0.84100002
-0.0186 0.0471 0.84299999
-0.017100001 0.0471 0.84299999
-0.0156 0.046999998 0.84100002
-0.0141 0.0469 0.83899999
-0.0126 0.046700001 0.83600003
-0.0112 0.046599999 0.83399999
-0.0097000003 0.046599999 0.833
-0.0082999999 0.046500001 0.83200002
-0.0068000001 0.046500001 0.83200002
-0.0054000001 0.046500001 0.83200002
-0.0038999999 0.046599999 0.833
-0.0024999999 0.046599999 0.833
-0.001 0.046599999 0.83399999
0.00039999999 0.046700001 0.83600003
0.0019 0.046799999 0.83700001
0.0033 0.046799999 0.838
0.027799999 0.046500001 0.83099997
0.029200001 0.046500001 0.83200002
0.0307 0.046500001 0.83200002
0.032200001 0.046599999 0.83399999
0.0337 0.046700001 0.83499998
0.0352 0.046799999 0.83700001
0.036699999 0.046799999 0.83700001
0.038199998 0.046799999 0.838
0.0396 0.046799999 0.838
0.041099999 0.0469 0.83899999
0.0427 0.046999998 0.84100002
0.0473 0.048799999 0.87199998
-0.1286 0.050500002 0.87599999
-0.1252 0.049699999 0.86299998
-0.1188 0.0484 0.83899999
-0.1167 0.048099998 0.83399999
-0.115 0.048 0.83200002
-0.1135 0.048 0.83200002
-0.1119 0.047899999 0.83099997
-0.1105 0.047899999 0.83099997
-0.1089 0.047800001 0.82999998
-0.1076 0.047899999 0.83099997
-0.105 0.048 0.833
-0.1022 0.048099998 0.83399999
-0.1008 0.048099998 0.83399999
-0.099299997 0.048099998 0.83399999
-0.097900003 0.048099998 0.83399999
-0.0964 0.048099998 0.83399999
-0.094899997 0.048 0.833
-0.093400002 0.048 0.833
-0.091899998 0.048 0.83200002
-0.090400003 0.048 0.83200002
-0.089100003 0.048 0.833
-0.087700002 0.048 0.833
-0.086199999 0.048 0.833
-0.084799998 0.048 0.833
-0.083400004 0.048099998 0.83399999
-0.082000002 0.048099998 0.83399999
-0.080499999 0.048099998 0.83399999
-0.079099998 0.048099998 0.83399999
-0.077600002 0.048 0.833
-0.076099999 0.048 0.833
-0.074600004 0.048 0.83200002
-0.073100001 0.048 0.83200002
-0.071699999 0.048 0.83200002
-0.070299998 0.048 0.83200002
-0.068800002 0.048 0.83200002
-0.067400001 0.048 0.83200002
-0.065899998 0.048 0.83200002
-0.064599998 0.048 0.833
-0.063100003 0.048 0.833
-0.061700001 0.048 0.833
-0.0603 0.048099998 0.83399999
-0.058899999 0.048099998 0.83499998
-0.057500001 0.048099998 0.83499998
-0.056000002 0.048099998 0.83499998
-0.054499999 0.048099998 0.83399999
-0.053100001 0.048099998 0.83399999
-0.0517 0.048099998 0.83499998
-0.0502 0.048099998 0.83499998
-0.048700001 0.048099998 0.83399999
-0.0473 0.048099998 0.83399999
-0.045899998 0.048099998 0.83499998
-0.044500001 0.0482 0.83600003
-0.043099999 0.0482 0.83700001
-0.041700002 0.0482 0.83700001
-0.040199999 0.0482 0.83700001
-0.038800001 0.0482 0.83700001
-0.037300002 0.0482 0.83600003
-0.035799999 0.048099998 0.83499998
-0.034299999 0.048099998 0.83499998
-0.0328 0.048099998 0.83399999
-0.031399999 0.048099998 0.83399999
-0.029999999 0.048099998 0.83399999
-0.0285 0.048099998 0.83399999
-0.027100001 0.048099998 0.83499998
-0.025699999 0.0482 0.83700001
-0.0243 0.048300002 0.838
-0.0229 0.0484 0.83899999
-0.021400001 0.0484 0.83999997
-0.02 0.048500001 0.84100002
-0.0185 0.048500001 0.84100002
-0.017100001 0.048500001 0.84100002
-0.0156 0.0484 0.83999997
-0.0141 0.0482 0.83700001
-0.0126 0.048099998 0.83499998
-0.0112 0.048099998 0.83499998
-0.0097000003 0.048099998 0.83399999
-0.0082999999 0.048 0.833
-0.0068000001 0.048 0.833
-0.0054000001 0.048 0.83200002
-0.0038999999 0.048099998 0.83399999
-0.0024999999 0.048099998 0.83499998
-0.001 0.0482 0.83700001
0.00039999999 0.0482 0.83700001
0.0019 0.0484 0.83899999
0.0033 0.048300002 0.838
0.027799999 0.048 0.83200002
0.029200001 0.048 0.83200002
0.0307 0.048 0.833
0.032200001 0.048 0.833
0.033599999 0.048099998 0.83399999
0.035100002 0.048099998 0.83499998
0.036699999 0.0482 0.83700001
0.0381 0.0482 0.83700001
0.0396 0.048300002 0.838
0.041099999 0.048300002 0.838
0.0427 0.048500001 0.84100002
0.044199999 0.048599999 0.84299999
0.0471 0.050000001 0.86799997
0.048700001 0.050099999 0.87
0.050299998 0.050299998 0.87300003
0.052099999 0.050500002 0.87699997
-0.12890001 0.052099999 0.87800002
-0.1259 0.0515 0.86799997
-0.119 0.049899999 0.83999997
-0.1168 0.049600001 0.83499998
-0.1151 0.0495 0.833
-0.1137 0.0495 0.833
-0.1121 0.049400002 0.83200002
-0.1105 0.0493 0.83099997
-0.1091 0.0493 0.83099997
-0.1076 0.0493 0.83099997
-0.1063 0.049400002 0.83200002
-0.1037 0.0495 0.83399999
-0.1023 0.049600001 0.83499998
-0.1009 0.049600001 0.83499998
-0.0995 0.049600001 0.83499998
-0.097900003 0.0495 0.83399999
-0.0964 0.0495 0.83399999
-0.094999999 0.0495 0.83399999
-0.093400002 0.0495 0.833
-0.091899998 0.049400002 0.83200002
-0.090599999 0.0495 0.833
-0.089100003 0.0495 0.833
-0.087700002 0.0495 0.833
-0.086199999 0.0495 0.833
-0.084799998 0.0495 0.833
-0.083300002 0.0495 0.833
-0.082000002 0.0495 0.83399999
-0.080399998 0.0495 0.833
-0.079000004 0.0495 0.833
-0.077600002 0.0495 0.833
-0.075999998 0.049400002 0.83200002
-0.074600004 0.049400002 0.83200002
-0.073100001 0.0493 0.83099997
-0.071699999 0.049400002 0.83200002
-0.070200004 0.0493 0.83099997
-0.068800002 0.049400002 0.83200002
-0.067400001 0.049400002 0.83200002
-0.066 0.0495 0.833
-0.064599998 0.0495 0.833
-0.063199997 0.0495 0.83399999
-0.061700001 0.0495 0.833
-0.0603 0.0495 0.83399999
-0.058899999 0.049600001 0.83499998
-0.057399999 0.0495 0.83399999
-0.056000002 0.0495 0.83399999
-0.054499999 0.0495 0.83399999
-0.053100001 0.0495 0.83399999
-0.051600002 0.0495 0.83399999
-0.0502 0.0495 0.83399999
-0.048700001 0.0495 0.833
-0.047200002 0.0495 0.833
-0.045899998 0.0495 0.83399999
-0.044500001 0.049600001 0.83499998
-0.043099999 0.049600001 0.83600003
-0.0416 0.049600001 0.83600003
-0.040199999 0.049699999 0.83700001
-0.038699999 0.049600001 0.83600003
-0.037300002 0.049600001 0.83600003
-0.035799999 0.049600001 0.83499998
-0.034299999 0.049600001 0.83499998
-0.0328 0.0495 0.83399999
-0.031399999 0.049600001 0.83499998
-0.029999999 0.049600001 0.83499998
-0.0285 0.049600001 0.83499998
-0.027100001 0.049600001 0.83499998
-0.025699999 0.049699999 0.83700001
-0.0243 0.049800001 0.838
-0.0229 0.049800001 0.83899999
-0.021400001 0.049899999 0.83999997
-0.02 0.049899999 0.83999997
-0.0185 0.049899999 0.83999997
-0.017000001 0.049800001 0.83899999
-0.0156 0.049699999 0.83700001
-0.0141 0.049600001 0.83499998
-0.0126 0.049600001 0.83499998
-0.0112 0.0495 0.83399999
-0.0097000003 0.0495 0.83399999
-0.0082999999 0.0495 0.83399999
-0.0068000001 0.0495 0.83399999
-0.0054000001 0.049600001 0.83499998
-0.0038999999 0.049699999 0.83700001
-0.0024999999 0.049800001 0.838
-0.0011 0.049800001 0.83899999
0.00039999999 0.049899999 0.84100002
0.0019 0.049899999 0.84100002
0.0177 0.0493 0.82999998
0.019099999 0.0493 0.83099997
0.027799999 0.0495 0.833
0.029300001 0.0495 0.833
0.0307 0.0495 0.833
0.032200001 0.0495 0.833
0.033599999 0.0495 0.83399999
0.035100002 0.049600001 0.83499998
0.036600001 0.049600001 0.83499998
0.0381 0.049600001 0.83600003
0.039500002 0.049600001 0.83600003
0.041000001 0.049699999 0.83700001
0.042599998 0.049899999 0.83999997
0.044199999 0.050000001 0.84200001
0.045899998 0.0502 0.84600002
0.047499999 0.0504 0.84899998
0.049899999 0.051399998 0.86500001
0.051399998 0.051399998 0.866
0.053100001 0.0515 0.86799997
-0.39829999 0.0537 0.87800002
-0.1303 0.053599998 0.87699997
-0.127 0.052900001 0.86500001
-0.1239 0.052200001 0.85399997
-0.1213 0.0517 0.84600002
-0.1191 0.051399998 0.84100002
-0.1171 0.051100001 0.83700001
-0.1152 0.050999999 0.83399999
-0.1138 0.050999999 0.83399999
-0.1122 0.050900001 0.833
-0.1106 0.050799999 0.83200002
-0.1092 0.050799999 0.83200002
-0.1077 0.050799999 0.83200002
-0.105 0.050900001 0.833
-0.1037 0.050999999 0.83399999
-0.1022 0.050999999 0.83399999
-0.1008 0.050999999 0.83399999
-0.099299997 0.050999999 0.83399999
-0.097900003 0.050999999 0.83399999
-0.0964 0.050999999 0.83399999
-0.094999999 0.050999999 0.83399999
-0.093400002 0.050900001 0.833
-0.091899998 0.050799999 0.83200002
-0.090400003 0.050799999 0.83200002
-0.089000002 0.050799999 0.83200002
-0.0876 0.050799999 0.83200002
-0.086099997 0.050799999 0.83200002
-0.084700003 0.050799999 0.83200002
-0.0832 0.050799999 0.83200002
-0.081900001 0.050900001 0.833
-0.080399998 0.050900001 0.833
-0.079000004 0.050900001 0.833
-0.077600002 0.050900001 0.833
-0.076099999 0.050900001 0.833
-0.074600004 0.050799999 0.83200002
-0.073100001 0.050799999 0.83200002
-0.071699999 0.050799999 0.83200002
-0.070299998 0.050799999 0.83200002
-0.068800002 0.050799999 0.83200002
-0.067500003 0.050900001 0.833
-0.066 0.050900001 0.833
-0.064599998 0.050999999 0.83399999
-0.063299999 0.050999999 0.83499998
-0.061799999 0.050999999 0.83499998
-0.060400002 0.050999999 0.83499998
-0.058899999 0.050999999 0.83499998
-0.057399999 0.050999999 0.83399999
-0.056000002 0.050999999 0.83399999
-0.054499999 0.050900001 0.833
-0.052999999 0.050900001 0.833
-0.051600002 0.050900001 0.833
-0.050099999 0.050900001 0.833
-0.048599999 0.050799999 0.83200002
-0.047200002 0.050900001 0.833
-0.045899998 0.050999999 0.83399999
-0.044399999 0.050999999 0.83399999
-0.043000001 0.050999999 0.83499998
-0.0416 0.050999999 0.83499998
-0.040100001 0.050999999 0.83499998
-0.038699999 0.050999999 0.83499998
-0.0372 0.050999999 0.83499998
-0.035799999 0.050999999 0.83499998
-0.034299999 0.050999999 0.83399999
-0.0328 0.050999999 0.83399999
-0.031399999 0.050999999 0.83499998
-0.029999999 0.050999999 0.83499998
-0.0285 0.050999999 0.83499998
-0.027100001 0.050999999 0.83499998
-0.025699999 0.051100001 0.83700001
-0.0243 0.051199999 0.838
-0.0229 0.0513 0.83899999
-0.021400001 0.0513 0.83999997
-0.02 0.0513 0.83899999
-0.0185 0.0513 0.83899999
-0.017000001 0.051199999 0.838
-0.0155 0.051100001 0.83600003
-0.0141 0.050999999 0.83499998
-0.0126 0.050999999 0.83499998
-0.0112 0.050999999 0.83399999
-0.0097000003 0.050999999 0.83399999
-0.0082999999 0.050999999 0.83399999
-0.0068000001 0.050999999 0.83499998
-0.0054000001 0.051100001 0.83700001
-0.0040000002 0.0513 0.83899999
-0.0024999999 0.0513 0.83999997
-0.0011 0.0515 0.84200001
0.00039999999 0.051600002 0.84399998
0.0019 0.051600002 0.84399998
0.0119 0.050799999 0.83099997
0.0134 0.050799999 0.83099997
0.0148 0.050799999 0.83200002
0.0162 0.050799999 0.83099997
0.0177 0.050799999 0.83200002
0.019099999 0.050799999 0.83200002
0.0206 0.050799999 0.83200002
0.024900001 0.050900001 0.833
0.0264 0.050999999 0.83399999
0.027899999 0.050999999 0.83499998
0.029300001 0.050999999 0.83499998
0.0308 0.050999999 0.83399999
0.032200001 0.050999999 0.83499998
0.0337 0.050999999 0.83499998
0.0352 0.051100001 0.83700001
0.036699999 0.051100001 0.83700001
0.0381 0.051100001 0.83700001
0.039500002 0.051100001 0.83600003
0.041000001 0.051100001 0.83700001
0.042599998 0.0513 0.83899999
0.044100001 0.0513 0.83999997
0.045600001 0.0515 0.84200001
0.0473 0.051600002 0.84500003
0.048900001 0.051800001 0.84799999
0.050500002 0.051899999 0.85000002
0.052200001 0.052099999 0.85299999
0.0539 0.0524 0.85699999
-0.4172 0.054900002 0.87300003
-0.1294 0.054699998 0.87099999
-0.1238 0.053599998 0.85299999
-0.1213 0.053199999 0.84600002
-0.1193 0.052900001 0.84200001
-0.1172 0.052700002 0.838
-0.1154 0.052499998 0.83499998
-0.1138 0.0524 0.83399999
-0.1122 0.052299999 0.833
-0.1108 0.052299999 0.833
-0.1093 0.052299999 0.833
-0.1079 0.052299999 0.833
-0.1064 0.052299999 0.833
-0.105 0.052299999 0.833
-0.1037 0.0524 0.83399999
-0.1022 0.0524 0.83399999
-0.1008 0.0524 0.83399999
-0.0995 0.052499998 0.83499998
-0.097999997 0.052499998 0.83499998
-0.096600004 0.052499998 0.83499998
-0.095100001 0.052499998 0.83499998
-0.093599997 0.0524 0.83399999
-0.092 0.052299999 0.833
-0.090599999 0.052299999 0.833
-0.089000002 0.052299999 0.83200002
-0.0876 0.052299999 0.83200002
-0.086000003 0.052200001 0.83099997
-0.084600002 0.052200001 0.83099997
-0.0832 0.052299999 0.83200002
-0.081799999 0.052299999 0.83200002
-0.080300003 0.052299999 0.83200002
-0.078900002 0.052299999 0.83200002
-0.077500001 0.052299999 0.83200002
-0.075999998 0.052299999 0.83200002
-0.074600004 0.052299999 0.83200002
-0.073100001 0.052299999 0.83200002
-0.071699999 0.052299999 0.83200002
-0.070299998 0.052299999 0.83200002
-0.068800002 0.052299999 0.83200002
-0.067500003 0.052299999 0.833
-0.066 0.052299999 0.833
-0.064599998 0.0524 0.83399999
-0.063199997 0.0524 0.83399999
-0.061799999 0.052499998 0.83499998
-0.060400002 0.052499998 0.83499998
-0.058899999 0.052499998 0.83499998
-0.057399999 0.0524 0.83399999
-0.0559 0.052299999 0.833
-0.054499999 0.052299999 0.833
-0.052999999 0.052299999 0.833
-0.0515 0.052299999 0.83200002
-0.050099999 0.052299999 0.83200002
-0.048599999 0.052299999 0.83200002
-0.047200002 0.052299999 0.833
-0.045899998 0.0524 0.83399999
-0.044399999 0.0524 0.83399999
-0.043000001 0.0524 0.83399999
-0.0416 0.052499998 0.83499998
-0.040100001 0.052499998 0.83499998
-0.038699999 0.052499998 0.83499998
-0.0372 0.052499998 0.83499998
-0.035700001 0.0524 0.83399999
-0.034299999 0.0524 0.83399999
-0.032900002 0.052499998 0.83499998
-0.031399999 0.052499998 0.83499998
-0.029999999 0.052499998 0.83499998
-0.0285 0.0524 0.83399999
-0.027100001 0.052499998 0.83499998
-0.025699999 0.052499998 0.83600003
-0.0243 0.0526 0.83700001
-0.0228 0.052700002 0.838
-0.021400001 0.052700002 0.838
-0.0199 0.052700002 0.838
-0.0185 0.0526 0.83700001
-0.017000001 0.0526 0.83700001
-0.0155 0.052499998 0.83499998
-0.0141 0.0524 0.83399999
-0.0126 0.0524 0.83399999
-0.0112 0.0524 0.83399999
-0.0097000003 0.052499998 0.83499998
-0.0082999999 0.052499998 0.83499998
-0.0068999999 0.0526 0.83700001
-0.0054000001 0.052700002 0.838
-0.0040000002 0.0528 0.84100002
-0.0024999999 0.052999999 0.84299999
-0.0011 0.052999999 0.84399998
0.00039999999 0.053100001 0.84500003
0.0019 0.052999999 0.84399998
0.0105 0.052299999 0.83200002
0.0119 0.052299999 0.83200002
0.0134 0.052299999 0.833
0.0148 0.052299999 0.833
0.0163 0.052299999 0.833
0.0177 0.052299999 0.833
0.019200001 0.0524 0.83399999
0.0206 0.0524 0.83399999
0.0221 0.0524 0.83399999
0.023600001 0.052499998 0.83499998
0.025 0.052499998 0.83499998
0.0265 0.0526 0.83700001
0.028000001 0.0526 0.83700001
0.0294 0.052499998 0.83600003
0.0308 0.052499998 0.83499998
0.032200001 0.052499998 0.83499998
0.0337 0.052499998 0.83600003
0.0352 0.0526 0.83700001
0.036699999 0.0526 0.83700001
0.0381 0.0526 0.83700001
0.0396 0.0526 0.83700001
0.041000001 0.0526 0.83700001
0.0425 0.052700002 0.838
0.044 0.052700002 0.838
0.045499999 0.052700002 0.83899999
0.046999998 0.0528 0.84100002
0.048700001 0.053100001 0.84500003
0.050299998 0.053199999 0.847
0.051800001 0.053300001 0.84799999
-0.26859999 0.056600001 0.87699997
-0.2674 0.056699999 0.87800002
-0.1311 0.056299999 0.87199998
-0.1191 0.054299999 0.84100002
-0.1171 0.054000001 0.83700001
-0.1154 0.0539 0.83499998
-0.1138 0.0539 0.83399999
-0.1122 0.053800002 0.833
-0.1109 0.0539 0.83399999
-0.1095 0.0539 0.83399999
-0.108 0.0539 0.83399999
-0.1066 0.0539 0.83399999
-0.105 0.053800002 0.833
-0.1037 0.0539 0.83399999
-0.1022 0.0539 0.83399999
-0.1008 0.0539 0.83399999
-0.0995 0.0539 0.83499998
-0.097999997 0.0539 0.83499998
-0.096600004 0.0539 0.83499998
-0.095100001 0.0539 0.83499998
-0.093599997 0.0539 0.83399999
-0.092 0.053800002 0.833
-0.090400003 0.0537 0.83200002
-0.089000002 0.0537 0.83200002
-0.087499999 0.0537 0.83099997
-0.086000003 0.0537 0.83099997
-0.084600002 0.0537 0.83099997
-0.083099999 0.0537 0.83099997
-0.081799999 0.0537 0.83200002
-0.080300003 0.0537 0.83200002
-0.078900002 0.0537 0.83200002
-0.077500001 0.0537 0.83200002
-0.075999998 0.0537 0.83200002
-0.074600004 0.0537 0.83200002
-0.073100001 0.0537 0.83099997
-0.071599998 0.0537 0.83099997
-0.070200004 0.0537 0.83099997
-0.068800002 0.0537 0.83200002
-0.067400001 0.0537 0.83200002
-0.066 0.053800002 0.833
-0.064599998 0.0539 0.83399999
-0.063299999 0.0539 0.83499998
-0.061799999 0.0539 0.83499998
-0.060400002 0.0539 0.83499998
-0.058899999 0.0539 0.83499998
-0.057399999 0.0539 0.83399999
-0.0559 0.053800002 0.833
-0.054400001 0.0537 0.83200002
-0.052999999 0.0537 0.83200002
-0.0515 0.0537 0.83200002
-0.050000001 0.0537 0.83099997
-0.048599999 0.0537 0.83099997
-0.0471 0.0537 0.83099997
-0.0458 0.053800002 0.833
-0.044399999 0.0539 0.83399999
-0.043000001 0.0539 0.83399999
-0.0416 0.0539 0.83499998
-0.040199999 0.054000001 0.83600003
-0.038699999 0.0539 0.83499998
-0.0372 0.0539 0.83499998
-0.035799999 0.0539 0.83499998
-0.034299999 0.0539 0.83499998
-0.032900002 0.0539 0.83499998
-0.031399999 0.0539 0.83499998
-0.029999999 0.0539 0.83499998
-0.0285 0.0539 0.83499998
-0.027100001 0.0539 0.83499998
-0.025699999 0.054000001 0.83700001
-0.0243 0.054099999 0.838
-0.0228 0.054099999 0.838
-0.021400001 0.054099999 0.838
-0.0199 0.054000001 0.83700001
-0.0184 0.054000001 0.83600003
-0.017000001 0.0539 0.83499998
-0.0155 0.0539 0.83399999
-0.0141 0.0539 0.83399999
-0.0126 0.0539 0.83399999
-0.0112 0.0539 0.83399999
-0.0097000003 0.054000001 0.83600003
-0.0082999999 0.054099999 0.838
-0.0068999999 0.054200001 0.83899999
-0.0054000001 0.054200001 0.83999997
-0.0040000002 0.054400001 0.84200001
-0.0024999999 0.054499999 0.84399998
-0.0011 0.0546 0.84500003
0.00039999999 0.0546 0.84600002
0.0019 0.0546 0.84600002
0.0105 0.053800002 0.833
0.0119 0.053800002 0.833
0.0134 0.0539 0.83399999
0.0148 0.053800002 0.833
0.0163 0.0539 0.83399999
0.0177 0.0539 0.83399999
0.019200001 0.0539 0.83499998
0.0207 0.0539 0.83499998
0.0222 0.054000001 0.83700001
0.023600001 0.054099999 0.838
0.0251 0.054200001 0.83899999
0.0266 0.054200001 0.83999997
0.028000001 0.054200001 0.83899999
0.0294 0.054099999 0.838
0.0309 0.054000001 0.83700001
0.032299999 0.054000001 0.83700001
0.033799998 0.054000001 0.83700001
0.0352 0.054000001 0.83700001
0.036699999 0.054000001 0.83700001
0.0381 0.054000001 0.83600003
0.039500002 0.054000001 0.83600003
0.041000001 0.054000001 0.83700001
0.042399999 0.054000001 0.83600003
0.043900002 0.054000001 0.83700001
0.045400001 0.054000001 0.83700001
0.0469 0.054200001 0.83899999
0.048599999 0.054400001 0.84299999
0.050299998 0.0546 0.84600002
0.051800001 0.054699998 0.847
0.053399999 0.0548 0.84899998
-0.13079999 0.057700001 0.87
-0.1213 0.0561 0.84600002
-0.1191 0.055799998 0.84100002
-0.1171 0.055500001 0.83700001
-0.1154 0.055399999 0.83499998
-0.1138 0.055300001 0.83399999
-0.1123 0.055300001 0.83399999
-0.1109 0.055300001 0.83399999
-0.1095 0.055300001 0.83399999
-0.108 0.055300001 0.83399999
-0.1066 0.055300001 0.83399999
-0.1051 0.055300001 0.83399999
-0.1037 0.055300001 0.83399999
-0.1022 0.055300001 0.83399999
-0.1008 0.055300001 0.83399999
-0.099299997 0.055300001 0.83399999
-0.097900003 0.055300001 0.83399999
-0.0964 0.055300001 0.83399999
-0.094999999 0.055300001 0.83399999
-0.093400002 0.055199999 0.833
-0.091899998 0.055199999 0.83200002
-0.090400003 0.055199999 0.83200002
-0.0889 0.055100001 0.83099997
-0.087499999 0.055100001 0.83099997
-0.086000003 0.055100001 0.83099997
-0.084600002 0.055100001 0.83099997
-0.083099999 0.055100001 0.83099997
-0.081699997 0.055100001 0.83099997
-0.080300003 0.055199999 0.83200002
-0.078900002 0.055199999 0.83200002
-0.077500001 0.055199999 0.83200002
-0.075999998 0.055199999 0.83200002
-0.074500002 0.055100001 0.83099997
-0.073100001 0.055100001 0.83099997
-0.071599998 0.055100001 0.83099997
-0.070200004 0.055100001 0.83099997
-0.068800002 0.055199999 0.83200002
-0.067400001 0.055199999 0.83200002
-0.066 0.055199999 0.833
-0.064599998 0.055300001 0.83399999
-0.063299999 0.055399999 0.83499998
-0.061799999 0.055399999 0.83499998
-0.060400002 0.055399999 0.83499998
-0.058899999 0.055399999 0.83499998
-0.057399999 0.055300001 0.83399999
-0.055799998 0.055199999 0.83200002
-0.054400001 0.055199999 0.83200002
-0.052999999 0.055199999 0.83200002
-0.051399998 0.055100001 0.83099997
-0.050000001 0.055100001 0.83099997
-0.048599999 0.055100001 0.83099997
-0.0471 0.055100001 0.83099997
-0.045699999 0.055199999 0.83200002
-0.044399999 0.055199999 0.833
-0.043000001 0.055300001 0.83399999
-0.041499998 0.055300001 0.83399999
-0.040100001 0.055399999 0.83499998
-0.038699999 0.055399999 0.83499998
-0.0372 0.055399999 0.83499998
-0.035799999 0.055399999 0.83499998
-0.034299999 0.055399999 0.83499998
-0.032900002 0.055399999 0.83499998
-0.031500001 0.055399999 0.83600003
-0.029999999 0.055399999 0.83499998
-0.0285 0.055399999 0.83499998
-0.027100001 0.055399999 0.83499998
-0.025699999 0.055399999 0.83600003
-0.0243 0.055500001 0.83700001
-0.0228 0.055500001 0.83700001
-0.021400001 0.055500001 0.83700001
-0.0199 0.055399999 0.83600003
-0.0184 0.055399999 0.83499998
-0.017000001 0.055399999 0.83499998
-0.0155 0.055300001 0.83399999
-0.0141 0.055300001 0.83399999
-0.0126 0.055300001 0.83399999
-0.0112 0.055399999 0.83499998
-0.0097000003 0.055399999 0.83600003
-0.0082999999 0.055599999 0.838
-0.0068999999 0.0557 0.83999997
-0.0054000001 0.055799998 0.84100002
-0.0040000002 0.0559 0.84299999
-0.0024999999 0.056000002 0.84500003
-0.0011 0.0561 0.84600002
0.00039999999 0.0561 0.84600002
0.0019 0.0561 0.84600002
0.0091000004 0.055399999 0.83499998
0.0105 0.055300001 0.83399999
0.012 0.055300001 0.83399999
0.0134 0.055300001 0.83399999
0.0149 0.055300001 0.83399999
0.0163 0.055399999 0.83499998
0.0178 0.055399999 0.83499998
0.019200001 0.055399999 0.83499998
0.0207 0.055500001 0.83700001
0.0222 0.055599999 0.838
0.023700001 0.055599999 0.83899999
0.0252 0.0557 0.83999997
0.0266 0.055799998 0.84100002
0.028100001 0.0557 0.83999997
0.0295 0.0557 0.83999997
0.0309 0.055599999 0.838
0.032299999 0.055500001 0.83700001
0.033799998 0.055500001 0.83700001
0.0352 0.055500001 0.83700001
0.036699999 0.055500001 0.83700001
0.0381 0.055399999 0.83600003
0.039500002 0.055399999 0.83499998
0.041000001 0.055399999 0.83600003
0.042399999 0.055399999 0.83600003
0.043900002 0.055399999 0.83600003
0.045299999 0.055399999 0.83499998
0.046799999 0.055500001 0.83700001
0.048500001 0.055799998 0.84100002
0.050099999 0.056000002 0.84399998
0.0517 0.0561 0.84600002
-0.41710001 0.059599999 0.87599999
-0.39129999 0.059599999 0.87599999
-0.13259999 0.059300002 0.87199998
-0.12970001 0.058699999 0.86299998
-0.1276 0.058400001 0.85900003
-0.12530001 0.057999998 0.85299999
-0.1232 0.057799999 0.84899998
-0.1213 0.057599999 0.84600002
-0.1194 0.057399999 0.84299999
-0.1174 0.057100002 0.83899999
-0.1155 0.056899998 0.83600003
-0.1139 0.0568 0.83499998
-0.1125 0.0568 0.83499998
-0.111 0.0568 0.83499998
-0.1096 0.0568 0.83499998
-0.1081 0.0568 0.83499998
-0.1066 0.056699999 0.83399999
-0.1051 0.056699999 0.83399999
-0.1037 0.056699999 0.83399999
-0.1021 0.056699999 0.833
-0.1007 0.056699999 0.833
-0.099200003 0.056699999 0.833
-0.097900003 0.056699999 0.83399999
-0.0964 0.056699999 0.83399999
-0.094999999 0.056699999 0.83399999
-0.093400002 0.056699999 0.833
-0.091899998 0.056600001 0.83200002
-0.090400003 0.056600001 0.83200002
-0.089000002 0.056600001 0.83200002
-0.087499999 0.056499999 0.83099997
-0.085900001 0.056499999 0.82999998
-0.0845 0.056499999 0.82999998
-0.082999997 0.056499999 0.82999998
-0.081699997 0.056499999 0.83099997
-0.080300003 0.056499999 0.83099997
-0.078900002 0.056600001 0.83200002
-0.077500001 0.056600001 0.83200002
-0.075999998 0.056600001 0.83200002
-0.074500002 0.056499999 0.83099997
-0.073100001 0.056499999 0.83099997
-0.071599998 0.056499999 0.83099997
-0.070200004 0.056499999 0.83099997
-0.068700001 0.056499999 0.83099997
-0.067400001 0.056600001 0.83200002
-0.066 0.056699999 0.833
-0.064599998 0.056699999 0.83399999
-0.063299999 0.0568 0.83499998
-0.0603 0.056699999 0.83399999
-0.058899999 0.056699999 0.83399999
-0.057300001 0.056699999 0.833
-0.055799998 0.056600001 0.83200002
-0.054400001 0.056600001 0.83200002
-0.052900001 0.056499999 0.83099997
-0.051399998 0.056499999 0.83099997
-0.050000001 0.056499999 0.83099997
-0.048599999 0.056499999 0.83099997
-0.047200002 0.056600001 0.83200002
-0.0458 0.056699999 0.833
-0.044399999 0.056699999 0.833
-0.043000001 0.056699999 0.83399999
-0.041499998 0.056699999 0.83399999
-0.040199999 0.056899998 0.83600003
-0.038699999 0.056899998 0.83600003
-0.037300002 0.056899998 0.83600003
-0.035799999 0.056899998 0.83600003
-0.034400001 0.056899998 0.83600003
-0.033 0.056899998 0.83700001
-0.031500001 0.056899998 0.83700001
-0.030099999 0.056899998 0.83700001
-0.0286 0.056899998 0.83700001
-0.027100001 0.056899998 0.83600003
-0.025699999 0.056899998 0.83700001
-0.0243 0.056899998 0.83700001
-0.0228 0.056899998 0.83700001
-0.021299999 0.0568 0.83499998
-0.0199 0.0568 0.83499998
-0.0184 0.0568 0.83499998
-0.016899999 0.056699999 0.83399999
-0.0155 0.056699999 0.83399999
-0.0141 0.056699999 0.83399999
-0.0126 0.056699999 0.83399999
-0.0112 0.0568 0.83499998
-0.0097000003 0.056899998 0.83600003
-0.0082999999 0.057 0.838
-0.0068999999 0.0572 0.83999997
-0.0054000001 0.0572 0.84100002
-0.0040000002 0.057399999 0.84299999
-0.0024999999 0.057399999 0.84399998
-0.0011 0.057500001 0.84500003
0.00039999999 0.057599999 0.84600002
0.0033 0.057500001 0.84500003
0.0048000002 0.057399999 0.84299999
0.0062000002 0.0572 0.84100002
0.0077 0.057 0.838
0.0091000004 0.056899998 0.83600003
0.0105 0.056899998 0.83600003
0.012 0.0568 0.83499998
0.0134 0.0568 0.83499998
0.0149 0.0568 0.83499998
0.0163 0.0568 0.83499998
0.0178 0.0568 0.83499998
0.019300001 0.056899998 0.83700001
0.0207 0.057 0.838
0.0222 0.057100002 0.83899999
0.023700001 0.0572 0.83999997
0.0252 0.0572 0.84100002
0.026699999 0.057300001 0.84200001
0.028100001 0.057300001 0.84200001
0.0296 0.0572 0.84100002
0.030999999 0.0572 0.83999997
0.032400001 0.057 0.838
0.033799998 0.057 0.838
0.0352 0.056899998 0.83700001
0.036699999 0.056899998 0.83700001
0.037999999 0.0568 0.83499998
0.039500002 0.0568 0.83499998
0.040899999 0.0568 0.83499998
0.042399999 0.0568 0.83499998
0.0438 0.0568 0.83499998
0.045299999 0.0568 0.83499998
0.046799999 0.056899998 0.83700001
0.0484 0.0572 0.83999997
0.050099999 0.057399999 0.84399998
0.0517 0.057599999 0.84600002
-0.41710001 0.061099999 0.87599999
-0.41510001 0.061000001 0.875
-0.39219999 0.061299998 0.87800002
-0.13259999 0.060800001 0.87199998
-0.12970001 0.060199998 0.86299998
-0.1276 0.059900001 0.85900003
-0.12540001 0.059599999 0.85399997
-0.1232 0.0592 0.84899998
-0.1213 0.059 0.84600002
-0.1194 0.058800001 0.84299999
-0.1175 0.058600001 0.83999997
-0.1156 0.058400001 0.83700001
-0.1139 0.0583 0.83499998
-0.1125 0.0583 0.83499998
-0.1112 0.0583 0.83600003
-0.1096 0.0583 0.83499998
-0.1081 0.0583 0.83499998
-0.1067 0.0583 0.83499998
-0.1051 0.058200002 0.83399999
-0.1037 0.058200002 0.83399999
-0.1021 0.0581 0.833
-0.1007 0.0581 0.833
-0.099200003 0.0581 0.833
-0.097900003 0.058200002 0.83399999
-0.0964 0.058200002 0.83399999
-0.094999999 0.058200002 0.83399999
-0.093400002 0.0581 0.833
-0.091899998 0.057999998 0.83200002
-0.090400003 0.057999998 0.83200002
-0.0889 0.057999998 0.83099997
-0.087499999 0.057999998 0.83099997
-0.085900001 0.0579 0.82999998
-0.0845 0.0579 0.82999998
-0.082999997 0.0579 0.82999998
-0.081600003 0.0579 0.82999998
-0.080300003 0.057999998 0.83099997
-0.0788 0.057999998 0.83099997
-0.077399999 0.057999998 0.83099997
-0.075999998 0.057999998 0.83200002
-0.074500002 0.057999998 0.83099997
-0.073100001 0.057999998 0.83099997
-0.071599998 0.057999998 0.83099997
-0.070200004 0.057999998 0.83099997
-0.068800002 0.057999998 0.83200002
-0.067400001 0.057999998 0.83200002
-0.066 0.0581 0.833
-0.064599998 0.058200002 0.83399999
-0.063199997 0.058200002 0.83399999
-0.061799999 0.0583 0.83499998
-0.058899999 0.058200002 0.83399999
-0.057300001 0.0581 0.833
-0.055799998 0.057999998 0.83200002
-0.054400001 0.057999998 0.83200002
-0.052900001 0.057999998 0.83099997
-0.051399998 0.057999998 0.83099997
-0.050000001 0.057999998 0.83099997
-0.048599999 0.057999998 0.83200002
-0.047200002 0.0581 0.833
-0.045899998 0.058200002 0.83399999
-0.044399999 0.058200002 0.83399999
-0.043000001 0.058200002 0.83399999
-0.0416 0.0583 0.83499998
-0.040100001 0.0583 0.83499998
-0.038699999 0.0583 0.83600003
-0.037300002 0.0583 0.83600003
-0.035799999 0.0583 0.83600003
-0.034400001 0.058400001 0.83700001
-0.033 0.058499999 0.838
-0.031599998 0.058499999 0.83899999
-0.030099999 0.058499999 0.838
-0.0286 0.058499999 0.838
-0.0272 0.058400001 0.83700001
-0.025699999 0.058499999 0.838
-0.0243 0.058499999 0.838
-0.0228 0.0583 0.83600003
-0.021299999 0.0583 0.83499998
-0.0199 0.0583 0.83499998
-0.0184 0.0583 0.83499998
-0.017000001 0.0583 0.83499998
-0.0155 0.0583 0.83499998
-0.0141 0.0583 0.83499998
-0.0126 0.0583 0.83499998
-0.0112 0.0583 0.83600003
-0.0098000001 0.058400001 0.83700001
-0.0082999999 0.058499999 0.838
-0.0068999999 0.058499999 0.83899999
-0.0054000001 0.058600001 0.83999997
-0.0040000002 0.058699999 0.84100002
-0.0024999999 0.058800001 0.84299999
-0.0011 0.058899999 0.84399998
0.00039999999 0.059 0.84500003
0.0019 0.059 0.84600002
0.0033 0.059 0.84500003
0.0062000002 0.058699999 0.84200001
0.0077 0.058499999 0.83899999
0.0091000004 0.058499999 0.838
0.0106 0.058400001 0.83700001
0.012 0.0583 0.83600003
0.0134 0.0583 0.83600003
0.0149 0.0583 0.83499998
0.0164 0.058400001 0.83700001
0.0178 0.058400001 0.83700001
0.019300001 0.058400001 0.83700001
0.0207 0.058499999 0.838
0.0222 0.058499999 0.83899999
0.023700001 0.058600001 0.83999997
0.0252 0.058699999 0.84100002
0.026699999 0.058699999 0.84200001
0.028100001 0.058699999 0.84100002
0.0296 0.058699999 0.84200001
0.030999999 0.058600001 0.83999997
0.032400001 0.058499999 0.83899999
0.033799998 0.058499999 0.838
0.0352 0.058400001 0.83700001
0.036699999 0.058400001 0.83700001
0.037999999 0.0583 0.83499998
0.039500002 0.0583 0.83499998
0.040899999 0.0583 0.83499998
0.042399999 0.0583 0.83499998
0.043900002 0.058400001 0.83700001
0.045400001 0.058400001 0.83700001
0.046999998 0.058600001 0.83999997
0.048700001 0.058899999 0.84399998
0.050299998 0.059 0.84600002
0.051800001 0.0592 0.84799999
0.053399999 0.0592 0.84899998
-0.41710001 0.062600002 0.87599999
-0.13259999 0.062399998 0.87199998
-0.12970001 0.061700001 0.86299998
-0.1275 0.0614 0.85799998
-0.12530001 0.061000001 0.85299999
-0.1232 0.060699999 0.84899998
-0.1213 0.0605 0.84600002
-0.1193 0.060199998 0.84200001
-0.1172 0.059900001 0.838
-0.1156 0.059799999 0.83700001
-0.1139 0.059700001 0.83499998
-0.1125 0.059700001 0.83499998
-0.1112 0.059799999 0.83600003
-0.1097 0.059799999 0.83600003
-0.1083 0.059799999 0.83600003
-0.1067 0.059700001 0.83499998
-0.1051 0.059599999 0.83399999
-0.1037 0.059599999 0.83399999
-0.1021 0.059599999 0.833
-0.1007 0.059599999 0.833
-0.099299997 0.059599999 0.83399999
-0.097900003 0.059599999 0.83399999
-0.0964 0.059599999 0.83399999
-0.094999999 0.059599999 0.83399999
-0.093599997 0.059599999 0.83399999
-0.091899998 0.059500001 0.83200002
-0.090400003 0.059500001 0.83200002
-0.0889 0.0594 0.83099997
-0.087300003 0.059300002 0.82999998
-0.085900001 0.059300002 0.82999998
-0.0845 0.059300002 0.82999998
-0.082900003 0.059300002 0.829
-0.081600003 0.059300002 0.82999998
-0.080300003 0.0594 0.83099997
-0.078900002 0.059500001 0.83200002
-0.077500001 0.059500001 0.83200002
-0.075999998 0.059500001 0.83200002
-0.074600004 0.059500001 0.83200002
-0.073100001 0.059500001 0.83200002
-0.071699999 0.059500001 0.83200002
-0.070299998 0.059500001 0.83200002
-0.068700001 0.0594 0.83099997
-0.067299999 0.0594 0.83099997
-0.065899998 0.059500001 0.83200002
-0.064499997 0.059500001 0.83200002
-0.063100003 0.059599999 0.833
-0.061799999 0.059599999 0.83399999
-0.0603 0.059599999 0.83399999
-0.058899999 0.059599999 0.83399999
-0.057399999 0.059599999 0.83399999
-0.0559 0.059599999 0.833
-0.054499999 0.059599999 0.833
-0.052999999 0.059599999 0.833
-0.051600002 0.059599999 0.833
-0.050099999 0.059599999 0.833
-0.048700001 0.059599999 0.833
-0.047200002 0.059599999 0.833
-0.045899998 0.059599999 0.83399999
-0.044399999 0.059599999 0.83399999
-0.043000001 0.059599999 0.83399999
-0.041499998 0.059599999 0.83399999
-0.040100001 0.059700001 0.83499998
-0.038699999 0.059700001 0.83499998
-0.0372 0.059700001 0.83499998
-0.035799999 0.059700001 0.83499998
-0.034400001 0.059799999 0.83700001
-0.033 0.059900001 0.838
-0.031599998 0.0601 0.83999997
-0.030200001 0.0601 0.83999997
-0.0287 0.059999999 0.83899999
-0.0272 0.059999999 0.83899999
-0.025800001 0.059999999 0.83899999
-0.0243 0.059900001 0.838
-0.0228 0.059799999 0.83700001
-0.021299999 0.059799999 0.83600003
-0.0199 0.059799999 0.83600003
-0.0184 0.059799999 0.83600003
-0.017000001 0.059799999 0.83600003
-0.0155 0.059799999 0.83600003
-0.0141 0.059700001 0.83499998
-0.0126 0.059799999 0.83600003
-0.0112 0.059799999 0.83700001
-0.0098000001 0.059799999 0.83700001
-0.0082999999 0.059900001 0.838
-0.0068999999 0.059900001 0.838
-0.0054000001 0.059999999 0.83899999
-0.0040000002 0.0601 0.83999997
-0.0024999999 0.0601 0.84100002
-0.0011 0.0603 0.84299999
0.00039999999 0.0603 0.84299999
0.0019 0.0603 0.84399998
0.0033 0.0603 0.84299999
0.0048000002 0.060199998 0.84200001
0.0062000002 0.0601 0.83999997
0.0077 0.059799999 0.83700001
0.0091000004 0.059799999 0.83600003
0.0105 0.059799999 0.83600003
0.012 0.059799999 0.83600003
0.0134 0.059700001 0.83499998
0.0149 0.059700001 0.83499998
0.0163 0.059700001 0.83499998
0.0178 0.059799999 0.83600003
0.019200001 0.059799999 0.83600003
0.0207 0.059799999 0.83700001
0.0222 0.059900001 0.838
0.023700001 0.059999999 0.83899999
0.0252 0.0601 0.83999997
0.0266 0.0601 0.83999997
0.028100001 0.0601 0.83999997
0.0295 0.0601 0.83999997
0.0309 0.059999999 0.83899999
0.032400001 0.059999999 0.83899999
0.033799998 0.059900001 0.838
0.0352 0.059799999 0.83700001
0.036699999 0.059799999 0.83700001
0.0381 0.059799999 0.83600003
0.039500002 0.059700001 0.83499998
0.040899999 0.059700001 0.83499998
0.042399999 0.059700001 0.83499998
0.043900002 0.059799999 0.83700001
0.045400001 0.059799999 0.83700001
0.046999998 0.0601 0.84100002
0.048700001 0.060400002 0.84500003
0.050299998 0.060600001 0.847
0.051899999 0.060699999 0.84899998
0.0535 0.060899999 0.85100001
-0.37740001 0.064400002 0.87900001
-0.3759 0.064400002 0.87900001
-0.13259999 0.063900001 0.87199998
-0.12970001 0.063199997 0.86299998
-0.1276 0.062899999 0.85900003
-0.12530001 0.0625 0.85299999
-0.1211 0.061900001 0.84500003
-0.1191 0.0616 0.84100002
-0.1172 0.0614 0.838
-0.1156 0.061299998 0.83700001
-0.1141 0.0612 0.83600003
-0.1125 0.0612 0.83499998
-0.111 0.0612 0.83499998
-0.1096 0.0612 0.83499998
-0.1081 0.0612 0.83499998
-0.1067 0.0612 0.83499998
-0.1051 0.061099999 0.83399999
-0.1037 0.061099999 0.83399999
-0.1021 0.061000001 0.833
-0.1007 0.061000001 0.833
-0.099299997 0.061099999 0.83399999
-0.097900003 0.061099999 0.83399999
-0.096299998 0.061000001 0.833
-0.094899997 0.061000001 0.833
-0.093400002 0.061000001 0.833
-0.091899998 0.060899999 0.83200002
-0.090400003 0.060899999 0.83200002
-0.0889 0.060899999 0.83099997
-0.087499999 0.060899999 0.83099997
-0.085900001 0.060800001 0.82999998
-0.0845 0.060800001 0.82999998
-0.082999997 0.060800001 0.82999998
-0.081600003 0.060800001 0.82999998
-0.080200002 0.060800001 0.82999998
-0.0788 0.060899999 0.83099997
-0.077500001 0.060899999 0.83200002
-0.075999998 0.060899999 0.83200002
-0.074600004 0.060899999 0.83200002
-0.073100001 0.060899999 0.83200002
-0.071699999 0.060899999 0.83200002
-0.070299998 0.060899999 0.83200002
-0.068700001 0.060899999 0.83099997
-0.067299999 0.060899999 0.83099997
-0.065899998 0.060899999 0.83099997
-0.064499997 0.060899999 0.83200002
-0.063000001 0.060899999 0.83200002
-0.0616 0.060899999 0.83200002
-0.060199998 0.061000001 0.833
-0.058800001 0.061000001 0.833
-0.057300001 0.061000001 0.833
-0.0559 0.061000001 0.833
-0.054499999 0.061000001 0.833
-0.052999999 0.061000001 0.833
-0.051600002 0.061099999 0.83399999
-0.0502 0.061099999 0.83399999
-0.048700001 0.061099999 0.83399999
-0.0473 0.061099999 0.83399999
-0.045899998 0.061099999 0.83399999
-0.044399999 0.061099999 0.83399999
-0.043000001 0.061099999 0.83399999
-0.041499998 0.061099999 0.83399999
-0.040100001 0.0612 0.83499998
-0.038699999 0.0612 0.83499998
-0.037300002 0.0612 0.83600003
-0.0359 0.061299998 0.83700001
-0.034400001 0.061299998 0.83700001
-0.033 0.0614 0.83899999
-0.0317 0.0616 0.84100002
-0.030200001 0.0616 0.84100002
-0.0287 0.0616 0.84100002
-0.0273 0.0616 0.84100002
-0.025800001 0.061500002 0.83999997
-0.0243 0.0614 0.83899999
-0.0228 0.0614 0.838
-0.021400001 0.061299998 0.83700001
-0.0199 0.061299998 0.83700001
-0.0185 0.061299998 0.83700001
-0.017000001 0.061299998 0.83700001
-0.0156 0.061299998 0.83700001
-0.0141 0.061299998 0.83700001
-0.0127 0.061299998 0.83700001
-0.0112 0.061299998 0.83700001
-0.0098000001 0.0614 0.838
-0.0082999999 0.0614 0.83899999
-0.0068999999 0.0614 0.83899999
-0.0054000001 0.061500002 0.83999997
-0.0040000002 0.0616 0.84100002
-0.0024999999 0.0616 0.84100002
-0.0011 0.061700001 0.84299999
0.00039999999 0.061700001 0.84299999
0.0019 0.061700001 0.84299999
0.0033 0.061700001 0.84200001
0.0048000002 0.061700001 0.84200001
0.0062000002 0.061500002 0.83999997
0.0077 0.0614 0.83899999
0.0091000004 0.0614 0.838
0.0106 0.061299998 0.83700001
0.012 0.061299998 0.83700001
0.0134 0.0612 0.83600003
0.0149 0.0612 0.83499998
0.0163 0.0612 0.83499998
0.0178 0.0612 0.83499998
0.019200001 0.0612 0.83499998
0.0207 0.0612 0.83499998
0.0222 0.061299998 0.83700001
0.023600001 0.0614 0.838
0.0252 0.061500002 0.83999997
0.0266 0.061500002 0.83999997
0.028000001 0.0614 0.83899999
0.0295 0.0614 0.83899999
0.0309 0.0614 0.838
0.032400001 0.0614 0.838
0.033799998 0.061299998 0.83700001
0.0352 0.061299998 0.83700001
0.036600001 0.0612 0.83600003
0.037999999 0.0612 0.83499998
0.039500002 0.0612 0.83499998
0.040899999 0.061099999 0.83399999
0.042300001 0.061099999 0.83399999
0.0438 0.0612 0.83499998
0.045299999 0.0612 0.83600003
0.0469 0.0614 0.83899999
0.048700001 0.061799999 0.84399998
0.050299998 0.061999999 0.84600002
0.051899999 0.062199999 0.84899998
0.053800002 0.062700003 0.85600001
-0.37740001 0.065899998 0.87900001
-0.3759 0.065899998 0.87900001
-0.121 0.063299999 0.84399998
-0.119 0.063000001 0.83999997
-0.1171 0.062799998 0.83700001
-0.1154 0.062600002 0.83499998
-0.1139 0.062600002 0.83499998
-0.1126 0.062700003 0.83600003
-0.1112 0.062700003 0.83600003
-0.1096 0.062600002 0.83499998
-0.1081 0.062600002 0.83499998
-0.1068 0.062700003 0.83600003
-0.1052 0.062600002 0.83499998
-0.1037 0.0625 0.83399999
-0.1021 0.0625 0.833
-0.1007 0.0625 0.833
-0.099200003 0.0625 0.833
-0.097800002 0.0625 0.833
-0.096199997 0.062399998 0.83200002
-0.094800003 0.062399998 0.83200002
-0.093199998 0.0623 0.83099997
-0.091799997 0.0623 0.83099997
-0.090300001 0.0623 0.83099997
-0.0889 0.0623 0.83099997
-0.087499999 0.0623 0.83099997
-0.085900001 0.062199999 0.82999998
-0.0845 0.062199999 0.82999998
-0.082999997 0.062199999 0.82999998
-0.081699997 0.0623 0.83099997
-0.080300003 0.0623 0.83099997
-0.078900002 0.062399998 0.83200002
-0.077500001 0.062399998 0.83200002
-0.076099999 0.0625 0.833
-0.074699998 0.0625 0.833
-0.073200002 0.0625 0.833
-0.071800001 0.0625 0.833
-0.070299998 0.062399998 0.83200002
-0.068800002 0.062399998 0.83200002
-0.067299999 0.0623 0.83099997
-0.065899998 0.0623 0.83099997
-0.064499997 0.062399998 0.83200002
-0.063000001 0.062399998 0.83200002
-0.0616 0.062399998 0.83200002
-0.060199998 0.062399998 0.83200002
-0.058699999 0.062399998 0.83200002
-0.057300001 0.0625 0.833
-0.0559 0.0625 0.833
-0.054499999 0.0625 0.83399999
-0.053100001 0.0625 0.83399999
-0.051600002 0.0625 0.83399999
-0.0502 0.0625 0.83399999
-0.048700001 0.0625 0.83399999
-0.047200002 0.0625 0.833
-0.0458 0.0625 0.833
-0.044399999 0.0625 0.83399999
-0.043000001 0.0625 0.83399999
-0.041499998 0.0625 0.83399999
-0.040100001 0.0625 0.83399999
-0.038699999 0.062600002 0.83499998
-0.037300002 0.062700003 0.83600003
-0.0359 0.062799998 0.83700001
-0.034400001 0.062799998 0.83700001
-0.033 0.062899999 0.83899999
-0.0317 0.063100003 0.84100002
-0.030200001 0.063100003 0.84100002
-0.0288 0.063199997 0.84299999
-0.0274 0.063199997 0.84299999
-0.025800001 0.063100003 0.84100002
-0.0243 0.063000001 0.83999997
-0.0228 0.062799998 0.838
-0.021400001 0.062799998 0.83700001
-0.0199 0.062799998 0.838
-0.0185 0.062799998 0.838
-0.017000001 0.062799998 0.838
-0.0156 0.062799998 0.838
-0.0141 0.062799998 0.83700001
-0.0127 0.062799998 0.838
-0.0112 0.062799998 0.838
-0.0098000001 0.062799998 0.838
-0.0082999999 0.062899999 0.83899999
-0.0068999999 0.062899999 0.83899999
-0.0054000001 0.062899999 0.83899999
-0.0040000002 0.063000001 0.83999997
-0.0024999999 0.063100003 0.84100002
-0.0011 0.063100003 0.84100002
0.00039999999 0.063100003 0.84100002
0.0019 0.063100003 0.84100002
0.0033 0.063100003 0.84100002
0.0048000002 0.063000001 0.83999997
0.0062000002 0.062899999 0.83899999
0.0077 0.062799998 0.838
0.0091000004 0.062799998 0.83700001
0.0106 0.062799998 0.83700001
0.012 0.062700003 0.83600003
0.0134 0.062600002 0.83499998
0.0149 0.0625 0.83399999
0.0163 0.0625 0.83399999
0.0177 0.0625 0.83399999
0.019200001 0.0625 0.83399999
0.0206 0.0625 0.83399999
0.0221 0.062600002 0.83499998
0.023600001 0.062799998 0.83700001
0.0251 0.062799998 0.838
0.0265 0.062799998 0.838
0.028000001 0.062799998 0.838
0.0294 0.062799998 0.838
0.0309 0.062799998 0.838
0.032299999 0.062799998 0.83700001
0.033799998 0.062799998 0.83700001
0.0352 0.062799998 0.83700001
0.036699999 0.062799998 0.83700001
0.0381 0.062700003 0.83600003
0.039500002 0.062600002 0.83499998
0.040899999 0.0625 0.83399999
0.042300001 0.0625 0.83399999
0.0438 0.062600002 0.83499998
0.045299999 0.062700003 0.83600003
0.046799999 0.062799998 0.83700001
0.048599999 0.063199997 0.84299999
0.050299998 0.063500002 0.847
0.0524 0.064199999 0.85699999
-0.1228 0.064900003 0.84600002
-0.1209 0.0647 0.84299999
-0.1187 0.064300001 0.838
-0.1168 0.064000003 0.83499998
-0.1154 0.064000003 0.83499998
-0.1139 0.064000003 0.83499998
-0.1127 0.064199999 0.83700001
-0.1113 0.064199999 0.83700001
-0.1098 0.064199999 0.83700001
-0.1085 0.064300001 0.838
-0.1071 0.064300001 0.838
-0.1055 0.064199999 0.83700001
-0.1039 0.064099997 0.83600003
-0.1022 0.064000003 0.83399999
-0.1008 0.064000003 0.83399999
-0.099299997 0.064000003 0.83399999
-0.097800002 0.063900001 0.833
-0.096199997 0.0638 0.83200002
-0.094800003 0.0638 0.83200002
-0.093199998 0.063699998 0.83099997
-0.091799997 0.063699998 0.83099997
-0.090300001 0.063699998 0.83099997
-0.0889 0.063699998 0.83099997
-0.087499999 0.063699998 0.83099997
-0.086000003 0.063699998 0.83099997
-0.0845 0.063699998 0.82999998
-0.083099999 0.063699998 0.83099997
-0.081699997 0.063699998 0.83099997
-0.080300003 0.0638 0.83200002
-0.078900002 0.0638 0.83200002
-0.077600002 0.063900001 0.833
-0.076099999 0.063900001 0.833
-0.073299997 0.064000003 0.83399999
-0.071900003 0.064000003 0.83399999
-0.070299998 0.063900001 0.833
-0.068899997 0.063900001 0.833
-0.067400001 0.0638 0.83200002
-0.065899998 0.063699998 0.83099997
-0.064400002 0.063699998 0.83099997
-0.063000001 0.063699998 0.83099997
-0.061500002 0.063699998 0.83099997
-0.0601 0.063699998 0.83099997
-0.058699999 0.0638 0.83200002
-0.057300001 0.063900001 0.833
-0.056000002 0.064000003 0.83399999
-0.0546 0.064000003 0.83499998
-0.053100001 0.064000003 0.83499998
-0.0517 0.064000003 0.83499998
-0.0502 0.064000003 0.83499998
-0.048700001 0.064000003 0.83399999
-0.0473 0.064000003 0.83399999
-0.045899998 0.064000003 0.83399999
-0.044399999 0.064000003 0.83399999
-0.043000001 0.064000003 0.83399999
-0.041499998 0.064000003 0.83399999
-0.040100001 0.064000003 0.83499998
-0.038699999 0.064000003 0.83499998
-0.037300002 0.064199999 0.83700001
-0.0359 0.064199999 0.83700001
-0.034499999 0.064300001 0.838
-0.033100002 0.064400002 0.83999997
-0.0317 0.064599998 0.84200001
-0.030300001 0.0647 0.84299999
-0.0288 0.0647 0.84399998
-0.0274 0.0647 0.84399998
-0.025900001 0.0647 0.84299999
-0.0243 0.064400002 0.83999997
-0.0229 0.064400002 0.83899999
-0.021400001 0.064300001 0.838
-0.02 0.064400002 0.83899999
-0.0185 0.064400002 0.83899999
-0.017000001 0.064300001 0.838
-0.0156 0.064300001 0.838
-0.0141 0.064300001 0.838
-0.0127 0.064400002 0.83899999
-0.0112 0.064400002 0.83899999
-0.0098000001 0.064300001 0.838
-0.0082999999 0.064300001 0.838
-0.0068999999 0.064400002 0.83899999
-0.0054000001 0.064400002 0.83999997
-0.0040000002 0.064499997 0.84100002
-0.0024999999 0.064499997 0.84100002
-0.0011 0.064499997 0.84100002
0.00039999999 0.064499997 0.84100002
0.0019 0.064499997 0.84100002
0.0033 0.064400002 0.83999997
0.0048000002 0.064300001 0.838
0.0062000002 0.064199999 0.83700001
0.0077 0.064199999 0.83700001
0.0091000004 0.064000003 0.83499998
0.0105 0.064000003 0.83499998
0.012 0.064000003 0.83499998
0.0134 0.064000003 0.83399999
0.0148 0.063900001 0.833
0.0163 0.063900001 0.833
0.019200001 0.063900001 0.833
0.0206 0.063900001 0.833
0.0221 0.064000003 0.83399999
0.023600001 0.064000003 0.83499998
0.0251 0.064199999 0.83700001
0.0265 0.064199999 0.83700001
0.028000001 0.064199999 0.83700001
0.0294 0.064300001 0.838
0.0309 0.064300001 0.838
0.032299999 0.064199999 0.83700001
0.033799998 0.064199999 0.83700001
0.0352 0.064199999 0.83700001
0.036699999 0.064199999 0.83700001
0.0381 0.064199999 0.83700001
0.039500002 0.064000003 0.83499998
0.040899999 0.064000003 0.83499998
0.042300001 0.064000003 0.83399999
0.0438 0.064000003 0.83499998
0.045299999 0.064099997 0.83600003
0.0469 0.064300001 0.838
0.048599999 0.0647 0.84299999
-0.41620001 0.068300001 0.87099999
-0.3759 0.068899997 0.87900001
-0.1203 0.065800004 0.83899999
-0.1183 0.065499999 0.83499998
-0.1167 0.065399997 0.83399999
-0.1151 0.065300003 0.833
-0.1138 0.065399997 0.83399999
-0.1125 0.065499999 0.83499998
-0.1112 0.0656 0.83600003
-0.1098 0.065700002 0.83700001
-0.1087 0.065800004 0.83899999
-0.1072 0.065800004 0.83899999
-0.1056 0.065700002 0.838
-0.104 0.065700002 0.83700001
-0.1023 0.065499999 0.83499998
-0.1009 0.065499999 0.83499998
-0.099299997 0.065399997 0.83399999
