ply
format ascii 1.0
comment PCL generated
element vertex 1501
property float x
property float y
property float z
element camera 0
property float view_px
property float view_py
property float view_pz
property float x_axisx
property float x_axisy
property float x_axisz
property float y_axisx
property float y_axisy
property float y_axisz
property float z_axisx
property float z_axisy
property float z_axisz
property float focal
property float scalex
property float scaley
property float centerx
property float centery
property int viewportx
property int viewporty
property float k1
property float k2
end_header
-0.1349 -0.081699997 0.87699997
-0.13349999 -0.081799999 0.87800002
-0.13060001 -0.081900001 0.87900001
-0.4032 -0.079400003 0.86900002
-0.40220001 -0.079499997 0.87
-0.3901 -0.079499997 0.87
-0.389 -0.079599999 0.87099999
-0.38800001 -0.079700001 0.87199998
-0.37259999 -0.079999998 0.875
-0.35789999 -0.079099998 0.86500001
-0.35679999 -0.0792 0.866
-0.33660001 -0.0801 0.87599999
-0.33360001 -0.079700001 0.87199998
-0.3321 -0.079700001 0.87199998
-0.33129999 -0.079899997 0.87400001
-0.3294 -0.079800002 0.87300003
-0.32749999 -0.079700001 0.87199998
-0.32600001 -0.079700001 0.87199998
-0.32449999 -0.079700001 0.87199998
-0.31150001 -0.080300003 0.87800002
-0.3089 -0.079999998 0.875
-0.30739999 -0.079999998 0.875
-0.30590001 -0.079999998 0.875
-0.2992 -0.079800002 0.87300003
-0.29800001 -0.079899997 0.87400001
-0.29440001 -0.080200002 0.87699997
-0.2933 -0.080300003 0.87800002
-0.29170001 -0.080300003 0.87800002
-0.29049999 -0.080300003 0.87900001
-0.25549999 -0.080300003 0.87900001
-0.25400001 -0.080300003 0.87900001
-0.2525 -0.080300003 0.87900001
-0.2113 -0.080300003 0.87900001
-0.2096 -0.080300003 0.87800002
-0.2076 -0.0801 0.87599999
-0.2058 -0.079999998 0.875
-0.2043 -0.079999998 0.875
-0.20299999 -0.0801 0.87599999
-0.1717 -0.080300003 0.87900001
-0.17020001 -0.080300003 0.87900001
-0.16869999 -0.080300003 0.87900001
-0.15019999 -0.080300003 0.87800002
-0.1487 -0.080300003 0.87800002
-0.1468 -0.0801 0.87599999
-0.1453 -0.0801 0.87599999
-0.14380001 -0.0801 0.87599999
-0.1426 -0.080300003 0.87800002
-0.1411 -0.080300003 0.87800002
-0.13959999 -0.080300003 0.87800002
-0.13770001 -0.0801 0.87599999
-0.1362 -0.0801 0.87599999
-0.1347 -0.0801 0.87599999
-0.13330001 -0.080200002 0.87699997
-0.132 -0.080300003 0.87800002
-0.13060001 -0.080300003 0.87900001
-0.1169 -0.080300003 0.87900001
-0.40369999 -0.078000002 0.87
-0.3865 -0.078199998 0.87199998
-0.38409999 -0.078000002 0.87
-0.38260001 -0.078000002 0.87
-0.37180001 -0.078299999 0.87300003
-0.3698 -0.078199998 0.87199998
-0.33660001 -0.078599997 0.87599999
-0.33320001 -0.078100003 0.87099999
-0.33019999 -0.078100003 0.87099999
-0.32679999 -0.078000002 0.87
-0.32530001 -0.078000002 0.87
-0.3238 -0.078000002 0.87
-0.3134 -0.0788 0.87900001
-0.31119999 -0.078599997 0.87699997
-0.30860001 -0.078400001 0.87400001
-0.30669999 -0.078299999 0.87300003
-0.30520001 -0.078299999 0.87300003
-0.3037 -0.078299999 0.87300003
-0.29980001 -0.078500003 0.875
-0.2987 -0.078599997 0.87599999
-0.29629999 -0.078699999 0.87800002
-0.2951 -0.0788 0.87900001
-0.29359999 -0.0788 0.87900001
-0.2129 -0.0788 0.87900001
-0.2113 -0.0788 0.87900001
-0.2096 -0.078699999 0.87800002
-0.2076 -0.078599997 0.87599999
-0.2061 -0.078599997 0.87599999
-0.2045 -0.078599997 0.87599999
-0.2033 -0.078599997 0.87699997
-0.2022 -0.0788 0.87900001
-0.17020001 -0.0788 0.87900001
-0.16869999 -0.0788 0.87900001
-0.1489 -0.0788 0.87900001
-0.147 -0.078599997 0.87699997
-0.1453 -0.078599997 0.87599999
-0.14380001 -0.078599997 0.87599999
-0.1425 -0.078599997 0.87699997
-0.1411 -0.078699999 0.87800002
-0.13959999 -0.078699999 0.87800002
-0.1381 -0.078699999 0.87800002
-0.1365 -0.078699999 0.87800002
-0.13500001 -0.078699999 0.87800002
-0.13349999 -0.078699999 0.87800002
-0.1321 -0.0788 0.87900001
-0.1183 -0.078699999 0.87800002
-0.1167 -0.078699999 0.87800002
-0.1152 -0.078699999 0.87800002
-0.1138 -0.0788 0.87900001
-0.39129999 -0.077 0.87599999
-0.3865 -0.076700002 0.87199998
-0.3845 -0.0766 0.87099999
-0.38299999 -0.0766 0.87099999
-0.35609999 -0.076300003 0.86799997
-0.35620001 -0.076700002 0.87199998
-0.35440001 -0.077 0.875
-0.32679999 -0.076499999 0.87
-0.32069999 -0.076899998 0.87400001
-0.31799999 -0.077299997 0.87900001
-0.31490001 -0.077299997 0.87900001
-0.3123 -0.077 0.87599999
-0.30970001 -0.076800004 0.87300003
-0.30790001 -0.076700002 0.87199998
-0.30599999 -0.0766 0.87099999
-0.30450001 -0.0766 0.87099999
-0.30329999 -0.076700002 0.87199998
-0.2987 -0.077 0.87599999
-0.28749999 -0.077299997 0.87900001
-0.28569999 -0.077200003 0.87800002
-0.2811 -0.077200003 0.87800002
-0.27990001 -0.077299997 0.87900001
-0.2189 -0.077299997 0.87900001
-0.2113 -0.077299997 0.87900001
-0.2096 -0.077200003 0.87800002
-0.2076 -0.077 0.87599999
-0.2061 -0.077 0.87599999
-0.2045 -0.077 0.87599999
-0.2022 -0.077299997 0.87900001
-0.1504 -0.077299997 0.87900001
-0.1487 -0.077200003 0.87800002
-0.147 -0.077100001 0.87699997
-0.1453 -0.077 0.87599999
-0.14399999 -0.077100001 0.87699997
-0.1426 -0.077200003 0.87800002
-0.1411 -0.077200003 0.87800002
-0.1397 -0.077299997 0.87900001
-0.1382 -0.077299997 0.87900001
-0.1199 -0.077299997 0.87900001
-0.1184 -0.077299997 0.87900001
-0.1167 -0.077200003 0.87800002
-0.1152 -0.077200003 0.87800002
-0.052900001 -0.077299997 0.87900001
-0.051399998 -0.077299997 0.87900001
-0.3845 -0.075099997 0.87099999
-0.38260001 -0.075000003 0.87
-0.3811 -0.075000003 0.87
-0.37959999 -0.075000003 0.87
-0.35710001 -0.075300001 0.87400001
-0.35600001 -0.075400002 0.875
-0.35100001 -0.075300001 0.87400001
-0.3211 -0.075400002 0.875
-0.31799999 -0.075800002 0.87900001
-0.31639999 -0.075800002 0.87900001
-0.31490001 -0.075800002 0.87900001
-0.31200001 -0.075400002 0.875
-0.30939999 -0.075199999 0.87199998
-0.30720001 -0.075000003 0.87
-0.3057 -0.075000003 0.87
-0.30450001 -0.075099997 0.87099999
-0.29929999 -0.0757 0.87800002
-0.29820001 -0.075800002 0.87900001
-0.2789 -0.075499997 0.87599999
-0.2784 -0.075800002 0.87900001
-0.21439999 -0.075800002 0.87900001
-0.2129 -0.075800002 0.87900001
-0.2113 -0.075800002 0.87900001
-0.2096 -0.0757 0.87800002
-0.208 -0.0757 0.87800002
-0.20630001 -0.075599998 0.87699997
-0.1472 -0.0757 0.87800002
-0.1455 -0.075599998 0.87699997
-0.1443 -0.075800002 0.87900001
-0.1428 -0.075800002 0.87900001
-0.1199 -0.075800002 0.87900001
-0.1184 -0.075800002 0.87900001
-0.1169 -0.075800002 0.87900001
-0.1154 -0.075800002 0.87900001
-0.0528 -0.0757 0.87800002
-0.0513 -0.0757 0.87800002
-0.049899999 -0.075800002 0.87900001
-0.048300002 -0.075800002 0.87900001
-0.4061 -0.073700003 0.87199998
-0.40259999 -0.073600002 0.87099999
-0.38690001 -0.073700003 0.87300003
-0.3845 -0.073600002 0.87099999
-0.38299999 -0.073600002 0.87099999
-0.38150001 -0.073600002 0.87099999
-0.38 -0.073600002 0.87099999
-0.37850001 -0.073600002 0.87099999
-0.35749999 -0.073899999 0.875
-0.35600001 -0.073899999 0.875
-0.3502 -0.073700003 0.87199998
-0.34909999 -0.073700003 0.87300003
-0.3123 -0.074000001 0.87599999
-0.30939999 -0.073700003 0.87199998
-0.30720001 -0.0735 0.87
-0.3053 -0.073399998 0.86900002
-0.30289999 -0.073899999 0.875
-0.30239999 -0.074199997 0.87800002
-0.2202 -0.074199997 0.87800002
-0.2154 -0.074100003 0.87699997
-0.2141 -0.074199997 0.87800002
-0.2129 -0.074299999 0.87900001
-0.2113 -0.074299999 0.87900001
-0.2098 -0.074299999 0.87900001
-0.20829999 -0.074299999 0.87900001
-0.2068 -0.074299999 0.87900001
-0.2052 -0.074299999 0.87900001
-0.2035 -0.074199997 0.87800002
-0.1473 -0.074299999 0.87900001
-0.14579999 -0.074299999 0.87900001
-0.1169 -0.074299999 0.87900001
-0.1154 -0.074299999 0.87900001
-0.1138 -0.074299999 0.87900001
-0.1123 -0.074299999 0.87900001
-0.1108 -0.074299999 0.87900001
-0.1077 -0.074299999 0.87900001
-0.1062 -0.074299999 0.87900001
-0.1047 -0.074299999 0.87900001
-0.051399998 -0.074299999 0.87900001
-0.3874 -0.072300002 0.87400001
-0.38339999 -0.0722 0.87199998
-0.38240001 -0.0722 0.87300003
-0.3809 -0.0722 0.87300003
-0.3793 -0.0722 0.87300003
-0.32249999 -0.072700001 0.87900001
-0.3134 -0.072700001 0.87900001
-0.30970001 -0.0722 0.87300003
-0.30720001 -0.071999997 0.87
-0.3053 -0.071900003 0.86900002
-0.21690001 -0.0726 0.87699997
-0.2157 -0.0726 0.87800002
-0.2141 -0.0726 0.87800002
-0.2129 -0.072700001 0.87900001
-0.14579999 -0.072700001 0.87900001
-0.3858 -0.070799999 0.87400001
-0.38429999 -0.070799999 0.87400001
-0.38240001 -0.070699997 0.87300003
-0.3813 -0.070799999 0.87400001
-0.3802 -0.070900001 0.875
-0.3495 -0.070799999 0.87400001
-0.32409999 -0.070900001 0.875
-0.3233 -0.071000002 0.87699997
-0.31079999 -0.071000002 0.87599999
-0.30790001 -0.070600003 0.87199998
-0.22050001 -0.071199998 0.87900001
-0.2189 -0.071199998 0.87900001
-0.2172 -0.071099997 0.87800002
-0.2157 -0.071099997 0.87800002
-0.21439999 -0.071199998 0.87900001
-0.20370001 -0.071199998 0.87900001
-0.2022 -0.071199998 0.87900001
-0.2007 -0.071199998 0.87900001
-0.38339999 -0.0691 0.87199998
-0.38190001 -0.0691 0.87199998
-0.3804 -0.0691 0.87199998
-0.3793 -0.069200002 0.87300003
-0.329 -0.0691 0.87199998
-0.32449999 -0.069399998 0.87599999
-0.32409999 -0.069700003 0.87900001
-0.31150001 -0.069600001 0.87800002
-0.30860001 -0.069300003 0.87400001
-0.2418 -0.069700003 0.87900001
-0.22050001 -0.069700003 0.87900001
-0.2189 -0.069700003 0.87900001
-0.2174 -0.069700003 0.87900001
-0.2159 -0.069700003 0.87900001
-0.2022 -0.069700003 0.87900001
-0.20039999 -0.069600001 0.87800002
-0.34200001 -0.068099998 0.87800002
-0.33629999 -0.0682 0.87900001
-0.33019999 -0.067900002 0.875
-0.31189999 -0.0682 0.87900001
-0.2379 -0.067900002 0.87599999
-0.2022 -0.0682 0.87900001
-0.20039999 -0.068099998 0.87800002
-0.1991 -0.0682 0.87900001
-0.155 -0.0682 0.87900001
-0.1534 -0.0682 0.87900001
-0.35030001 -0.066399999 0.87599999
-0.34119999 -0.066399999 0.87599999
-0.3378 -0.066600002 0.87900001
-0.33590001 -0.066600002 0.87800002
-0.32679999 -0.066299997 0.87400001
-0.32600001 -0.066399999 0.87599999
-0.2022 -0.066600002 0.87900001
-0.2007 -0.066600002 0.87900001
-0.1991 -0.066600002 0.87900001
-0.41260001 -0.0647 0.87300003
-0.41240001 -0.065099999 0.87900001
-0.33590001 -0.064999998 0.87800002
-0.155 -0.065099999 0.87900001
-0.1534 -0.065099999 0.87900001
-0.15189999 -0.065099999 0.87900001
-0.41240001 -0.063600004 0.87900001
-0.3761 -0.0634 0.87599999
-0.33469999 -0.063600004 0.87900001
-0.33059999 -0.0634 0.87599999
-0.1548 -0.063500002 0.87800002
-0.1531 -0.0634 0.87699997
-0.1517 -0.063500002 0.87800002
-0.41350001 -0.061999999 0.87800002
-0.37650001 -0.061900001 0.87699997
-0.37419999 -0.061799999 0.875
-0.34459999 -0.061900001 0.87699997
-0.3423 -0.062100001 0.87900001
-0.33090001 -0.061900001 0.87699997
-0.2362 -0.061799999 0.875
-0.155 -0.062100001 0.87900001
-0.1533 -0.061999999 0.87800002
-0.1517 -0.061999999 0.87800002
-0.41409999 -0.0603 0.87599999
-0.41299999 -0.060400002 0.87699997
-0.41240001 -0.0605 0.87900001
-0.4109 -0.0605 0.87900001
-0.40939999 -0.0605 0.87900001
-0.40790001 -0.0605 0.87900001
-0.3874 -0.060199998 0.87400001
-0.38499999 -0.0601 0.87199998
-0.38060001 -0.059900001 0.86900002
-0.37239999 -0.059999999 0.87099999
-0.36199999 -0.0603 0.875
-0.3427 -0.0603 0.87599999
-0.3423 -0.0605 0.87900001
-0.33090001 -0.060400002 0.87699997
-0.15459999 -0.060400002 0.87699997
-0.1529 -0.0603 0.87599999
-0.1517 -0.0605 0.87800002
-0.41549999 -0.059 0.87900001
-0.40790001 -0.059 0.87900001
-0.38780001 -0.058800001 0.875
-0.3858 -0.058699999 0.87400001
-0.38389999 -0.058600001 0.87300003
-0.37959999 -0.058400001 0.87
-0.37799999 -0.058400001 0.87
-0.37740001 -0.058600001 0.87199998
-0.3612 -0.058600001 0.87300003
-0.36219999 -0.059 0.87900001
-0.34259999 -0.058600001 0.87199998
-0.33469999 -0.059 0.87900001
-0.31150001 -0.059 0.87800002
-0.1565 -0.059 0.87900001
-0.15459999 -0.058899999 0.87699997
-0.1529 -0.058800001 0.87599999
-0.1517 -0.059 0.87800002
-0.39109999 -0.057500001 0.87900001
-0.38820001 -0.057300001 0.87599999
-0.38389999 -0.057100002 0.87300003
-0.38190001 -0.057 0.87199998
-0.3793 -0.057100002 0.87300003
-0.38 -0.057399999 0.87800002
-0.3624 -0.057300001 0.87599999
-0.34220001 -0.057 0.87099999
-0.1594 -0.057399999 0.87800002
-0.1578 -0.057399999 0.87800002
-0.15629999 -0.057399999 0.87800002
-0.15440001 -0.057300001 0.87599999
-0.1533 -0.057399999 0.87800002
-0.15189999 -0.057500001 0.87900001
-0.093999997 -0.057500001 0.87900001
-0.40540001 -0.055799998 0.87699997
-0.38389999 -0.055599999 0.87300003
-0.38240001 -0.055599999 0.87300003
-0.3813 -0.0557 0.87400001
-0.38150001 -0.0559 0.87800002
-0.1609 -0.0559 0.87800002
-0.1592 -0.055799998 0.87699997
-0.1577 -0.055799998 0.87699997
-0.15629999 -0.0559 0.87800002
-0.15459999 -0.055799998 0.87699997
-0.1533 -0.0559 0.87800002
-0.095399998 -0.0559 0.87800002
-0.093900003 -0.0559 0.87800002
-0.092399999 -0.0559 0.87800002
-0.0255 -0.056000002 0.87900001
-0.40130001 -0.054400001 0.87800002
-0.3854 -0.054099999 0.87300003
-0.38389999 -0.054099999 0.87300003
-0.38280001 -0.054099999 0.87400001
-0.38260001 -0.054299999 0.87699997
-0.33399999 -0.054299999 0.87699997
-0.3328 -0.054400001 0.87800002
-0.1609 -0.054400001 0.87800002
-0.1592 -0.054299999 0.87699997
-0.1575 -0.054299999 0.87599999
-0.15629999 -0.054400001 0.87800002
-0.15440001 -0.054299999 0.87599999
-0.1533 -0.054400001 0.87800002
-0.093999997 -0.054499999 0.87900001
-0.4005 -0.0526 0.87300003
-0.39860001 -0.052499998 0.87199998
-0.38690001 -0.0526 0.87300003
-0.38499999 -0.052499998 0.87199998
-0.38389999 -0.0526 0.87300003
-0.38280001 -0.0526 0.87400001
-0.38299999 -0.052900001 0.87800002
-0.3646 -0.0526 0.87400001
-0.36039999 -0.0524 0.87099999
-0.35969999 -0.0526 0.87300003
-0.36019999 -0.052900001 0.87800002
-0.33919999 -0.0524 0.87099999
-0.33469999 -0.0524 0.87099999
-0.1595 -0.052900001 0.87900001
-0.15800001 -0.052900001 0.87900001
-0.1565 -0.052900001 0.87900001
-0.1548 -0.052900001 0.87800002
-0.1534 -0.052900001 0.87900001
-0.15189999 -0.052900001 0.87900001
-0.3863 -0.051199999 0.875
-0.38519999 -0.051199999 0.87599999
-0.38460001 -0.0513 0.87800002
-0.3646 -0.051100001 0.87400001
-0.36230001 -0.050999999 0.87199998
-0.36039999 -0.050900001 0.87099999
-0.3601 -0.051100001 0.87400001
-0.36019999 -0.0513 0.87800002
-0.33919999 -0.050900001 0.87099999
-0.33770001 -0.050900001 0.87099999
-0.33239999 -0.050799999 0.86900002
-0.15800001 -0.051399998 0.87900001
-0.1565 -0.051399998 0.87900001
-0.1533 -0.0513 0.87800002
-0.3854 -0.0495 0.87300003
-0.38479999 -0.049699999 0.875
-0.38460001 -0.049800001 0.87800002
-0.3619 -0.049400002 0.87099999
-0.36039999 -0.049400002 0.87099999
-0.35969999 -0.0495 0.87300003
-0.35980001 -0.049800001 0.87699997
-0.35910001 -0.049899999 0.87900001
-0.3396 -0.0495 0.87199998
-0.33809999 -0.0495 0.87199998
-0.33430001 -0.049400002 0.87
-0.33239999 -0.0493 0.86900002
-0.22499999 -0.049899999 0.87900001
-0.2233 -0.049800001 0.87800002
-0.36660001 -0.048099998 0.875
-0.3642 -0.048 0.87300003
-0.36230001 -0.048 0.87199998
-0.3608 -0.048 0.87199998
-0.35969999 -0.048 0.87300003
-0.35859999 -0.048099998 0.87400001
-0.3583 -0.0482 0.87699997
-0.34419999 -0.0482 0.87599999
-0.34150001 -0.048 0.87300003
-0.3396 -0.048 0.87199998
-0.33770001 -0.047899999 0.87099999
-0.33579999 -0.047899999 0.87
-0.33430001 -0.047899999 0.87
-0.3328 -0.047899999 0.87
-0.22499999 -0.0484 0.87900001
-0.2235 -0.0484 0.87900001
-0.36379999 -0.046500001 0.87199998
-0.36039999 -0.046399999 0.87099999
-0.35969999 -0.046500001 0.87300003
-0.359 -0.046599999 0.875
-0.34079999 -0.046599999 0.875
-0.3362 -0.046399999 0.87099999
-0.33469999 -0.046399999 0.87099999
-0.3328 -0.046399999 0.87
-0.3272 -0.0462 0.86699998
-0.22660001 -0.046799999 0.87900001
-0.22499999 -0.046799999 0.87900001
-0.2235 -0.046799999 0.87900001
-0.1991 -0.046799999 0.87900001
-0.19760001 -0.046799999 0.87900001
-0.40259999 -0.0449 0.87099999
-0.38499999 -0.045299999 0.87900001
-0.3423 -0.045299999 0.87900001
-0.33590001 -0.0451 0.87400001
-0.31189999 -0.045299999 0.87900001
-0.26679999 -0.045200001 0.87599999
-0.26589999 -0.045299999 0.87800002
-0.1991 -0.045299999 0.87900001
-0.1974 -0.045299999 0.87800002
-0.40759999 -0.043400001 0.87199998
-0.4057 -0.043400001 0.87099999
-0.40369999 -0.043299999 0.87
-0.36230001 -0.043400001 0.87199998
-0.3608 -0.043400001 0.87199998
-0.3594 -0.0436 0.87599999
-0.3423 -0.0438 0.87900001
-0.33809999 -0.0436 0.87599999
-0.33739999 -0.043699998 0.87800002
-0.33590001 -0.043699998 0.87800002
-0.31490001 -0.0438 0.87900001
-0.4082 -0.0418 0.87
-0.40619999 -0.0418 0.86900002
-0.4043 -0.041700002 0.86799997
-0.40270001 -0.041700002 0.86799997
-0.40169999 -0.0418 0.86900002
-0.38240001 -0.041999999 0.87300003
-0.3619 -0.041900001 0.87099999
-0.3608 -0.041900001 0.87199998
-0.3572 -0.042199999 0.87800002
-0.19760001 -0.042300001 0.87900001
-0.19589999 -0.042199999 0.87800002
-0.1944 -0.042199999 0.87800002
-0.41060001 -0.040399998 0.87199998
-0.4068 -0.040199999 0.86699998
-0.40529999 -0.040199999 0.86699998
-0.40329999 -0.040100001 0.866
-0.40270001 -0.040199999 0.86799997
-0.3856 -0.0403 0.87
-0.38409999 -0.0403 0.87
-0.38260001 -0.0403 0.87
-0.37760001 -0.0403 0.86900002
-0.19760001 -0.0407 0.87900001
-0.1961 -0.0407 0.87900001
-0.1946 -0.0407 0.87900001
-0.40270001 -0.038699999 0.86799997
-0.3865 -0.038899999 0.87199998
-0.3845 -0.038899999 0.87099999
-0.38260001 -0.038800001 0.87
-0.38060001 -0.038800001 0.86900002
-0.3748 -0.038600001 0.866
-0.36989999 -0.038600001 0.86500001
-0.35929999 -0.038899999 0.87199998
-0.35820001 -0.038899999 0.87300003
-0.31200001 -0.039000001 0.875
-0.19760001 -0.0392 0.87900001
-0.19589999 -0.0392 0.87800002
-0.1944 -0.0392 0.87800002
-0.38409999 -0.037300002 0.87
-0.38060001 -0.037300002 0.86900002
-0.37869999 -0.0372 0.86799997
-0.1961 -0.037700001 0.87900001
-0.1946 -0.037700001 0.87900001
-0.4059 -0.035599999 0.86500001
-0.40009999 -0.0359 0.87199998
-0.3161 -0.0361 0.87800002
-0.31380001 -0.035999998 0.87599999
-0.23819999 -0.0361 0.87699997
-0.23720001 -0.036200002 0.87900001
-0.2098 -0.036200002 0.87900001
-0.19589999 -0.0361 0.87800002
-0.19410001 -0.0361 0.87699997
-0.19310001 -0.036200002 0.87900001
-0.38929999 -0.034499999 0.875
-0.31639999 -0.034600001 0.87900001
-0.31459999 -0.034600001 0.87800002
-0.2098 -0.034600001 0.87900001
-0.38929999 -0.033 0.875
-0.37909999 -0.032699998 0.86900002
-0.37760001 -0.032699998 0.86900002
-0.3612 -0.032900002 0.87300003
-0.36050001 -0.033 0.875
-0.3594 -0.033 0.87599999
-0.31490001 -0.033100002 0.87900001
-0.30230001 -0.032699998 0.86900002
-0.3712 -0.031199999 0.86799997
-0.37009999 -0.031199999 0.86900002
-0.3617 -0.031599998 0.87800002
-0.3195 -0.031599998 0.87900001
-0.31799999 -0.031599998 0.87900001
-0.3161 -0.031599998 0.87800002
-0.31459999 -0.031599998 0.87800002
-0.31299999 -0.031599998 0.87800002
-0.30779999 -0.031500001 0.87599999
-0.3856 -0.029999999 0.87699997
-0.3714 -0.0298 0.87199998
-0.36899999 -0.0298 0.87
-0.36090001 -0.029999999 0.87599999
-0.30289999 -0.029899999 0.875
-0.36939999 -0.0283 0.87099999
-0.36790001 -0.0283 0.87099999
-0.24330001 -0.0286 0.87900001
-0.2418 -0.0286 0.87900001
-0.37779999 -0.026799999 0.87300003
-0.3484 -0.027000001 0.87900001
-0.34689999 -0.027000001 0.87900001
-0.25979999 -0.027000001 0.87800002
-0.25709999 -0.026900001 0.87400001
-0.24330001 -0.027000001 0.87900001
-0.2418 -0.027000001 0.87900001
-0.2403 -0.027000001 0.87900001
-0.40740001 -0.0251 0.86500001
-0.4068 -0.0252 0.86699998
-0.3457 -0.0254 0.87599999
-0.34419999 -0.0254 0.87599999
-0.30430001 -0.0255 0.87900001
-0.25920001 -0.0254 0.87599999
-0.25740001 -0.0254 0.875
-0.25619999 -0.0254 0.87599999
-0.25549999 -0.0255 0.87900001
-0.243 -0.0255 0.87800002
-0.241 -0.0254 0.87599999
-0.2403 -0.0255 0.87900001
-0.2388 -0.0255 0.87900001
-0.23720001 -0.0255 0.87900001
-0.2357 -0.0255 0.87900001
-0.2342 -0.0255 0.87900001
-0.40630001 -0.023600001 0.866
-0.40810001 -0.023800001 0.87300003
-0.34349999 -0.024 0.87800002
-0.30430001 -0.024 0.87900001
-0.30270001 -0.024 0.87900001
-0.25830001 -0.024 0.87800002
-0.2422 -0.0239 0.875
-0.24070001 -0.0239 0.875
-0.2397 -0.0239 0.87699997
-0.2388 -0.024 0.87900001
-0.23720001 -0.024 0.87900001
-0.40740001 -0.0221 0.86500001
-0.4073 -0.0222 0.86799997
-0.40759999 -0.022299999 0.87199998
-0.34729999 -0.022399999 0.87599999
-0.34529999 -0.022399999 0.875
-0.34380001 -0.022399999 0.875
-0.3423 -0.022399999 0.875
-0.3416 -0.022399999 0.87699997
-0.3389 -0.022399999 0.87800002
-0.30430001 -0.022500001 0.87900001
-0.2631 -0.022500001 0.87900001
-0.26069999 -0.022399999 0.87599999
-0.25920001 -0.022399999 0.87599999
-0.2586 -0.022500001 0.87900001
-0.241 -0.022399999 0.87599999
-0.23999999 -0.022399999 0.87800002
-0.2388 -0.022500001 0.87900001
-0.40759999 -0.0208 0.87199998
-0.34760001 -0.0209 0.87699997
-0.34529999 -0.0208 0.875
-0.34419999 -0.0209 0.87599999
-0.3427 -0.0209 0.87599999
-0.34119999 -0.0209 0.87599999
-0.33970001 -0.0209 0.87599999
-0.26159999 -0.0209 0.87900001
-0.26010001 -0.0209 0.87900001
-0.23999999 -0.0209 0.87800002
-0.2388 -0.0209 0.87900001
-0.23720001 -0.0209 0.87900001
-0.2357 -0.0209 0.87900001
-0.2342 -0.0209 0.87900001
-0.23270001 -0.0209 0.87900001
-0.23109999 -0.0209 0.87900001
-0.34450001 -0.019300001 0.87300003
-0.34299999 -0.019300001 0.87300003
-0.34150001 -0.019300001 0.87300003
-0.3378 -0.019300001 0.875
-0.33660001 -0.019300001 0.87599999
-0.35030001 -0.0178 0.87599999
-0.3484 -0.0178 0.875
-0.34450001 -0.0178 0.87300003
-0.3423 -0.0178 0.875
-0.3416 -0.0178 0.87699997
-0.3389 -0.017899999 0.87800002
-0.3378 -0.017899999 0.87900001
-0.34310001 -0.0163 0.87699997
-0.38820001 -0.0147 0.86900002
-0.4034 -0.0133 0.87599999
-0.38510001 -0.0132 0.86900002
-0.38409999 -0.0132 0.87
-0.3283 -0.0133 0.87800002
-0.4048 -0.0118 0.87900001
-0.3955 -0.0117 0.87199998
-0.32980001 -0.0118 0.87800002
-0.32519999 -0.0118 0.87800002
-0.30430001 -0.0118 0.87900001
-0.3267 -0.0103 0.87800002
-0.36129999 -0.0087000001 0.87699997
-0.32859999 -0.0087000001 0.87900001
-0.36090001 -0.0071999999 0.87599999
-0.36059999 -0.0071999999 0.87900001
-0.2983 -0.0071999999 0.875
-0.074000001 -0.0071999999 0.87599999
-0.37869999 -0.0057000001 0.875
-0.3633 -0.0057000001 0.87800002
-0.3617 -0.0057000001 0.87800002
-0.36019999 -0.0057000001 0.87800002
-0.35910001 -0.0057000001 0.87900001
-0.30000001 -0.0055999998 0.87099999
-0.29660001 -0.0055999998 0.87
-0.29609999 -0.0057000001 0.87300003
-0.296 -0.0057000001 0.87699997
-0.071400002 -0.0055 0.84600002
-0.07 -0.0055 0.84600002
-0.068400003 -0.0055 0.84500003
-0.0669 -0.0055 0.84399998
-0.065399997 -0.0055 0.84399998
-0.063900001 -0.0055 0.84299999
-0.36059999 -0.0041999999 0.87900001
-0.30399999 -0.0041999999 0.87400001
-0.30180001 -0.0041 0.87199998
-0.3003 -0.0041 0.87199998
-0.29809999 -0.0041 0.87
-0.29699999 -0.0041 0.87099999
-0.2958 -0.0041 0.87199998
-0.2956 -0.0041999999 0.87599999
-0.071000002 -0.0040000002 0.84100002
-0.069600001 -0.0040000002 0.84100002
-0.067900002 -0.0040000002 0.83899999
-0.066399999 -0.0040000002 0.838
-0.064900003 -0.0040000002 0.83700001
-0.0634 -0.0040000002 0.83700001
-0.061799999 -0.0040000002 0.83499998
-0.0603 -0.0040000002 0.83399999
-0.30579999 -0.0027000001 0.87900001
-0.30320001 -0.0026 0.87599999
-0.30070001 -0.0026 0.87300003
-0.29809999 -0.0026 0.87
-0.29699999 -0.0026 0.87099999
-0.2958 -0.0026 0.87199998
-0.2956 -0.0026 0.87599999
-0.2951 -0.0027000001 0.87900001
-0.087200001 -0.0024999999 0.815
-0.086300001 -0.0024999999 0.81999999
-0.085600004 -0.0024999999 0.82700002
-0.084700003 -0.0024999999 0.83200002
-0.083400004 -0.0024999999 0.83399999
-0.082599998 -0.0024999999 0.83999997
-0.0814 -0.0024999999 0.84299999
-0.079999998 -0.0024999999 0.84399998
-0.078599997 -0.0024999999 0.84399998
-0.070500001 -0.0024999999 0.83499998
-0.0691 -0.0024999999 0.83499998
-0.067500003 -0.0024999999 0.83399999
-0.066100001 -0.0024999999 0.83399999
-0.064599998 -0.0024999999 0.83399999
-0.063199997 -0.0024999999 0.83399999
-0.061700001 -0.0024999999 0.833
-0.060199998 -0.0024999999 0.833
-0.058899999 -0.0024999999 0.83399999
-0.30430001 -0.0011 0.87900001
-0.3017 -0.0011 0.87599999
-0.29949999 -0.0011 0.87400001
-0.2983 -0.0011 0.875
-0.29750001 -0.0011 0.87699997
-0.087300003 -0.0011 0.81599998
-0.086499996 -0.0011 0.82200003
-0.0858 -0.0011 0.829
-0.084700003 -0.0011 0.83200002
-0.083499998 -0.0011 0.83499998
-0.082599998 -0.0011 0.83999997
-0.081200004 -0.0011 0.84100002
-0.079800002 -0.0011 0.84100002
-0.078199998 -0.0011 0.83999997
-0.076499999 -0.0011 0.83700001
-0.074900001 -0.0011 0.83499998
-0.073299997 -0.0011 0.83399999
-0.0704 -0.0011 0.83399999
-0.068999998 -0.0011 0.83399999
-0.067500003 -0.0011 0.83399999
-0.064599998 -0.0011 0.83399999
-0.063199997 -0.0011 0.83399999
-0.061700001 -0.0011 0.833
-0.060199998 -0.0011 0.833
-0.058899999 -0.0011 0.83399999
-0.057599999 -0.0011 0.83600003
-0.30239999 0.00039999999 0.87800002
-0.30050001 0.00039999999 0.87699997
-0.29929999 0.00039999999 0.87800002
-0.088600002 0.00039999999 0.815
-0.0876 0.00039999999 0.81900001
-0.086900003 0.00039999999 0.82599998
-0.086000003 0.00039999999 0.83099997
-0.084799998 0.00039999999 0.833
-0.083499998 0.00039999999 0.83499998
-0.082500003 0.00039999999 0.83899999
-0.080899999 0.00039999999 0.838
-0.079400003 0.00039999999 0.83700001
-0.077699997 0.00039999999 0.83499998
-0.076099999 0.00039999999 0.833
-0.074699998 0.00039999999 0.833
-0.073100001 0.00039999999 0.83200002
-0.071699999 0.00039999999 0.83200002
-0.070299998 0.00039999999 0.833
-0.068899997 0.00039999999 0.833
-0.067500003 0.00039999999 0.833
-0.066 0.00039999999 0.833
-0.064599998 0.00039999999 0.833
-0.063100003 0.00039999999 0.833
-0.061700001 0.00039999999 0.833
-0.060199998 0.00039999999 0.833
-0.058800001 0.00039999999 0.833
-0.057599999 0.00039999999 0.83600003
-0.30239999 0.0019 0.87800002
-0.30019999 0.0019 0.87599999
-0.29969999 0.0019 0.87900001
-0.090099998 0.0018 0.81599998
-0.089400001 0.0018 0.82200003
-0.088399999 0.0018 0.82599998
-0.087200001 0.0018 0.829
-0.086099997 0.0018 0.83200002
-0.084799998 0.0018 0.833
-0.083499998 0.0018 0.83499998
-0.0823 0.0018 0.83700001
-0.080899999 0.0018 0.838
-0.079499997 0.0018 0.838
-0.077699997 0.0018 0.83499998
-0.076200001 0.0018 0.83399999
-0.0748 0.0018 0.83399999
-0.073200002 0.0018 0.833
-0.071800001 0.0018 0.833
-0.070299998 0.0018 0.83200002
-0.068899997 0.0018 0.833
-0.067400001 0.0018 0.83200002
-0.065899998 0.0018 0.83200002
-0.064499997 0.0018 0.83200002
-0.063000001 0.0018 0.83200002
-0.0616 0.0018 0.83200002
-0.060199998 0.0018 0.833
-0.058800001 0.0018 0.833
-0.057500001 0.0018 0.83499998
-0.056200001 0.0018 0.838
-0.055100001 0.0018 0.84299999
-0.053800002 0.0018 0.84500003
-0.0491 0.0018 0.83999997
-0.3012 0.0034 0.87900001
-0.090899996 0.0031999999 0.82300001
-0.0898 0.0031999999 0.82599998
-0.088699996 0.0031999999 0.829
-0.087300003 0.0031999999 0.82999998
-0.086000003 0.0033 0.83099997
-0.084700003 0.0033 0.83200002
-0.083300002 0.0033 0.833
-0.082099997 0.0033 0.83499998
-0.080700003 0.0033 0.83600003
-0.079400003 0.0033 0.83700001
-0.077799998 0.0033 0.83600003
-0.076300003 0.0033 0.83499998
-0.074900001 0.0033 0.83499998
-0.073299997 0.0033 0.83399999
-0.071800001 0.0033 0.833
-0.070299998 0.0033 0.833
-0.068899997 0.0033 0.833
-0.067400001 0.0033 0.83200002
-0.065899998 0.0033 0.83200002
-0.064499997 0.0033 0.83200002
-0.063000001 0.0033 0.83200002
-0.0616 0.0033 0.83200002
-0.060199998 0.0033 0.833
-0.058899999 0.0033 0.83399999
-0.057599999 0.0033 0.83600003
-0.056299999 0.0033 0.83899999
-0.055 0.0033 0.84200001
-0.0537 0.0033 0.84299999
-0.052299999 0.0033 0.84399998
-0.050700001 0.0033 0.84299999
-0.0491 0.0033 0.83999997
-0.047499999 0.0033 0.838
-0.046 0.0033 0.83700001
-0.044599999 0.0033 0.83700001
-0.3989 0.0049000001 0.86299998
-0.37259999 0.0049000001 0.875
-0.37239999 0.0049999999 0.87800002
-0.32069999 0.0049999999 0.87800002
-0.3188 0.0049999999 0.87699997
-0.091600001 0.0046999999 0.829
-0.0902 0.0046999999 0.82999998
-0.088799998 0.0046999999 0.82999998
-0.087499999 0.0046999999 0.83099997
-0.086099997 0.0046999999 0.83200002
-0.084799998 0.0046999999 0.833
-0.083400004 0.0046999999 0.83399999
-0.0823 0.0046999999 0.83700001
-0.081 0.0046999999 0.83899999
-0.079599999 0.0046999999 0.83899999
-0.0779 0.0046999999 0.83700001
-0.076499999 0.0046999999 0.83700001
-0.074900001 0.0046999999 0.83499998
-0.073299997 0.0046999999 0.83399999
-0.071800001 0.0046999999 0.833
-0.070299998 0.0046999999 0.83200002
-0.068800002 0.0046999999 0.83200002
-0.067400001 0.0046999999 0.83200002
-0.065899998 0.0046999999 0.83200002
-0.064499997 0.0046999999 0.83200002
-0.063100003 0.0046999999 0.833
-0.061700001 0.0046999999 0.833
-0.0603 0.0046999999 0.83399999
-0.058899999 0.0046999999 0.83399999
-0.057599999 0.0046999999 0.83700001
-0.056299999 0.0046999999 0.83899999
-0.054900002 0.0046999999 0.83999997
-0.0535 0.0046999999 0.84100002
-0.052099999 0.0046999999 0.84100002
-0.050500002 0.0046999999 0.83899999
-0.048999999 0.0046999999 0.838
-0.047499999 0.0046999999 0.838
-0.046100002 0.0046999999 0.838
-0.0447 0.0046999999 0.83899999
-0.043299999 0.0046999999 0.84100002
-0.398 0.0063999998 0.861
-0.37259999 0.0065000001 0.875
-0.37239999 0.0065000001 0.87800002
-0.37130001 0.0065000001 0.87900001
-0.3195 0.0065000001 0.87900001
-0.31799999 0.0065000001 0.87900001
-0.093099996 0.0060999999 0.82999998
-0.091700003 0.0060999999 0.82999998
-0.090300001 0.0060999999 0.83099997
-0.0889 0.0060999999 0.83099997
-0.087499999 0.0060999999 0.83099997
-0.086199999 0.0060999999 0.833
-0.085000001 0.0062000002 0.83499998
-0.083800003 0.0062000002 0.838
-0.082599998 0.0062000002 0.83999997
-0.081200004 0.0062000002 0.84100002
-0.079700001 0.0062000002 0.83999997
-0.0779 0.0062000002 0.83700001
-0.076399997 0.0062000002 0.83600003
-0.0748 0.0062000002 0.83399999
-0.073299997 0.0062000002 0.83399999
-0.071800001 0.0060999999 0.833
-0.070299998 0.0060999999 0.83200002
-0.068899997 0.0060999999 0.833
-0.067400001 0.0060999999 0.83200002
-0.065899998 0.0060999999 0.83200002
-0.064499997 0.0060999999 0.83200002
-0.063100003 0.0060999999 0.833
-0.061700001 0.0060999999 0.833
-0.0603 0.0062000002 0.83399999
-0.058899999 0.0062000002 0.83499998
-0.057599999 0.0062000002 0.83700001
-0.056200001 0.0062000002 0.838
-0.054900002 0.0062000002 0.83899999
-0.053399999 0.0062000002 0.83899999
-0.051899999 0.0062000002 0.838
-0.0504 0.0062000002 0.83700001
-0.048799999 0.0062000002 0.83499998
-0.047400001 0.0062000002 0.83499998
-0.045899998 0.0062000002 0.83399999
-0.044500001 0.0062000002 0.83499998
-0.043099999 0.0062000002 0.83700001
-0.042100001 0.0062000002 0.84500003
-0.3739 0.0080000004 0.87800002
-0.37239999 0.0080000004 0.87800002
-0.37090001 0.0080000004 0.87800002
-0.3698 0.0080000004 0.87900001
-0.31639999 0.0080000004 0.87900001
-0.093199998 0.0076000001 0.83099997
-0.091799997 0.0076000001 0.83099997
-0.090400003 0.0076000001 0.83200002
-0.089000002 0.0076000001 0.83200002
-0.087700002 0.0076000001 0.833
-0.086599998 0.0076000001 0.83700001
-0.085699998 0.0077 0.84200001
-0.084399998 0.0077 0.84399998
-0.082900003 0.0077 0.84299999
-0.0814 0.0077 0.84299999
-0.079700001 0.0077 0.83999997
-0.078000002 0.0076000001 0.838
-0.076499999 0.0076000001 0.83700001
-0.074900001 0.0076000001 0.83499998
-0.073299997 0.0076000001 0.83399999
-0.071800001 0.0076000001 0.833
-0.070299998 0.0076000001 0.833
-0.068899997 0.0076000001 0.833
-0.067500003 0.0076000001 0.833
-0.065899998 0.0076000001 0.83200002
-0.064599998 0.0076000001 0.833
-0.063100003 0.0076000001 0.833
-0.061700001 0.0076000001 0.833
-0.0603 0.0076000001 0.83399999
-0.058899999 0.0076000001 0.83499998
-0.057599999 0.0076000001 0.83600003
-0.056200001 0.0076000001 0.83700001
-0.054699998 0.0076000001 0.83700001
-0.053300001 0.0076000001 0.83700001
-0.0517 0.0076000001 0.83499998
-0.0502 0.0076000001 0.83499998
-0.048700001 0.0076000001 0.833
-0.047200002 0.0076000001 0.833
-0.0458 0.0076000001 0.833
-0.044399999 0.0076000001 0.83399999
-0.043000001 0.0076000001 0.83499998
-0.041700002 0.0076000001 0.838
-0.0933 0.0089999996 0.83200002
-0.091899998 0.0089999996 0.83200002
-0.090400003 0.0089999996 0.83200002
-0.089100003 0.0089999996 0.833
-0.088 0.0091000004 0.83600003
-0.086999997 0.0091000004 0.84100002
-0.086000003 0.0092000002 0.84500003
-0.0845 0.0092000002 0.84500003
-0.082999997 0.0092000002 0.84399998
-0.0814 0.0091000004 0.84299999
-0.079700001 0.0091000004 0.83999997
-0.078000002 0.0091000004 0.838
-0.076399997 0.0091000004 0.83600003
-0.0748 0.0089999996 0.83399999
-0.073200002 0.0089999996 0.833
-0.071800001 0.0089999996 0.833
-0.070299998 0.0089999996 0.833
-0.068899997 0.0089999996 0.833
-0.067500003 0.0089999996 0.833
-0.065899998 0.0089999996 0.83200002
-0.064599998 0.0089999996 0.833
-0.063100003 0.0089999996 0.833
-0.061799999 0.0089999996 0.83399999
-0.0603 0.0089999996 0.83399999
-0.058899999 0.0089999996 0.83399999
-0.057500001 0.0091000004 0.83499998
-0.056000002 0.0091000004 0.83499998
-0.0546 0.0091000004 0.83499998
-0.053100001 0.0091000004 0.83499998
-0.051600002 0.0089999996 0.83399999
-0.050099999 0.0089999996 0.833
-0.048700001 0.0089999996 0.833
-0.047200002 0.0089999996 0.833
-0.0458 0.0089999996 0.833
-0.044399999 0.0089999996 0.83399999
-0.043000001 0.0089999996 0.83399999
-0.0416 0.0091000004 0.83600003
-0.040600002 0.0092000002 0.84399998
-0.3883 0.0109 0.866
-0.30430001 0.0111 0.87900001
-0.3012 0.0111 0.87900001
-0.094800003 0.0105 0.83200002
-0.093199998 0.0105 0.83099997
-0.091899998 0.0105 0.83200002
-0.090400003 0.0105 0.83200002
-0.089000002 0.0105 0.83200002
-0.087899998 0.0105 0.83499998
-0.087200001 0.0106 0.84200001
-0.086000003 0.0106 0.84500003
-0.0845 0.0106 0.84500003
-0.083099999 0.0106 0.84500003
-0.081500001 0.0106 0.84399998
-0.079899997 0.0106 0.84200001
-0.078100003 0.0106 0.83899999
-0.076499999 0.0105 0.83700001
-0.0748 0.0105 0.83399999
-0.073200002 0.0105 0.833
-0.071800001 0.0105 0.833
-0.070299998 0.0105 0.833
-0.068899997 0.0105 0.833
-0.067500003 0.0105 0.833
-0.065899998 0.0105 0.83200002
-0.064599998 0.0105 0.833
-0.063100003 0.0105 0.833
-0.061799999 0.0105 0.83399999
-0.0603 0.0105 0.83399999
-0.058899999 0.0105 0.83399999
-0.057500001 0.0105 0.83499998
-0.056000002 0.0105 0.83499998
-0.0546 0.0105 0.83499998
-0.053100001 0.0105 0.83399999
-0.051600002 0.0105 0.83399999
-0.050099999 0.0105 0.833
-0.048700001 0.0105 0.833
-0.047200002 0.0105 0.833
-0.0458 0.0105 0.833
-0.044399999 0.0105 0.83399999
-0.043000001 0.0105 0.83499998
-0.041700002 0.0105 0.83700001
-0.040600002 0.0106 0.84399998
-0.039299998 0.0107 0.84799999
-0.036499999 0.0107 0.85299999
-0.035300002 0.0108 0.85900003
-0.0339 0.0108 0.86199999
-0.032499999 0.0109 0.86299998
-0.031099999 0.0109 0.86500001
-0.0296 0.0109 0.866
-0.028100001 0.0109 0.86500001
-0.37889999 0.0124 0.86500001
-0.35030001 0.0125 0.87599999
-0.3484 0.0125 0.875
-0.30270001 0.0126 0.87900001
-0.094700001 0.0119 0.83099997
-0.093199998 0.0119 0.83099997
-0.091799997 0.0119 0.83099997
-0.090300001 0.0119 0.83099997
-0.089000002 0.0119 0.83200002
-0.088 0.012 0.83600003
-0.087300003 0.0121 0.84299999
-0.086000003 0.0121 0.84500003
-0.0845 0.0121 0.84500003
-0.083099999 0.0121 0.84500003
-0.0814 0.0121 0.84299999
-0.079800002 0.012 0.84100002
-0.078000002 0.012 0.838
-0.076399997 0.012 0.83600003
-0.0748 0.0119 0.83399999
-0.073200002 0.0119 0.833
-0.071699999 0.0119 0.83200002
-0.070299998 0.0119 0.833
-0.068899997 0.0119 0.833
-0.067500003 0.0119 0.833
-0.066 0.0119 0.833
-0.064599998 0.0119 0.83399999
-0.063199997 0.0119 0.83399999
-0.061799999 0.0119 0.83499998
-0.060400002 0.0119 0.83499998
-0.058899999 0.0119 0.83499998
-0.057500001 0.0119 0.83499998
-0.056000002 0.0119 0.83399999
-0.054499999 0.0119 0.83399999
-0.053100001 0.0119 0.83399999
-0.051600002 0.0119 0.833
-0.050099999 0.0119 0.83200002
-0.048599999 0.0119 0.83200002
-0.047200002 0.0119 0.833
-0.0458 0.0119 0.833
-0.044500001 0.0119 0.83499998
-0.043099999 0.012 0.83700001
-0.041900001 0.012 0.84100002
-0.040600002 0.0121 0.84500003
-0.0392 0.0121 0.84600002
-0.037799999 0.0121 0.84799999
-0.0363 0.0121 0.84799999
-0.034899998 0.0121 0.84799999
-0.033399999 0.0121 0.84799999
-0.0319 0.0121 0.84799999
-0.0306 0.0122 0.85100001
-0.029200001 0.0122 0.85299999
-0.027799999 0.0123 0.85600001
-0.0264 0.0123 0.85799998
-0.024900001 0.0123 0.86000001
-0.35100001 0.014 0.87400001
-0.34909999 0.014 0.87300003
-0.34760001 0.014 0.87300003
-0.34650001 0.014 0.87400001
-0.3457 0.0141 0.87599999
-0.345 0.0141 0.87800002
-0.30579999 0.0141 0.87900001
-0.094800003 0.0133 0.83200002
-0.093199998 0.0133 0.83099997
-0.091799997 0.0133 0.83099997
-0.090300001 0.0133 0.83099997
-0.089100003 0.0134 0.833
-0.088299997 0.0135 0.83899999
-0.087399997 0.0135 0.84399998
-0.0845 0.0136 0.84500003
-0.0814 0.0135 0.84299999
-0.079800002 0.0135 0.84100002
-0.078100003 0.0135 0.83899999
-0.076499999 0.0134 0.83700001
-0.074900001 0.0134 0.83499998
-0.073299997 0.0134 0.83399999
-0.071900003 0.0134 0.83399999
-0.0704 0.0134 0.83399999
-0.068999998 0.0134 0.83399999
-0.067500003 0.0134 0.83399999
-0.066 0.0134 0.833
-0.064599998 0.0134 0.83399999
-0.063199997 0.0134 0.83399999
-0.061799999 0.0134 0.83499998
-0.060400002 0.0134 0.83499998
-0.058899999 0.0134 0.83399999
-0.057399999 0.0134 0.83399999
-0.056000002 0.0134 0.83399999
-0.054499999 0.0134 0.833
-0.052999999 0.0134 0.833
-0.051600002 0.0134 0.833
-0.050099999 0.0133 0.83200002
-0.048599999 0.0133 0.83200002
-0.047200002 0.0134 0.833
-0.0458 0.0134 0.833
-0.044500001 0.0134 0.83499998
-0.043099999 0.0134 0.83600003
-0.0418 0.0135 0.83899999
-0.0405 0.0135 0.84200001
-0.039099999 0.0135 0.84399998
-0.037700001 0.0136 0.84500003
-0.036200002 0.0136 0.84600002
-0.0348 0.0136 0.84600002
-0.033300001 0.0136 0.84600002
-0.0319 0.0136 0.84600002
-0.030400001 0.0136 0.84600002
-0.028999999 0.0136 0.84799999
-0.0275 0.0136 0.84899998
-0.0261 0.0136 0.85000002
-0.024599999 0.0136 0.85000002
-0.0232 0.0137 0.85100001
-0.39899999 0.0155 0.87300003
-0.39449999 0.0155 0.87300003
-0.3506 0.0155 0.87300003
-0.34869999 0.0155 0.87199998
-0.34720001 0.0155 0.87199998
-0.3461 0.0155 0.87300003
-0.34419999 0.0156 0.87599999
-0.34349999 0.0156 0.87800002
-0.30219999 0.0155 0.87300003
-0.094700001 0.0148 0.83099997
-0.093099996 0.0148 0.82999998
-0.091700003 0.0148 0.82999998
-0.090300001 0.0148 0.83099997
-0.089000002 0.0148 0.83200002
-0.088100001 0.0149 0.83700001
-0.087300003 0.015 0.84299999
-0.085900001 0.015 0.84399998
-0.084399998 0.015 0.84399998
-0.082900003 0.015 0.84299999
-0.081200004 0.015 0.84100002
-0.079599999 0.0149 0.83899999
-0.078000002 0.0149 0.838
-0.076300003 0.0148 0.83499998
-0.0748 0.0148 0.83399999
-0.073299997 0.0148 0.83399999
-0.071800001 0.0148 0.833
-0.070500001 0.0148 0.83499998
-0.0691 0.0148 0.83499998
-0.067500003 0.0148 0.83399999
-0.066100001 0.0148 0.83399999
-0.064599998 0.0148 0.83399999
-0.063199997 0.0148 0.83399999
-0.061799999 0.0148 0.83399999
-0.0603 0.0148 0.83399999
-0.058899999 0.0148 0.83399999
-0.057300001 0.0148 0.833
-0.056000002 0.0148 0.83399999
-0.054499999 0.0148 0.833
-0.052999999 0.0148 0.833
-0.051600002 0.0148 0.833
-0.050099999 0.0148 0.83200002
-0.048599999 0.0148 0.83200002
-0.047200002 0.0148 0.833
-0.045899998 0.0148 0.83399999
-0.044500001 0.0148 0.83499998
-0.043099999 0.0149 0.83600003
-0.041700002 0.0149 0.838
-0.040399998 0.0149 0.83999997
-0.039000001 0.015 0.84299999
-0.037599999 0.015 0.84399998
-0.036200002 0.015 0.84399998
-0.034699999 0.015 0.84399998
-0.033199999 0.015 0.84399998
-0.0317 0.015 0.84299999
-0.030300001 0.015 0.84399998
-0.028899999 0.015 0.84500003
-0.0274 0.015 0.84500003
-0.026000001 0.0151 0.847
-0.024599999 0.0151 0.84799999
-0.0231 0.0151 0.847
-0.021600001 0.0151 0.847
-0.40130001 0.017100001 0.87800002
-0.39579999 0.017100001 0.87599999
-0.39300001 0.017000001 0.87300003
-0.3901 0.017000001 0.87
-0.38620001 0.016899999 0.86799997
-0.34639999 0.017000001 0.87
-0.34529999 0.017000001 0.87099999
-0.34419999 0.017000001 0.87199998
-0.3416 0.017100001 0.87699997
-0.30469999 0.017100001 0.87599999
-0.30219999 0.017000001 0.87300003
-0.3003 0.017000001 0.87199998
-0.2339 0.017100001 0.87800002
-0.2324 0.017100001 0.87800002
-0.23109999 0.017100001 0.87900001
-0.096000001 0.0162 0.82999998
-0.094499998 0.0162 0.82999998
-0.093099996 0.0162 0.82999998
-0.091700003 0.0162 0.82999998
-0.0902 0.0162 0.82999998
-0.0889 0.0162 0.83099997
-0.087899998 0.0163 0.83499998
-0.086900003 0.0164 0.83999997
-0.0858 0.0164 0.84299999
-0.084299996 0.0164 0.84299999
-0.082800001 0.0164 0.84200001
-0.081200004 0.0164 0.84100002
-0.079599999 0.0164 0.83899999
-0.078000002 0.0163 0.838
-0.076399997 0.0163 0.83600003
-0.074900001 0.0163 0.83499998
-0.073299997 0.0163 0.83399999
-0.071900003 0.0163 0.83399999
-0.070500001 0.0163 0.83499998
-0.0691 0.0163 0.83499998
-0.067599997 0.0163 0.83499998
-0.066100001 0.0163 0.83399999
-0.064599998 0.0163 0.83399999
-0.063299999 0.0163 0.83499998
-0.061799999 0.0163 0.83499998
-0.0603 0.0163 0.83399999
-0.058899999 0.0163 0.83399999
-0.057399999 0.0163 0.83399999
-0.056000002 0.0163 0.83399999
-0.054499999 0.0163 0.83399999
-0.052999999 0.0163 0.833
-0.051600002 0.0163 0.833
-0.050099999 0.0163 0.833
-0.048599999 0.0162 0.83200002
-0.0473 0.0163 0.83399999
-0.045899998 0.0163 0.83499998
-0.043200001 0.0163 0.838
-0.040399998 0.0164 0.83999997
-0.039000001 0.0164 0.84200001
-0.037599999 0.0164 0.84299999
-0.0361 0.0164 0.84299999
-0.034699999 0.0164 0.84299999
-0.033199999 0.0164 0.84299999
-0.0317 0.0164 0.84100002
-0.030200001 0.0164 0.84100002
-0.0288 0.0164 0.84299999
-0.0274 0.0164 0.84299999
-0.025900001 0.0165 0.84399998
-0.024499999 0.0165 0.84500003
-0.023 0.0165 0.84500003
-0.021600001 0.0165 0.84500003
-0.020099999 0.0165 0.84600002
-0.4161 0.0186 0.87400001
-0.39629999 0.0186 0.87699997
-0.39390001 0.0186 0.875
-0.391 0.0185 0.87199998
-0.38859999 0.0185 0.87
-0.38659999 0.0185 0.86900002
-0.34869999 0.0185 0.87199998
-0.3457 0.0185 0.87199998
-0.34259999 0.0185 0.87199998
-0.34189999 0.0186 0.87400001
-0.34079999 0.0186 0.875
-0.34 0.0186 0.87699997
-0.30219999 0.0185 0.87300003
-0.23720001 0.0187 0.87900001
-0.2357 0.0187 0.87900001
-0.2339 0.0187 0.87800002
-0.2324 0.0187 0.87800002
-0.2309 0.0187 0.87800002
-0.2296 0.0187 0.87900001
-0.096100003 0.0177 0.83099997
-0.094499998 0.0176 0.82999998
-0.093099996 0.0176 0.82999998
-0.091700003 0.0176 0.82999998
-0.090300001 0.0177 0.83099997
-0.089000002 0.0177 0.83200002
-0.087700002 0.0177 0.833
-0.086599998 0.0178 0.83700001
-0.085299999 0.0178 0.838
-0.083999999 0.0178 0.83999997
-0.082599998 0.0178 0.83999997
-0.081 0.0178 0.83899999
-0.079400003 0.0178 0.83700001
-0.0779 0.0178 0.83700001
-0.076399997 0.0178 0.83600003
-0.074900001 0.0177 0.83499998
-0.073399998 0.0177 0.83499998
-0.071900003 0.0177 0.83399999
-0.070500001 0.0177 0.83499998
-0.0691 0.0177 0.83499998
-0.067599997 0.0177 0.83499998
-0.066100001 0.0177 0.83399999
-0.0647 0.0177 0.83499998
-0.063299999 0.0177 0.83499998
-0.061799999 0.0177 0.83499998
-0.060400002 0.0177 0.83499998
-0.058899999 0.0177 0.83499998
-0.057500001 0.0177 0.83499998
-0.056000002 0.0177 0.83399999
-0.054499999 0.0177 0.83399999
-0.053100001 0.0177 0.83399999
-0.051600002 0.0177 0.83399999
-0.050099999 0.0177 0.833
-0.048700001 0.0177 0.83399999
-0.047400001 0.0178 0.83600003
-0.038899999 0.017899999 0.84100002
-0.037500001 0.017899999 0.84200001
-0.0361 0.017899999 0.84200001
-0.034600001 0.017899999 0.84100002
-0.033100002 0.0178 0.83999997
-0.031500001 0.0178 0.838
-0.030099999 0.0178 0.838
-0.0287 0.0178 0.83899999
-0.0272 0.0178 0.83899999
-0.025800001 0.017899999 0.84100002
-0.0244 0.017899999 0.84299999
-0.023 0.017899999 0.84299999
-0.021500001 0.017899999 0.84399998
-0.020099999 0.017999999 0.84500003
-0.0187 0.017999999 0.84600002
-0.41569999 0.020099999 0.87300003
-0.39719999 0.020199999 0.87900001
-0.39480001 0.020199999 0.87699997
-0.3919 0.020099999 0.87400001
-0.38949999 0.02 0.87199998
-0.38710001 0.02 0.87
-0.37239999 0.020199999 0.87800002
-0.3468 0.02 0.87099999
-0.34189999 0.020099999 0.87400001
-0.34119999 0.020099999 0.87599999
-0.34 0.020199999 0.87699997
-0.3389 0.020199999 0.87800002
-0.2339 0.020199999 0.87800002
-0.2324 0.020199999 0.87800002
-0.2309 0.020199999 0.87800002
-0.22939999 0.020199999 0.87800002
-0.097499996 0.019099999 0.83099997
-0.096000001 0.019099999 0.82999998
-0.094499998 0.019099999 0.82999998
-0.093099996 0.019099999 0.82999998
-0.091700003 0.019099999 0.82999998
-0.090300001 0.019099999 0.83099997
-0.089000002 0.019099999 0.83200002
-0.087700002 0.019099999 0.833
-0.085100003 0.019200001 0.83600003
-0.083800003 0.019300001 0.838
-0.082500003 0.019300001 0.83899999
-0.080799997 0.019200001 0.83700001
-0.079400003 0.019200001 0.83700001
-0.0779 0.019200001 0.83700001
-0.076499999 0.019200001 0.83700001
-0.075000003 0.019200001 0.83700001
-0.0735 0.019200001 0.83600003
-0.071999997 0.019200001 0.83499998
-0.070500001 0.019200001 0.83499998
-0.0691 0.019200001 0.83499998
-0.067599997 0.019200001 0.83499998
-0.066100001 0.019200001 0.83399999
-0.064599998 0.019200001 0.83399999
-0.063299999 0.019200001 0.83499998
-0.061799999 0.019200001 0.83499998
-0.060400002 0.019200001 0.83499998
-0.058899999 0.019200001 0.83499998
-0.057500001 0.019200001 0.83499998
-0.056000002 0.019200001 0.83499998
-0.054699998 0.019200001 0.83600003
-0.053100001 0.019200001 0.83499998
-0.0517 0.019200001 0.83499998
-0.0502 0.019200001 0.83499998
-0.048799999 0.019200001 0.83499998
-0.047499999 0.019200001 0.83700001
-0.046100002 0.019300001 0.83899999
-0.039099999 0.019400001 0.84399998
-0.036200002 0.019400001 0.84399998
-0.034699999 0.019400001 0.84299999
-0.033100002 0.019300001 0.84100002
-0.031500001 0.019300001 0.838
-0.030099999 0.019200001 0.83700001
-0.0286 0.019200001 0.83700001
-0.0272 0.019200001 0.83700001
-0.025699999 0.019300001 0.838
-0.0243 0.019300001 0.83999997
-0.0229 0.019300001 0.84100002
-0.021500001 0.019400001 0.84299999
-0.020099999 0.019400001 0.84399998
-0.0186 0.019400001 0.84399998
-0.0156 0.019300001 0.84100002
-0.3937 0.0217 0.87800002
-0.39219999 0.0217 0.87800002
-0.37180001 0.021600001 0.87300003
-0.37110001 0.021600001 0.875
-0.37 0.021600001 0.87599999
-0.34490001 0.021600001 0.87400001
-0.3427 0.021600001 0.87599999
-0.34200001 0.0217 0.87800002
-0.34040001 0.0217 0.87800002
-0.33930001 0.0217 0.87900001
-0.0977 0.0206 0.83200002
-0.096100003 0.020500001 0.83099997
-0.094700001 0.020500001 0.83099997
-0.093099996 0.020500001 0.82999998
-0.091700003 0.020500001 0.82999998
-0.090300001 0.020500001 0.83099997
-0.0889 0.020500001 0.83099997
-0.086300001 0.0206 0.83399999
-0.084899999 0.0206 0.83399999
-0.083700001 0.0207 0.83700001
-0.082400002 0.0207 0.838
-0.080700003 0.0207 0.83600003
-0.079300001 0.0207 0.83600003
-0.077799998 0.0207 0.83600003
-0.076399997 0.0207 0.83600003
-0.074900001 0.0207 0.83600003
-0.0735 0.0207 0.83600003
-0.071999997 0.0206 0.83499998
-0.070500001 0.0206 0.83499998
-0.0691 0.0206 0.83499998
-0.067599997 0.0206 0.83499998
-0.066200003 0.0206 0.83499998
-0.064599998 0.0206 0.83399999
-0.063199997 0.0206 0.83399999
-0.061799999 0.0206 0.83499998
-0.060400002 0.0206 0.83499998
-0.058899999 0.0206 0.83499998
-0.057500001 0.0206 0.83499998
-0.056000002 0.0206 0.83499998
-0.0546 0.0206 0.83499998
-0.053100001 0.0206 0.83499998
-0.0517 0.0206 0.83499998
-0.0502 0.0206 0.83499998
-0.048900001 0.0207 0.83700001
-0.047499999 0.0207 0.838
-0.0462 0.0208 0.83999997
-0.044799998 0.0208 0.84100002
-0.036200002 0.0209 0.84399998
-0.034699999 0.0208 0.84299999
-0.033100002 0.0208 0.84100002
-0.031500001 0.0207 0.838
-0.029999999 0.0207 0.83600003
-0.0285 0.0206 0.83499998
-0.027100001 0.0206 0.83499998
-0.025699999 0.0207 0.83700001
-0.0243 0.0207 0.838
-0.0229 0.0208 0.83999997
-0.021500001 0.0208 0.84200001
-0.02 0.0208 0.84299999
-0.0186 0.0209 0.84399998
-0.017100001 0.0209 0.84399998
-0.0156 0.0208 0.84200001
-0.0141 0.0207 0.83899999
-0.0127 0.0207 0.83700001
-0.40920001 0.023 0.86900002
