ply
format ascii 1.0
comment PCL generated
element vertex 1580
property float x
property float y
property float z
element camera 0
property float view_px
property float view_py
property float view_pz
property float x_axisx
property float x_axisy
property float x_axisz
property float y_axisx
property float y_axisy
property float y_axisz
property float z_axisx
property float z_axisy
property float z_axisz
property float focal
property float scalex
property float scaley
property float centerx
property float centery
property int viewportx
property int viewporty
property float k1
property float k2
end_header
-0.024700001 0.2579 0.90600002
-0.0231 0.2579 0.90600002
-0.021500001 0.25760001 0.90499997
-0.02 0.25760001 0.90499997
-0.0184 0.25729999 0.90399998
-0.016799999 0.25709999 0.903
-0.0137 0.25709999 0.903
-0.0121 0.25709999 0.903
-0.0074 0.25709999 0.903
-0.0057999999 0.25709999 0.903
-0.0043000001 0.25650001 0.90100002
-0.0027000001 0.25650001 0.90100002
-0.0011 0.2568 0.90200001
0.0020000001 0.25619999 0.89999998
0.0082 0.25510001 0.89600003
0.0097000003 0.25510001 0.89600003
0.0145 0.25650001 0.90100002
0.0176 0.2568 0.90200001
0.019200001 0.2568 0.90200001
0.022299999 0.2568 0.90200001
0.0239 0.25709999 0.903
0.0255 0.25709999 0.903
0.027000001 0.25709999 0.903
0.0287 0.25760001 0.90499997
0.030300001 0.2579 0.90600002
0.0319 0.25819999 0.90700001
0.033500001 0.2588 0.90899998
0.041299999 0.25819999 0.90700001
0.042800002 0.2579 0.90600002
0.044500001 0.25819999 0.90700001
0.046 0.25819999 0.90700001
0.047600001 0.25819999 0.90700001
0.049199998 0.25819999 0.90700001
0.050799999 0.25850001 0.90799999
0.064999998 0.25850001 0.90799999
0.068099998 0.25850001 0.90799999
0.069700003 0.25850001 0.90799999
0.0713 0.25850001 0.90799999
0.072899997 0.2588 0.90899998
0.074299999 0.25819999 0.90700001
0.075900003 0.25819999 0.90700001
0.077500001 0.25850001 0.90799999
0.079099998 0.25850001 0.90799999
0.080700003 0.25850001 0.90799999
0.082199998 0.25819999 0.90700001
0.083700001 0.25819999 0.90700001
0.0854 0.25850001 0.90799999
0.086900003 0.25819999 0.90700001
0.088500001 0.25819999 0.90700001
0.090000004 0.25819999 0.90700001
0.091600001 0.25819999 0.90700001
0.1131 0.25709999 0.903
0.1149 0.25760001 0.90499997
0.1182 0.2579 0.90600002
0.1199 0.25819999 0.90700001
0.123 0.25819999 0.90700001
0.1246 0.25819999 0.90700001
0.12630001 0.25850001 0.90799999
0.1279 0.25850001 0.90799999
0.1295 0.25850001 0.90799999
0.1311 0.25850001 0.90799999
0.13249999 0.25819999 0.90700001
0.13410001 0.25819999 0.90700001
0.1353 0.25760001 0.90499997
0.13689999 0.25760001 0.90499997
0.13850001 0.25760001 0.90499997
0.14 0.25760001 0.90499997
0.1418 0.2579 0.90600002
0.1436 0.25850001 0.90799999
0.1452 0.25850001 0.90799999
0.1469 0.2588 0.90899998
0.15009999 0.2588 0.90899998
0.1515 0.25850001 0.90799999
0.1529 0.25819999 0.90700001
0.15449999 0.25819999 0.90700001
0.1561 0.25819999 0.90700001
0.1576 0.25819999 0.90700001
0.1592 0.25819999 0.90700001
0.161 0.25850001 0.90799999
0.1627 0.2588 0.90899998
0.1648 0.25960001 0.912
0.16680001 0.26019999 0.91399997
-0.41769999 0.25400001 0.88700002
-0.41569999 0.2538 0.88599998
-0.36539999 0.25400001 0.88700002
-0.36430001 0.2543 0.88800001
-0.36320001 0.25459999 0.889
-0.36210001 0.25490001 0.88999999
-0.35510001 0.25549999 0.89200002
-0.35519999 0.25659999 0.89600003
-0.35479999 0.25749999 0.89899999
-0.33500001 0.25549999 0.89200002
-0.33309999 0.2552 0.89099997
-0.33160001 0.2552 0.89099997
-0.32969999 0.25490001 0.88999999
-0.3274 0.2543 0.88800001
-0.3258 0.2543 0.88800001
-0.32429999 0.2543 0.88800001
-0.32350001 0.25490001 0.88999999
-0.32159999 0.25459999 0.889
-0.31459999 0.2552 0.89099997
-0.3127 0.25490001 0.88999999
-0.31119999 0.25490001 0.88999999
-0.30689999 0.2552 0.89099997
-0.3057 0.25549999 0.89200002
-0.3048 0.2561 0.89399999
-0.30340001 0.25749999 0.89899999
-0.30250001 0.2581 0.90100002
-0.30000001 0.2586 0.903
-0.2985 0.2586 0.903
-0.2969 0.2586 0.903
-0.29499999 0.25830001 0.90200001
-0.2931 0.2581 0.90100002
-0.2906 0.2572 0.898
-0.289 0.2572 0.898
-0.2872 0.25690001 0.89700001
-0.28060001 0.2581 0.90100002
-0.27880001 0.25780001 0.89999998
-0.2726 0.2563 0.89499998
-0.271 0.2563 0.89499998
-0.2692 0.2561 0.89399999
-0.2649 0.25490001 0.88999999
-0.26210001 0.2552 0.89099997
-0.26109999 0.25580001 0.89300001
-0.25850001 0.25780001 0.89999998
-0.25670001 0.25749999 0.89899999
-0.25479999 0.2572 0.898
-0.2527 0.25659999 0.89600003
-0.2509 0.2563 0.89499998
-0.24869999 0.25580001 0.89300001
-0.2472 0.25580001 0.89300001
-0.2454 0.25549999 0.89200002
-0.23999999 0.2563 0.89499998
-0.2384 0.2563 0.89499998
-0.23720001 0.25659999 0.89600003
-0.2361 0.2572 0.898
-0.23459999 0.2572 0.898
-0.233 0.2572 0.898
-0.2315 0.2572 0.898
-0.2299 0.2572 0.898
-0.22840001 0.2572 0.898
-0.22679999 0.2572 0.898
-0.2247 0.25659999 0.89600003
-0.22319999 0.25659999 0.89600003
-0.2198 0.2563 0.89499998
-0.21799999 0.2561 0.89399999
-0.21619999 0.25580001 0.89300001
-0.2147 0.25580001 0.89300001
-0.20900001 0.2563 0.89499998
-0.20100001 0.26010001 0.90799999
-0.1992 0.25979999 0.90700001
-0.1974 0.2595 0.90600002
-0.1952 0.2586 0.903
-0.1936 0.2586 0.903
-0.1918 0.25830001 0.90200001
-0.1901 0.2581 0.90100002
-0.1883 0.25780001 0.89999998
-0.1867 0.25780001 0.89999998
-0.18520001 0.25780001 0.89999998
-0.1838 0.2581 0.90100002
-0.1807 0.2581 0.90100002
-0.17910001 0.2581 0.90100002
-0.1778 0.25830001 0.90200001
-0.1762 0.25830001 0.90200001
-0.17470001 0.25830001 0.90200001
-0.17290001 0.2581 0.90100002
-0.17110001 0.25780001 0.89999998
-0.1696 0.25780001 0.89999998
-0.16769999 0.2572 0.898
-0.1655 0.2563 0.89499998
-0.1638 0.2561 0.89399999
-0.16240001 0.2563 0.89499998
-0.1611 0.25659999 0.89600003
-0.15989999 0.2572 0.898
-0.1585 0.25749999 0.89899999
-0.15710001 0.25780001 0.89999998
-0.1557 0.2581 0.90100002
-0.1543 0.25830001 0.90200001
-0.1515 0.25889999 0.90399998
-0.14820001 0.2586 0.903
-0.14650001 0.25830001 0.90200001
-0.14 0.25780001 0.89999998
-0.1354 0.2581 0.90100002
-0.1323 0.2581 0.90100002
-0.13070001 0.2581 0.90100002
-0.1278 0.25830001 0.90200001
-0.1248 0.2586 0.903
-0.1215 0.25830001 0.90200001
-0.1199 0.25830001 0.90200001
-0.1184 0.25830001 0.90200001
-0.1168 0.25830001 0.90200001
-0.1154 0.2586 0.903
-0.1138 0.2586 0.903
-0.1122 0.2586 0.903
-0.1107 0.2586 0.903
-0.1091 0.2586 0.903
-0.1077 0.25889999 0.90399998
-0.1062 0.25920001 0.90499997
-0.1045 0.25889999 0.90399998
-0.1031 0.25920001 0.90499997
-0.1016 0.2595 0.90600002
-0.0999 0.25920001 0.90499997
-0.098300003 0.25889999 0.90399998
-0.096600004 0.2586 0.903
-0.094800003 0.2581 0.90100002
-0.0933 0.2581 0.90100002
-0.088600002 0.2581 0.90100002
-0.086999997 0.2581 0.90100002
-0.085500002 0.25830001 0.90200001
-0.084100001 0.2586 0.903
-0.082500003 0.2586 0.903
-0.080899999 0.2586 0.903
-0.079300001 0.25830001 0.90200001
-0.077799998 0.2586 0.903
-0.076300003 0.2586 0.903
-0.074600004 0.25830001 0.90200001
-0.072999999 0.2581 0.90100002
-0.071500003 0.25830001 0.90200001
-0.069899999 0.25830001 0.90200001
-0.068300001 0.2581 0.90100002
-0.066699997 0.2581 0.90100002
-0.065099999 0.25780001 0.89999998
-0.062100001 0.25830001 0.90200001
-0.060600001 0.2586 0.903
-0.059099998 0.25889999 0.90399998
-0.057599999 0.25920001 0.90499997
-0.056000002 0.25920001 0.90499997
-0.054400001 0.25889999 0.90399998
-0.052900001 0.25920001 0.90499997
-0.0513 0.25920001 0.90499997
-0.049800001 0.25920001 0.90499997
-0.0482 0.25920001 0.90499997
-0.046599999 0.25920001 0.90499997
-0.0451 0.2595 0.90600002
-0.043499999 0.2595 0.90600002
-0.041999999 0.25979999 0.90700001
-0.040399998 0.25979999 0.90700001
-0.038899999 0.25979999 0.90700001
-0.037300002 0.25979999 0.90700001
-0.0341 0.25979999 0.90700001
-0.030999999 0.26010001 0.90799999
-0.0294 0.25979999 0.90700001
-0.027899999 0.25979999 0.90700001
-0.0263 0.25979999 0.90700001
-0.024700001 0.25979999 0.90700001
-0.0231 0.2595 0.90600002
-0.021500001 0.25920001 0.90499997
-0.02 0.25920001 0.90499997
-0.018300001 0.2586 0.903
-0.016799999 0.2586 0.903
-0.0152 0.2586 0.903
-0.0137 0.2586 0.903
-0.0121 0.25830001 0.90200001
-0.0088999998 0.2581 0.90100002
-0.0074 0.25830001 0.90200001
-0.0057999999 0.2581 0.90100002
-0.0043000001 0.2581 0.90100002
-0.0027000001 0.25780001 0.89999998
-0.0011 0.25780001 0.89999998
0.022299999 0.25830001 0.90200001
0.0239 0.2586 0.903
0.0255 0.2586 0.903
0.027000001 0.25830001 0.90200001
0.030200001 0.25889999 0.90399998
0.031800002 0.25889999 0.90399998
0.041299999 0.25979999 0.90700001
0.044500001 0.25979999 0.90700001
0.046 0.25979999 0.90700001
0.047600001 0.25979999 0.90700001
0.050799999 0.26010001 0.90799999
0.0524 0.26010001 0.90799999
0.055500001 0.26010001 0.90799999
0.064999998 0.26010001 0.90799999
0.066500001 0.26010001 0.90799999
0.068099998 0.26010001 0.90799999
0.069700003 0.26010001 0.90799999
0.0713 0.26010001 0.90799999
0.072800003 0.26010001 0.90799999
0.074199997 0.2595 0.90600002
0.075900003 0.25979999 0.90700001
0.077500001 0.25979999 0.90700001
0.079000004 0.25979999 0.90700001
0.080600001 0.25979999 0.90700001
0.083700001 0.25979999 0.90700001
0.085299999 0.25979999 0.90700001
0.086900003 0.25979999 0.90700001
0.088500001 0.25979999 0.90700001
0.091600001 0.25979999 0.90700001
0.093199998 0.25979999 0.90700001
0.1097 0.2581 0.90100002
0.1131 0.2586 0.903
0.1166 0.2595 0.90600002
0.1183 0.25979999 0.90700001
0.1199 0.25979999 0.90700001
0.1279 0.26010001 0.90799999
0.1295 0.26010001 0.90799999
0.1311 0.26010001 0.90799999
0.13259999 0.26010001 0.90799999
0.13410001 0.25979999 0.90700001
0.1355 0.2595 0.90600002
0.13689999 0.25920001 0.90499997
0.13860001 0.2595 0.90600002
0.1402 0.2595 0.90600002
0.1418 0.2595 0.90600002
0.1435 0.25979999 0.90700001
0.1451 0.25979999 0.90700001
0.1468 0.26010001 0.90799999
0.1499 0.26010001 0.90799999
0.1515 0.26010001 0.90799999
0.1531 0.26010001 0.90799999
0.1547 0.26010001 0.90799999
0.15620001 0.26010001 0.90799999
0.1578 0.26010001 0.90799999
0.1594 0.26010001 0.90799999
0.161 0.26010001 0.90799999
0.1629 0.2606 0.91000003
0.1652 0.26179999 0.91399997
0.1671 0.2624 0.91600001
-0.42070001 0.25639999 0.88999999
-0.41769999 0.25560001 0.88700002
-0.37619999 0.25560001 0.88700002
-0.3678 0.25619999 0.889
-0.36590001 0.2559 0.88800001
-0.36469999 0.25619999 0.889
-0.35510001 0.257 0.89200002
-0.35519999 0.25819999 0.89600003
-0.35479999 0.259 0.89899999
-0.354 0.25960001 0.90100002
-0.33809999 0.25819999 0.89600003
-0.33579999 0.25760001 0.89399999
-0.3339 0.25729999 0.89300001
-0.3319 0.257 0.89200002
-0.33000001 0.25670001 0.89099997
-0.3281 0.25639999 0.88999999
-0.32659999 0.25639999 0.88999999
-0.3247 0.25619999 0.889
-0.3123 0.25619999 0.889
-0.31119999 0.25639999 0.88999999
-0.3096 0.25639999 0.88999999
-0.30809999 0.25639999 0.88999999
-0.30689999 0.25670001 0.89099997
-0.30599999 0.25729999 0.89300001
-0.3048 0.25760001 0.89399999
-0.3046 0.2588 0.898
-0.3028 0.2599 0.90200001
-0.30129999 0.2599 0.90200001
-0.30000001 0.26019999 0.903
-0.2985 0.26019999 0.903
-0.29660001 0.2599 0.90200001
-0.2947 0.25960001 0.90100002
-0.29280001 0.25929999 0.89999998
-0.29030001 0.25850001 0.89700001
-0.28839999 0.25819999 0.89600003
-0.2775 0.25670001 0.89099997
-0.27410001 0.25639999 0.88999999
-0.27039999 0.2559 0.88800001
-0.2649 0.25639999 0.88999999
-0.25819999 0.259 0.89899999
-0.25690001 0.25929999 0.89999998
-0.25479999 0.2588 0.898
-0.25330001 0.2588 0.898
-0.25170001 0.2588 0.898
-0.24959999 0.25819999 0.89600003
-0.248 0.25819999 0.89600003
-0.2462 0.2579 0.89499998
-0.2403 0.25819999 0.89600003
-0.2387 0.25819999 0.89600003
-0.23720001 0.25819999 0.89600003
-0.23559999 0.25819999 0.89600003
-0.2341 0.25819999 0.89600003
-0.2325 0.25819999 0.89600003
-0.2309 0.25819999 0.89600003
-0.2299 0.2588 0.898
-0.22840001 0.2588 0.898
-0.2265 0.25850001 0.89700001
-0.2247 0.25819999 0.89600003
-0.22319999 0.25819999 0.89600003
-0.21960001 0.25760001 0.89399999
-0.21619999 0.25729999 0.89300001
-0.2132 0.25729999 0.89300001
-0.21160001 0.25729999 0.89300001
-0.2105 0.2579 0.89499998
-0.2053 0.26109999 0.90600002
-0.20389999 0.2613 0.90700001
-0.2026 0.26159999 0.90799999
-0.2008 0.2613 0.90700001
-0.1988 0.2608 0.90499997
-0.1972 0.2608 0.90499997
-0.1952 0.26019999 0.903
-0.19320001 0.25960001 0.90100002
-0.19159999 0.25960001 0.90100002
-0.1899 0.25929999 0.89999998
-0.1881 0.259 0.89899999
-0.1867 0.25929999 0.89999998
-0.18520001 0.25929999 0.89999998
-0.18359999 0.25929999 0.89999998
-0.1805 0.25929999 0.89999998
-0.1789 0.25929999 0.89999998
-0.1776 0.25960001 0.90100002
-0.1745 0.25960001 0.90100002
-0.17290001 0.25960001 0.90100002
-0.1717 0.26019999 0.903
-0.17 0.2599 0.90200001
-0.1682 0.25960001 0.90100002
-0.1663 0.259 0.89899999
-0.16419999 0.25819999 0.89600003
-0.1626 0.25819999 0.89600003
-0.16140001 0.2588 0.898
-0.16 0.259 0.89899999
-0.1587 0.25929999 0.89999998
-0.1573 0.25960001 0.90100002
-0.1559 0.2599 0.90200001
-0.15449999 0.26019999 0.903
-0.1529 0.26019999 0.903
-0.1515 0.26050001 0.90399998
-0.15000001 0.26050001 0.90399998
-0.14839999 0.26050001 0.90399998
-0.14669999 0.26019999 0.903
-0.145 0.2599 0.90200001
-0.14 0.25929999 0.89999998
-0.1384 0.25929999 0.89999998
-0.13680001 0.25929999 0.89999998
-0.1353 0.25929999 0.89999998
-0.1339 0.25960001 0.90100002
-0.13240001 0.2599 0.90200001
-0.1309 0.2599 0.90200001
-0.1218 0.26050001 0.90399998
-0.1202 0.26050001 0.90399998
-0.1185 0.26019999 0.903
-0.1169 0.26019999 0.903
-0.1154 0.26019999 0.903
-0.1138 0.26019999 0.903
-0.1122 0.26019999 0.903
-0.1107 0.26019999 0.903
-0.1091 0.26019999 0.903
-0.1077 0.26050001 0.90399998
-0.1062 0.2608 0.90499997
-0.1045 0.26050001 0.90399998
-0.1031 0.2608 0.90499997
-0.1015 0.2608 0.90499997
-0.0999 0.2608 0.90499997
-0.098300003 0.26050001 0.90399998
-0.096600004 0.26019999 0.903
-0.094800003 0.25960001 0.90100002
-0.093199998 0.25929999 0.89999998
-0.091499999 0.259 0.89899999
-0.089900002 0.259 0.89899999
-0.088399999 0.259 0.89899999
-0.086800002 0.259 0.89899999
-0.0854 0.25929999 0.89999998
-0.083999999 0.2599 0.90200001
-0.082500003 0.26019999 0.903
-0.080899999 0.26019999 0.903
-0.079400003 0.26019999 0.903
-0.077799998 0.26019999 0.903
-0.076300003 0.26019999 0.903
-0.074699998 0.26019999 0.903
-0.072999999 0.25960001 0.90100002
-0.071400002 0.25960001 0.90100002
-0.069799997 0.25929999 0.89999998
-0.068099998 0.259 0.89899999
-0.066500001 0.2588 0.898
-0.064800002 0.25819999 0.89600003
-0.063199997 0.25819999 0.89600003
-0.060400002 0.25929999 0.89999998
-0.058899999 0.25960001 0.90100002
-0.057500001 0.26019999 0.903
-0.0559 0.26019999 0.903
-0.054299999 0.26019999 0.903
-0.0528 0.26050001 0.90399998
-0.0513 0.26050001 0.90399998
-0.049699999 0.26050001 0.90399998
-0.048099998 0.26050001 0.90399998
-0.046599999 0.26050001 0.90399998
-0.0451 0.2608 0.90499997
-0.043499999 0.26109999 0.90600002
-0.041999999 0.26109999 0.90600002
-0.040399998 0.2613 0.90700001
-0.037300002 0.2613 0.90700001
-0.032600001 0.2613 0.90700001
-0.030999999 0.2613 0.90700001
-0.0294 0.2613 0.90700001
-0.027899999 0.2613 0.90700001
-0.0263 0.26159999 0.90799999
-0.024700001 0.2613 0.90700001
-0.0231 0.2613 0.90700001
-0.021500001 0.26109999 0.90600002
-0.02 0.2608 0.90499997
-0.0184 0.26050001 0.90399998
-0.016799999 0.26050001 0.90399998
-0.0152 0.26050001 0.90399998
-0.0137 0.26019999 0.903
-0.0105 0.2599 0.90200001
-0.0088999998 0.25960001 0.90100002
-0.0074 0.2599 0.90200001
-0.0057999999 0.25960001 0.90100002
-0.0043000001 0.25960001 0.90100002
-0.0027000001 0.25929999 0.89999998
-0.0011 0.25929999 0.89999998
0.0208 0.2599 0.90200001
0.022299999 0.2599 0.90200001
0.0239 0.26019999 0.903
0.0255 0.26019999 0.903
0.027000001 0.2599 0.90200001
0.041299999 0.2613 0.90700001
0.0429 0.2613 0.90700001
0.044500001 0.2613 0.90700001
0.046 0.2613 0.90700001
0.047600001 0.2613 0.90700001
0.050799999 0.26159999 0.90799999
0.0524 0.26159999 0.90799999
0.0539 0.26159999 0.90799999
0.055500001 0.26159999 0.90799999
0.057100002 0.26159999 0.90799999
0.058699999 0.26159999 0.90799999
0.064999998 0.26159999 0.90799999
0.066500001 0.2613 0.90700001
0.068099998 0.26159999 0.90799999
0.069700003 0.26159999 0.90799999
0.0713 0.26159999 0.90799999
0.072700001 0.2613 0.90700001
0.074199997 0.26109999 0.90600002
0.075900003 0.2613 0.90700001
0.077500001 0.2613 0.90700001
0.079000004 0.2613 0.90700001
0.080600001 0.2613 0.90700001
0.083700001 0.2613 0.90700001
0.085299999 0.2613 0.90700001
0.088500001 0.2613 0.90700001
0.090000004 0.2613 0.90700001
0.091600001 0.2613 0.90700001
0.093099996 0.26109999 0.90600002
0.1185 0.26159999 0.90799999
0.1278 0.2613 0.90700001
0.1293 0.2613 0.90700001
0.1309 0.2613 0.90700001
0.13249999 0.2613 0.90700001
0.1339 0.26109999 0.90600002
0.1355 0.26109999 0.90600002
0.13699999 0.26109999 0.90600002
0.13860001 0.26109999 0.90600002
0.1402 0.26109999 0.90600002
0.1416 0.2608 0.90499997
0.1432 0.2608 0.90499997
0.14470001 0.2608 0.90499997
0.1498 0.2613 0.90700001
0.1513 0.2613 0.90700001
0.1531 0.26159999 0.90799999
0.1548 0.26190001 0.90899998
0.1566 0.2622 0.91000003
0.1582 0.2622 0.91000003
0.15970001 0.2622 0.91000003
0.1613 0.2622 0.91000003
0.16339999 0.2631 0.91299999
0.1655 0.26390001 0.91600001
0.1675 0.26449999 0.91799998
0.1693 0.26480001 0.91900003
-0.4197 0.25740001 0.88800001
-0.41769999 0.25709999 0.88700002
-0.37619999 0.25709999 0.88700002
-0.36669999 0.25799999 0.88999999
-0.35550001 0.25889999 0.89300001
-0.35519999 0.2597 0.89600003
-0.33930001 0.25940001 0.89499998
-0.33770001 0.25940001 0.89499998
-0.3362 0.25940001 0.89499998
-0.33419999 0.25920001 0.89399999
-0.33230001 0.25889999 0.89300001
-0.33000001 0.25830001 0.89099997
-0.3281 0.25799999 0.88999999
-0.32659999 0.25799999 0.88999999
-0.3247 0.2577 0.889
-0.3127 0.25799999 0.88999999
-0.31150001 0.25830001 0.89099997
-0.31 0.25830001 0.89099997
-0.30840001 0.25830001 0.89099997
-0.30759999 0.25889999 0.89300001
-0.3064 0.25920001 0.89399999
-0.30090001 0.26120001 0.90100002
-0.2994 0.26120001 0.90100002
-0.29820001 0.2615 0.90200001
-0.29629999 0.26120001 0.90100002
-0.29440001 0.26089999 0.89999998
-0.2922 0.26030001 0.898
-0.28999999 0.2597 0.89600003
-0.28780001 0.25920001 0.89399999
-0.28029999 0.25799999 0.88999999
-0.26890001 0.25740001 0.88800001
-0.2683 0.25830001 0.89099997
-0.2667 0.25830001 0.89099997
-0.2649 0.25799999 0.88999999
-0.2633 0.25799999 0.88999999
-0.2599 0.25920001 0.89399999
-0.25729999 0.2597 0.89600003
-0.25420001 0.2597 0.89600003
-0.2527 0.2597 0.89600003
-0.2511 0.2597 0.89600003
-0.24959999 0.2597 0.89600003
-0.2462 0.25940001 0.89499998
-0.2413 0.25920001 0.89399999
-0.23639999 0.25889999 0.89300001
-0.2348 0.25889999 0.89300001
-0.2335 0.25920001 0.89399999
-0.23199999 0.25920001 0.89399999
-0.2307 0.25940001 0.89499998
-0.22939999 0.2597 0.89600003
-0.2278 0.2597 0.89600003
-0.2263 0.2597 0.89600003
-0.2247 0.2597 0.89600003
-0.2229 0.25940001 0.89499998
-0.2211 0.25920001 0.89399999
-0.2193 0.25889999 0.89300001
-0.2175 0.2586 0.89200002
-0.2158 0.25830001 0.89099997
-0.2142 0.25830001 0.89099997
-0.21160001 0.25889999 0.89300001
-0.2105 0.25940001 0.89499998
-0.2026 0.26320001 0.90799999
-0.20100001 0.26320001 0.90799999
-0.1992 0.26289999 0.90700001
-0.1972 0.26230001 0.90499997
-0.1954 0.26199999 0.90399998
-0.1934 0.2615 0.90200001
-0.19159999 0.26120001 0.90100002
-0.1899 0.26089999 0.89999998
-0.1881 0.2606 0.89899999
-0.1867 0.26089999 0.89999998
-0.18520001 0.26089999 0.89999998
-0.1803 0.2606 0.89899999
-0.176 0.26120001 0.90100002
-0.1733 0.26179999 0.903
-0.17 0.2615 0.90200001
-0.1682 0.26120001 0.90100002
-0.1663 0.2606 0.89899999
-0.1626 0.2597 0.89600003
-0.1612 0.25999999 0.89700001
-0.15970001 0.25999999 0.89700001
-0.1583 0.26030001 0.898
-0.15710001 0.26089999 0.89999998
-0.1557 0.26120001 0.90100002
-0.15449999 0.26179999 0.903
-0.1529 0.26179999 0.903
-0.1515 0.26199999 0.90399998
-0.15009999 0.26230001 0.90499997
-0.1486 0.26230001 0.90499997
-0.1468 0.26199999 0.90399998
-0.1432 0.26120001 0.90100002
-0.1401 0.26120001 0.90100002
-0.1384 0.26089999 0.89999998
-0.13680001 0.26089999 0.89999998
-0.1353 0.26089999 0.89999998
-0.134 0.2615 0.90200001
-0.13259999 0.26179999 0.903
-0.1295 0.26179999 0.903
-0.125 0.26230001 0.90499997
-0.1233 0.26199999 0.90399998
-0.1186 0.26199999 0.90399998
-0.1171 0.26199999 0.90399998
-0.1155 0.26199999 0.90399998
-0.1139 0.26199999 0.90399998
-0.1124 0.26199999 0.90399998
-0.1107 0.26179999 0.903
-0.1091 0.26179999 0.903
-0.1076 0.26179999 0.903
-0.1061 0.26199999 0.90399998
-0.1044 0.26179999 0.903
-0.103 0.26199999 0.90399998
-0.1015 0.26230001 0.90499997
-0.099799998 0.26199999 0.90399998
-0.098200001 0.26179999 0.903
-0.096500002 0.2615 0.90200001
-0.094700001 0.26089999 0.89999998
-0.092900001 0.26030001 0.898
-0.091300003 0.25999999 0.89700001
-0.089599997 0.2597 0.89600003
-0.088200003 0.25999999 0.89700001
-0.086599998 0.25999999 0.89700001
-0.085199997 0.26030001 0.898
-0.083800003 0.26089999 0.89999998
-0.0823 0.26120001 0.90100002
-0.080899999 0.26179999 0.903
-0.079400003 0.26179999 0.903
-0.077799998 0.26179999 0.903
-0.076300003 0.26199999 0.90399998
-0.074699998 0.26179999 0.903
-0.072999999 0.26120001 0.90100002
-0.071400002 0.26120001 0.90100002
-0.069700003 0.2606 0.89899999
-0.066299997 0.25940001 0.89499998
-0.064599998 0.25889999 0.89300001
-0.063000001 0.2586 0.89200002
-0.061500002 0.25889999 0.89300001
-0.060199998 0.25999999 0.89700001
-0.058899999 0.26120001 0.90100002
-0.057500001 0.26179999 0.903
-0.0559 0.26179999 0.903
-0.054299999 0.26179999 0.903
-0.0528 0.26179999 0.903
-0.0513 0.26199999 0.90399998
-0.049699999 0.26199999 0.90399998
-0.048099998 0.26199999 0.90399998
-0.046599999 0.26199999 0.90399998
-0.0451 0.26230001 0.90499997
-0.043499999 0.26230001 0.90499997
-0.041999999 0.2626 0.90600002
-0.040399998 0.2626 0.90600002
-0.038800001 0.26230001 0.90499997
-0.0372 0.2626 0.90600002
-0.035700001 0.26289999 0.90700001
-0.0341 0.2626 0.90600002
-0.030999999 0.26289999 0.90700001
-0.0294 0.26289999 0.90700001
-0.027899999 0.26289999 0.90700001
-0.0263 0.26289999 0.90700001
-0.024700001 0.2626 0.90600002
-0.0231 0.26230001 0.90499997
-0.021500001 0.26230001 0.90499997
-0.02 0.26230001 0.90499997
-0.0184 0.26230001 0.90499997
-0.0152 0.26230001 0.90499997
-0.0137 0.26230001 0.90499997
-0.0121 0.26230001 0.90499997
-0.0105 0.26199999 0.90399998
-0.0089999996 0.26179999 0.903
-0.0074 0.26179999 0.903
-0.0057999999 0.2615 0.90200001
-0.0043000001 0.26120001 0.90100002
-0.0027000001 0.26089999 0.89999998
-0.0011 0.26089999 0.89999998
0.022299999 0.26179999 0.903
0.039799999 0.26320001 0.90799999
0.0414 0.26320001 0.90799999
0.0429 0.26320001 0.90799999
0.044500001 0.26289999 0.90700001
0.046 0.26289999 0.90700001
0.047600001 0.26289999 0.90700001
0.049199998 0.26289999 0.90700001
0.050700001 0.26289999 0.90700001
0.0539 0.26320001 0.90799999
0.055500001 0.26320001 0.90799999
0.057100002 0.26320001 0.90799999
0.058600001 0.26289999 0.90700001
0.061700001 0.26289999 0.90700001
0.064900003 0.26289999 0.90700001
0.066500001 0.26289999 0.90700001
0.068000004 0.26289999 0.90700001
0.069700003 0.26320001 0.90799999
0.071199998 0.26289999 0.90700001
0.072700001 0.26289999 0.90700001
0.074199997 0.2626 0.90600002
0.075800002 0.2626 0.90600002
0.077500001 0.26289999 0.90700001
0.078900002 0.2626 0.90600002
0.083700001 0.2626 0.90600002
0.093199998 0.26289999 0.90700001
0.096500002 0.26350001 0.90899998
0.1 0.26440001 0.912
0.1309 0.26289999 0.90700001
0.13249999 0.26289999 0.90700001
0.1338 0.26230001 0.90499997
0.1353 0.26230001 0.90499997
0.13689999 0.26230001 0.90499997
0.13850001 0.26230001 0.90499997
0.1402 0.2626 0.90600002
0.1416 0.26230001 0.90499997
0.1432 0.26230001 0.90499997
0.1446 0.26199999 0.90399998
0.1461 0.26199999 0.90399998
0.1498 0.26289999 0.90700001
0.1513 0.26289999 0.90700001
0.1531 0.26320001 0.90799999
0.155 0.2638 0.91000003
0.1566 0.2638 0.91000003
0.1585 0.26440001 0.912
0.1603 0.2647 0.91299999
0.162 0.2649 0.91399997
0.1645 0.26640001 0.91900003
0.1664 0.26699999 0.921
0.1682 0.26730001 0.92199999
-0.35980001 0.26010001 0.89200002
-0.35519999 0.2624 0.89999998
-0.3536 0.2624 0.89999998
-0.35170001 0.2622 0.89899999
-0.34009999 0.2604 0.89300001
-0.33849999 0.2604 0.89300001
-0.33700001 0.2604 0.89300001
-0.3362 0.26100001 0.89499998
-0.33500001 0.2613 0.89600003
-0.33309999 0.26100001 0.89499998
-0.33109999 0.26069999 0.89399999
-0.32890001 0.26010001 0.89200002
-0.32659999 0.2595 0.88999999
-0.32429999 0.259 0.88800001
-0.31299999 0.25979999 0.89099997
-0.31189999 0.26010001 0.89200002
-0.3107 0.2604 0.89300001
-0.30880001 0.26010001 0.89200002
-0.30720001 0.26010001 0.89200002
-0.30599999 0.2604 0.89300001
-0.3039 0.2613 0.89600003
-0.30090001 0.26269999 0.90100002
-0.2994 0.26269999 0.90100002
-0.29820001 0.26300001 0.90200001
-0.29629999 0.26269999 0.90100002
-0.294 0.2622 0.89899999
-0.2915 0.2613 0.89600003
-0.28929999 0.26069999 0.89399999
-0.2868 0.25979999 0.89099997
-0.28490001 0.2595 0.88999999
-0.2834 0.2595 0.88999999
-0.27970001 0.259 0.88800001
-0.2775 0.25839999 0.88599998
-0.27630001 0.25870001 0.88700002
-0.2735 0.259 0.88800001
-0.27169999 0.25870001 0.88700002
-0.26859999 0.25870001 0.88700002
-0.26800001 0.2595 0.88999999
-0.26640001 0.2595 0.88999999
-0.2649 0.2595 0.88999999
-0.2633 0.2595 0.88999999
-0.26179999 0.2595 0.88999999
-0.25420001 0.2613 0.89600003
-0.25139999 0.26159999 0.89700001
-0.24959999 0.2613 0.89600003
-0.248 0.2613 0.89600003
-0.2428 0.26069999 0.89399999
-0.241 0.2604 0.89300001
-0.2361 0.26010001 0.89200002
-0.2348 0.2604 0.89300001
-0.2333 0.2604 0.89300001
-0.2317 0.2604 0.89300001
-0.23019999 0.2604 0.89300001
-0.2291 0.26100001 0.89499998
-0.2278 0.2613 0.89600003
-0.2263 0.2613 0.89600003
-0.2245 0.26100001 0.89499998
-0.2229 0.26100001 0.89499998
-0.2211 0.26069999 0.89399999
-0.2193 0.2604 0.89300001
-0.2158 0.25979999 0.89099997
-0.2142 0.25979999 0.89099997
-0.2129 0.26010001 0.89200002
-0.21160001 0.2604 0.89300001
-0.2105 0.26100001 0.89499998
-0.20919999 0.2613 0.89600003
-0.2084 0.2622 0.89899999
-0.20389999 0.26449999 0.90700001
-0.2026 0.26480001 0.90799999
-0.1974 0.2642 0.90600002
-0.1956 0.26390001 0.90499997
-0.1936 0.2633 0.903
-0.19159999 0.26269999 0.90100002
-0.1899 0.2624 0.89999998
-0.18340001 0.2622 0.89899999
-0.18170001 0.26190001 0.898
-0.18009999 0.26190001 0.898
-0.17739999 0.2624 0.89999998
-0.17020001 0.2633 0.903
-0.1682 0.26269999 0.90100002
-0.1665 0.2624 0.89999998
-0.1647 0.2622 0.89899999
-0.163 0.26190001 0.898
-0.16140001 0.26190001 0.898
-0.15970001 0.26159999 0.89700001
-0.15809999 0.26159999 0.89700001
-0.1568 0.26190001 0.898
-0.1557 0.26269999 0.90100002
-0.1542 0.26269999 0.90100002
-0.1529 0.2633 0.903
-0.1514 0.2633 0.903
-0.15000001 0.26359999 0.90399998
-0.1486 0.26390001 0.90499997
-0.1468 0.26359999 0.90399998
-0.145 0.26300001 0.90200001
-0.1432 0.26269999 0.90100002
-0.1417 0.26269999 0.90100002
-0.1401 0.26269999 0.90100002
-0.13850001 0.26269999 0.90100002
-0.13680001 0.2624 0.89999998
-0.13420001 0.2633 0.903
-0.13259999 0.2633 0.903
-0.12970001 0.26390001 0.90499997
-0.12819999 0.26390001 0.90499997
-0.1266 0.26390001 0.90499997
-0.1235 0.26390001 0.90499997
-0.1219 0.26390001 0.90499997
-0.1171 0.26359999 0.90399998
-0.1156 0.26390001 0.90499997
-0.1139 0.26359999 0.90399998
-0.1124 0.26359999 0.90399998
-0.1107 0.2633 0.903
-0.109 0.26300001 0.90200001
-0.1074 0.26300001 0.90200001
-0.106 0.2633 0.903
-0.1043 0.26300001 0.90200001
-0.1029 0.2633 0.903
-0.1013 0.2633 0.903
-0.099699996 0.2633 0.903
-0.098099999 0.26300001 0.90200001
-0.0964 0.26269999 0.90100002
-0.094700001 0.2624 0.89999998
-0.092799999 0.26159999 0.89700001
-0.0911 0.26100001 0.89499998
-0.089400001 0.26069999 0.89399999
-0.088 0.26100001 0.89499998
-0.086499996 0.2613 0.89600003
-0.085100003 0.26159999 0.89700001
-0.083700001 0.2622 0.89899999
-0.0823 0.26269999 0.90100002
-0.080899999 0.2633 0.903
-0.079400003 0.2633 0.903
-0.078000002 0.26390001 0.90499997
-0.076399997 0.26390001 0.90499997
-0.0748 0.26359999 0.90399998
-0.071400002 0.26269999 0.90100002
-0.069799997 0.2624 0.89999998
-0.063000001 0.26010001 0.89200002
-0.0614 0.26010001 0.89200002
-0.060199998 0.26159999 0.89700001
-0.058899999 0.26269999 0.90100002
-0.057500001 0.2633 0.903
-0.056000002 0.26359999 0.90399998
-0.054400001 0.26359999 0.90399998
-0.0528 0.26359999 0.90399998
-0.0513 0.26359999 0.90399998
-0.049699999 0.26359999 0.90399998
-0.048099998 0.26359999 0.90399998
-0.046599999 0.26359999 0.90399998
-0.0451 0.26390001 0.90499997
-0.043499999 0.26390001 0.90499997
-0.041999999 0.2642 0.90600002
-0.040399998 0.2642 0.90600002
-0.038800001 0.26390001 0.90499997
-0.0372 0.26390001 0.90499997
-0.035700001 0.2642 0.90600002
-0.0341 0.26390001 0.90499997
-0.032499999 0.26390001 0.90499997
-0.030999999 0.2642 0.90600002
-0.0294 0.2642 0.90600002
-0.027899999 0.26449999 0.90700001
-0.0263 0.2642 0.90600002
-0.024700001 0.2642 0.90600002
-0.0231 0.26390001 0.90499997
-0.021500001 0.26390001 0.90499997
-0.02 0.26390001 0.90499997
-0.0184 0.26390001 0.90499997
-0.016799999 0.26390001 0.90499997
-0.0152 0.26390001 0.90499997
-0.0137 0.26390001 0.90499997
-0.0121 0.26390001 0.90499997
-0.0105 0.26390001 0.90499997
-0.0089999996 0.2633 0.903
-0.0074 0.2633 0.903
-0.0057999999 0.26269999 0.90100002
-0.0041999999 0.2624 0.89999998
-0.0027000001 0.2622 0.89899999
0.039799999 0.26480001 0.90799999
0.0414 0.26480001 0.90799999
0.0429 0.26480001 0.90799999
0.044500001 0.26480001 0.90799999
0.046100002 0.26480001 0.90799999
0.047600001 0.26480001 0.90799999
0.049199998 0.26480001 0.90799999
0.050799999 0.26480001 0.90799999
0.057100002 0.26480001 0.90799999
0.060199998 0.26480001 0.90799999
0.061799999 0.26480001 0.90799999
0.064900003 0.26449999 0.90700001
0.066500001 0.26449999 0.90700001
0.068000004 0.26449999 0.90700001
0.069700003 0.26480001 0.90799999
0.071199998 0.26449999 0.90700001
0.072800003 0.26480001 0.90799999
0.0744 0.26480001 0.90799999
0.075999998 0.26480001 0.90799999
0.077500001 0.26480001 0.90799999
0.079099998 0.26480001 0.90799999
0.0836 0.26390001 0.90499997
0.091600001 0.26449999 0.90700001
0.093099996 0.2642 0.90600002
0.094800003 0.26449999 0.90700001
0.096500002 0.2651 0.90899998
0.098300003 0.26570001 0.91100001
0.1002 0.2665 0.91399997
0.1019 0.26679999 0.91500002
0.1034 0.2665 0.91399997
0.1048 0.26589999 0.912
0.1061 0.26539999 0.91000003
0.117 0.2651 0.90899998
0.1187 0.26539999 0.91000003
0.1204 0.26570001 0.91100001
0.1311 0.26480001 0.90799999
0.13259999 0.26480001 0.90799999
0.1339 0.2642 0.90600002
0.1353 0.26390001 0.90499997
0.13689999 0.26390001 0.90499997
0.13850001 0.26390001 0.90499997
0.14 0.26390001 0.90499997
0.14139999 0.26359999 0.90399998
0.14300001 0.26359999 0.90399998
0.1461 0.26359999 0.90399998
0.1479 0.26390001 0.90499997
0.1498 0.26449999 0.90700001
0.1515 0.26480001 0.90799999
0.1531 0.26480001 0.90799999
0.155 0.26539999 0.91000003
0.1566 0.26539999 0.91000003
0.1585 0.26589999 0.912
0.1603 0.26620001 0.91299999
0.1622 0.26679999 0.91500002
0.1645 0.26800001 0.91900003
0.1666 0.26890001 0.92199999
0.1684 0.2692 0.92299998
-0.3998 0.26249999 0.89499998
-0.3978 0.2622 0.89399999
-0.37619999 0.26019999 0.88700002
-0.36090001 0.26140001 0.89099997
-0.3594 0.26140001 0.89099997
-0.35859999 0.26199999 0.89300001
-0.35789999 0.26249999 0.89499998
-0.35519999 0.26280001 0.89600003
-0.3486 0.26249999 0.89499998
-0.34630001 0.26199999 0.89300001
-0.34470001 0.26199999 0.89300001
-0.33970001 0.2617 0.89200002
-0.33809999 0.2617 0.89200002
-0.33700001 0.26199999 0.89300001
-0.3362 0.26249999 0.89499998
-0.33500001 0.26280001 0.89600003
-0.33340001 0.26280001 0.89600003
-0.33149999 0.26249999 0.89499998
-0.3292 0.26199999 0.89300001
-0.32690001 0.26140001 0.89099997
-0.32499999 0.26109999 0.88999999
-0.31290001 0.26249999 0.89499998
-0.31099999 0.2622 0.89399999
-0.3091 0.26199999 0.89300001
-0.30759999 0.26199999 0.89300001
-0.30090001 0.26429999 0.90100002
-0.2978 0.26429999 0.90100002
-0.29629999 0.26429999 0.90100002
-0.29440001 0.264 0.89999998
-0.2922 0.26339999 0.898
-0.28929999 0.2622 0.89399999
-0.2843 0.26050001 0.88800001
-0.27689999 0.25929999 0.884
-0.2757 0.25960001 0.88499999
-0.27410001 0.25960001 0.88499999
-0.27289999 0.2599 0.88599998
-0.27110001 0.25960001 0.88499999
-0.26980001 0.2599 0.88599998
-0.26859999 0.26019999 0.88700002
-0.26769999 0.2608 0.889
-0.26640001 0.26109999 0.88999999
-0.26519999 0.26140001 0.89099997
-0.26359999 0.26140001 0.89099997
-0.26179999 0.26109999 0.88999999
-0.26050001 0.26140001 0.89099997
-0.25650001 0.26199999 0.89300001
-0.25490001 0.26199999 0.89300001
-0.25369999 0.2622 0.89399999
-0.2527 0.26280001 0.89600003
-0.2511 0.26280001 0.89600003
-0.24959999 0.26280001 0.89600003
-0.2376 0.2617 0.89200002
-0.2358 0.26140001 0.89099997
-0.23459999 0.2617 0.89200002
-0.23270001 0.26140001 0.89099997
-0.2317 0.26199999 0.89300001
-0.23019999 0.26199999 0.89300001
-0.2291 0.26249999 0.89499998
-0.2278 0.26280001 0.89600003
-0.226 0.26249999 0.89499998
-0.2245 0.26249999 0.89499998
-0.22239999 0.26199999 0.89300001
-0.2209 0.26199999 0.89300001
-0.2191 0.2617 0.89200002
-0.2158 0.26140001 0.89099997
-0.2142 0.26140001 0.89099997
-0.2129 0.2617 0.89200002
-0.21160001 0.26199999 0.89300001
-0.2105 0.26249999 0.89499998
-0.20919999 0.26280001 0.89600003
-0.2084 0.26370001 0.89899999
-0.20730001 0.26429999 0.90100002
-0.205 0.26550001 0.90499997
-0.20100001 0.26640001 0.90799999
-0.1954 0.26519999 0.90399998
-0.19159999 0.26429999 0.90100002
-0.1899 0.264 0.89999998
-0.185 0.26370001 0.89899999
-0.1832 0.26339999 0.898
-0.18170001 0.26339999 0.898
-0.1803 0.26370001 0.89899999
-0.1789 0.264 0.89999998
-0.17020001 0.2649 0.903
-0.16859999 0.2649 0.903
-0.16670001 0.26429999 0.90100002
-0.16509999 0.26429999 0.90100002
-0.16329999 0.264 0.89999998
-0.16159999 0.26370001 0.89899999
-0.15989999 0.26339999 0.898
-0.1583 0.26339999 0.898
-0.1568 0.26339999 0.898
-0.15549999 0.264 0.89999998
-0.1542 0.26429999 0.90100002
-0.15279999 0.26460001 0.90200001
-0.1512 0.26460001 0.90200001
-0.1498 0.2649 0.903
-0.14839999 0.26519999 0.90399998
-0.14669999 0.2649 0.903
-0.145 0.26460001 0.90200001
-0.1432 0.26429999 0.90100002
-0.1417 0.26429999 0.90100002
-0.1401 0.26429999 0.90100002
-0.13850001 0.26429999 0.90100002
-0.13699999 0.26429999 0.90100002
-0.1354 0.26429999 0.90100002
-0.13420001 0.2649 0.903
-0.13259999 0.2649 0.903
-0.12970001 0.26550001 0.90499997
-0.12819999 0.26550001 0.90499997
-0.1266 0.26550001 0.90499997
-0.1252 0.2658 0.90600002
-0.1236 0.2658 0.90600002
-0.1172 0.26550001 0.90499997
-0.1156 0.26550001 0.90499997
-0.1139 0.26519999 0.90399998
-0.1124 0.26519999 0.90399998
-0.1107 0.2649 0.903
-0.1091 0.2649 0.903
-0.1076 0.2649 0.903
-0.106 0.2649 0.903
-0.1042 0.26429999 0.90100002
-0.1013 0.2649 0.903
-0.099600002 0.26460001 0.90200001
-0.096299998 0.264 0.89999998
-0.094499998 0.26339999 0.898
-0.092600003 0.26249999 0.89499998
-0.087800004 0.26199999 0.89300001
-0.086400002 0.26249999 0.89499998
-0.084899999 0.26249999 0.89499998
-0.0836 0.26339999 0.898
-0.082199998 0.264 0.89999998
-0.080899999 0.2649 0.903
-0.079400003 0.2649 0.903
-0.078000002 0.26550001 0.90499997
-0.076399997 0.26550001 0.90499997
-0.0748 0.26519999 0.90399998
-0.073100001 0.2649 0.903
-0.071400002 0.26429999 0.90100002
-0.069799997 0.264 0.89999998
-0.066299997 0.26249999 0.89499998
-0.064599998 0.26199999 0.89300001
-0.063000001 0.2617 0.89200002
-0.0614 0.2617 0.89200002
-0.060199998 0.2631 0.89700001
-0.058899999 0.26429999 0.90100002
-0.057500001 0.2649 0.903
-0.0559 0.2649 0.903
-0.054299999 0.2649 0.903
-0.052900001 0.26550001 0.90499997
-0.0513 0.26550001 0.90499997
-0.049699999 0.26519999 0.90399998
-0.048099998 0.26519999 0.90399998
-0.046599999 0.26519999 0.90399998
-0.0451 0.26550001 0.90499997
-0.043499999 0.26550001 0.90499997
-0.041900001 0.26550001 0.90499997
-0.040399998 0.2658 0.90600002
-0.038800001 0.26550001 0.90499997
-0.0372 0.2658 0.90600002
-0.035700001 0.2658 0.90600002
-0.0341 0.26550001 0.90499997
-0.032499999 0.2658 0.90600002
-0.030999999 0.2658 0.90600002
-0.0294 0.26609999 0.90700001
-0.027899999 0.26609999 0.90700001
-0.0263 0.2658 0.90600002
-0.024700001 0.26550001 0.90499997
-0.0231 0.26550001 0.90499997
-0.021500001 0.26550001 0.90499997
-0.02 0.26550001 0.90499997
-0.0184 0.26550001 0.90499997
-0.016799999 0.26550001 0.90499997
-0.0153 0.2658 0.90600002
-0.0121 0.2658 0.90600002
-0.0089999996 0.2649 0.903
-0.0074 0.2649 0.903
-0.0057999999 0.26429999 0.90100002
-0.0041999999 0.26370001 0.89899999
-0.0027000001 0.26339999 0.898
-0.0011 0.26370001 0.89899999
0.039799999 0.26660001 0.90899998
0.0414 0.26640001 0.90799999
0.0429 0.26640001 0.90799999
0.044500001 0.26640001 0.90799999
0.046100002 0.26640001 0.90799999
0.049199998 0.26640001 0.90799999
0.050799999 0.26640001 0.90799999
0.057100002 0.26640001 0.90799999
0.060199998 0.26609999 0.90700001
0.061700001 0.26609999 0.90700001
0.064900003 0.26609999 0.90700001
0.066500001 0.26609999 0.90700001
0.068000004 0.26609999 0.90700001
0.069700003 0.26640001 0.90799999
0.0713 0.26640001 0.90799999
0.072800003 0.26640001 0.90799999
0.0744 0.26640001 0.90799999
0.075999998 0.26640001 0.90799999
0.077500001 0.26640001 0.90799999
0.079099998 0.26640001 0.90799999
0.091600001 0.26609999 0.90700001
0.093199998 0.26609999 0.90700001
0.094899997 0.26640001 0.90799999
0.096600004 0.2669 0.91000003
0.098399997 0.26750001 0.912
0.1002 0.26809999 0.91399997
0.1019 0.26840001 0.91500002
0.1034 0.26809999 0.91399997
0.1048 0.26750001 0.912
0.1062 0.26719999 0.91100001
0.1091 0.26660001 0.90899998
0.1137 0.26640001 0.90799999
0.1285 0.26750001 0.912
0.12989999 0.26719999 0.91100001
0.1313 0.2669 0.91000003
0.1328 0.26660001 0.90899998
0.13420001 0.26640001 0.90799999
0.1356 0.26609999 0.90700001
0.13699999 0.2658 0.90600002
0.13860001 0.2658 0.90600002
0.14 0.26550001 0.90499997
0.1416 0.26550001 0.90499997
0.14300001 0.26519999 0.90399998
0.1444 0.2649 0.903
0.146 0.2649 0.903
0.1479 0.26550001 0.90499997
0.1498 0.26609999 0.90700001
0.1513 0.26609999 0.90700001
0.1531 0.26640001 0.90799999
0.1548 0.26660001 0.90899998
0.1566 0.2669 0.91000003
0.1585 0.26750001 0.912
0.1601 0.26750001 0.912
0.1622 0.26840001 0.91500002
0.1645 0.2696 0.91900003
0.1666 0.2705 0.92199999
-0.3969 0.26320001 0.89200002
-0.3766 0.26199999 0.88800001
-0.37360001 0.26199999 0.88800001
-0.359 0.2626 0.88999999
-0.35780001 0.26289999 0.89099997
-0.3563 0.26289999 0.89099997
-0.347 0.26289999 0.89099997
-0.34549999 0.26289999 0.89099997
-0.34349999 0.2626 0.88999999
-0.33930001 0.26289999 0.89099997
-0.3378 0.26289999 0.89099997
-0.3362 0.26289999 0.89099997
-0.3362 0.26409999 0.89499998
-0.3346 0.26409999 0.89499998
-0.33270001 0.2638 0.89399999
-0.3308 0.26350001 0.89300001
-0.3285 0.26289999 0.89099997
-0.3114 0.26409999 0.89499998
-0.30950001 0.2638 0.89399999
-0.2985 0.2665 0.903
-0.2969 0.2665 0.903
-0.29499999 0.26620001 0.90200001
-0.29350001 0.26620001 0.90200001
-0.27689999 0.2608 0.884
-0.27410001 0.26109999 0.88499999
-0.2726 0.26109999 0.88499999
-0.27039999 0.26199999 0.88800001
-0.26890001 0.26199999 0.88800001
-0.26769999 0.26230001 0.889
-0.26640001 0.2626 0.88999999
-0.2649 0.2626 0.88999999
-0.2633 0.2626 0.88999999
-0.26179999 0.2626 0.88999999
-0.26030001 0.2626 0.88999999
-0.259 0.26289999 0.89099997
-0.25749999 0.26289999 0.89099997
-0.25560001 0.2626 0.88999999
-0.25440001 0.26289999 0.89099997
-0.25310001 0.26320001 0.89200002
-0.25240001 0.26409999 0.89499998
-0.2511 0.26440001 0.89600003
-0.2499 0.2647 0.89700001
-0.24860001 0.26499999 0.898
-0.24699999 0.26499999 0.898
-0.2374 0.26289999 0.89099997
-0.23559999 0.2626 0.88999999
-0.234 0.2626 0.88999999
-0.2325 0.2626 0.88999999
-0.23119999 0.26289999 0.89099997
-0.23019999 0.26350001 0.89300001
-0.2291 0.26409999 0.89499998
-0.22759999 0.26409999 0.89499998
-0.22239999 0.26350001 0.89300001
-0.21879999 0.26289999 0.89099997
-0.21709999 0.2626 0.88999999
-0.2155 0.2626 0.88999999
-0.214 0.2626 0.88999999
-0.21269999 0.26289999 0.89099997
-0.21160001 0.26350001 0.89300001
-0.2105 0.26409999 0.89499998
-0.2094 0.2647 0.89700001
-0.2084 0.26530001 0.89899999
-0.207 0.2656 0.89999998
-0.20460001 0.2665 0.903
-0.19320001 0.26589999 0.90100002
-0.19159999 0.26589999 0.90100002
-0.1899 0.2656 0.89999998
-0.1865 0.26530001 0.89899999
-0.185 0.26530001 0.89899999
-0.18340001 0.26530001 0.89899999
-0.18189999 0.26530001 0.89899999
-0.1805 0.2656 0.89999998
-0.17910001 0.26589999 0.90100002
-0.17479999 0.2665 0.903
-0.17030001 0.2667 0.90399998
-0.16859999 0.2665 0.903
-0.167 0.2665 0.903
-0.1655 0.2665 0.903
-0.1635 0.26589999 0.90100002
-0.1618 0.2656 0.89999998
-0.16 0.26530001 0.89899999
-0.1583 0.26499999 0.898
-0.1568 0.26499999 0.898
-0.15549999 0.2656 0.89999998
-0.1542 0.26589999 0.90100002
-0.15260001 0.26589999 0.90100002
-0.1512 0.26620001 0.90200001
-0.1498 0.2665 0.903
-0.1486 0.26699999 0.90499997
-0.1468 0.2667 0.90399998
-0.1451 0.2665 0.903
-0.1435 0.2665 0.903
-0.142 0.2665 0.903
-0.14030001 0.26620001 0.90200001
-0.13850001 0.26589999 0.90100002
-0.13699999 0.26589999 0.90100002
-0.1354 0.26589999 0.90100002
-0.13420001 0.2665 0.903
-0.13259999 0.2665 0.903
-0.131 0.2665 0.903
-0.1296 0.2667 0.90399998
-0.12819999 0.26699999 0.90499997
-0.1266 0.26699999 0.90499997
-0.125 0.26699999 0.90499997
-0.1235 0.26699999 0.90499997
-0.1206 0.2676 0.90700001
-0.1172 0.26699999 0.90499997
-0.1156 0.26699999 0.90499997
-0.1141 0.26699999 0.90499997
-0.1122 0.2665 0.903
-0.1107 0.2665 0.903
-0.109 0.26620001 0.90200001
-0.1073 0.26589999 0.90100002
-0.1058 0.26589999 0.90100002
-0.1042 0.26589999 0.90100002
-0.097800002 0.2656 0.89999998
-0.096299998 0.2656 0.89999998
-0.094499998 0.26499999 0.898
-0.092699997 0.26440001 0.89600003
-0.0911 0.26409999 0.89499998
-0.088 0.26409999 0.89499998
-0.085000001 0.26440001 0.89600003
-0.0836 0.26499999 0.898
-0.0823 0.26589999 0.90100002
-0.080899999 0.2665 0.903
-0.079400003 0.2665 0.903
-0.0779 0.2667 0.90399998
-0.076399997 0.26699999 0.90499997
-0.0748 0.2667 0.90399998
-0.073100001 0.2665 0.903
-0.071400002 0.26589999 0.90100002
-0.068000004 0.26499999 0.898
-0.066399999 0.2647 0.89700001
-0.064800002 0.26440001 0.89600003
-0.063199997 0.26409999 0.89499998
-0.061500002 0.2638 0.89399999
-0.060199998 0.2647 0.89700001
-0.058800001 0.2656 0.89999998
-0.057500001 0.2665 0.903
-0.0559 0.2665 0.903
-0.054299999 0.2665 0.903
-0.052900001 0.26699999 0.90499997
-0.0513 0.26699999 0.90499997
-0.049800001 0.26699999 0.90499997
-0.0482 0.26699999 0.90499997
-0.046599999 0.26699999 0.90499997
-0.0451 0.26699999 0.90499997
-0.043499999 0.26730001 0.90600002
-0.041900001 0.26699999 0.90499997
-0.040399998 0.26730001 0.90600002
-0.038800001 0.26730001 0.90600002
-0.0372 0.26730001 0.90600002
-0.035700001 0.26730001 0.90600002
-0.0341 0.26730001 0.90600002
-0.030999999 0.2676 0.90700001
-0.0294 0.2676 0.90700001
-0.027899999 0.2676 0.90700001
-0.0263 0.26730001 0.90600002
-0.024700001 0.26699999 0.90499997
-0.0231 0.26699999 0.90499997
-0.021500001 0.26699999 0.90499997
-0.02 0.26699999 0.90499997
-0.0184 0.26699999 0.90499997
-0.016799999 0.26699999 0.90499997
-0.0153 0.26730001 0.90600002
-0.0137 0.26730001 0.90600002
-0.0105 0.26699999 0.90499997
-0.0089999996 0.26699999 0.90499997
-0.0074 0.2667 0.90399998
-0.0057999999 0.26620001 0.90200001
-0.0041999999 0.2656 0.89999998
-0.0027000001 0.26530001 0.89899999
-0.0011 0.26530001 0.89899999
0.039900001 0.2685 0.91000003
0.0414 0.2685 0.91000003
0.043000001 0.2685 0.91000003
0.044500001 0.26820001 0.90899998
0.046100002 0.26789999 0.90799999
0.049199998 0.26789999 0.90799999
0.0524 0.26789999 0.90799999
0.055500001 0.26789999 0.90799999
0.0572 0.26820001 0.90899998
0.060199998 0.26789999 0.90799999
0.061700001 0.2676 0.90700001
0.063299999 0.2676 0.90700001
0.064900003 0.2676 0.90700001
0.066500001 0.2676 0.90700001
0.068000004 0.2676 0.90700001
0.069600001 0.2676 0.90700001
0.071199998 0.2676 0.90700001
0.072800003 0.26789999 0.90799999
0.0744 0.26789999 0.90799999
0.075999998 0.26789999 0.90799999
0.077500001 0.2676 0.90700001
0.079000004 0.2676 0.90700001
0.080399998 0.26699999 0.90499997
0.088299997 0.26699999 0.90499997
0.091499999 0.26730001 0.90600002
0.093199998 0.2676 0.90700001
0.094899997 0.26789999 0.90799999
0.096500002 0.26820001 0.90899998
0.098300003 0.26879999 0.91100001
0.1001 0.2694 0.91299999
0.1018 0.26969999 0.91399997
0.1035 0.27000001 0.91500002
0.105 0.26969999 0.91399997
0.1063 0.26910001 0.912
0.1077 0.2685 0.91000003
0.1093 0.2685 0.91000003
0.1139 0.26820001 0.90899998
0.1171 0.2685 0.91000003
0.1221 0.26910001 0.912
0.1266 0.2685 0.91000003
0.12819999 0.2685 0.91000003
0.1312 0.26820001 0.90899998
0.13259999 0.26789999 0.90799999
0.13410001 0.2676 0.90700001
0.1356 0.2676 0.90700001
0.13689999 0.26699999 0.90499997
0.13850001 0.26699999 0.90499997
0.14 0.26699999 0.90499997
0.1428 0.2665 0.903
0.1443 0.26620001 0.90200001
0.146 0.2665 0.903
0.1477 0.2667 0.90399998
0.1494 0.26699999 0.90499997
0.1512 0.26730001 0.90600002
0.1529 0.2676 0.90700001
0.1547 0.26789999 0.90799999
0.1564 0.26820001 0.90899998
0.1582 0.2685 0.91000003
0.15989999 0.26879999 0.91100001
0.162 0.26969999 0.91399997
0.16429999 0.27090001 0.91799998
0.1664 0.27180001 0.921
0.1684 0.27239999 0.92299998
-0.3759 0.2642 0.88999999
-0.37439999 0.2642 0.88999999
-0.37290001 0.2642 0.88999999
-0.35820001 0.26359999 0.88800001
-0.34200001 0.2642 0.88999999
-0.33930001 0.26449999 0.89099997
-0.3378 0.26449999 0.89099997
-0.33660001 0.26480001 0.89200002
-0.33579999 0.26530001 0.89399999
-0.3346 0.2656 0.89499998
-0.33270001 0.26530001 0.89399999
-0.31999999 0.26390001 0.889
-0.31400001 0.2665 0.898
-0.27590001 0.2615 0.88099998
-0.27469999 0.26179999 0.88200003
-0.2735 0.26210001 0.88300002
-0.2726 0.26269999 0.88499999
-0.27169999 0.2633 0.88700002
-0.27039999 0.26359999 0.88800001
-0.26949999 0.2642 0.88999999
-0.2683 0.26449999 0.89099997
-0.26730001 0.2651 0.89300001
-0.26550001 0.26480001 0.89200002
-0.26390001 0.26480001 0.89200002
-0.2538 0.26390001 0.889
-0.2525 0.2642 0.88999999
-0.25130001 0.26449999 0.89099997
-0.25060001 0.26530001 0.89399999
-0.24959999 0.26589999 0.89600003
-0.2483 0.26620001 0.89700001
-0.24680001 0.26620001 0.89700001
-0.23559999 0.2642 0.88999999
-0.2343 0.26449999 0.89099997
-0.23270001 0.26449999 0.89099997
-0.2317 0.2651 0.89300001
-0.2304 0.26530001 0.89399999
-0.2263 0.26589999 0.89600003
-0.2245 0.2656 0.89499998
-0.22239999 0.2651 0.89300001
-0.21709999 0.2642 0.88999999
-0.2155 0.2642 0.88999999
-0.2142 0.26449999 0.89099997
-0.2132 0.2651 0.89300001
-0.2123 0.26589999 0.89600003
-0.21080001 0.26589999 0.89600003
-0.2097 0.2665 0.898
-0.2086 0.26710001 0.89999998
-0.20730001 0.2674 0.90100002
-0.20460001 0.26800001 0.903
-0.19679999 0.26800001 0.903
-0.19159999 0.2674 0.90100002
-0.1901 0.2674 0.90100002
-0.1883 0.26710001 0.89999998
-0.18700001 0.2674 0.90100002
-0.18539999 0.2674 0.90100002
-0.1838 0.2674 0.90100002
-0.1825 0.26769999 0.90200001
-0.1807 0.2674 0.90100002
-0.1795 0.26800001 0.903
-0.178 0.26800001 0.903
-0.17640001 0.26800001 0.903
-0.17479999 0.26800001 0.903
-0.1735 0.2683 0.90399998
-0.17030001 0.2683 0.90399998
-0.1688 0.2683 0.90399998
-0.167 0.26800001 0.903
-0.1655 0.26800001 0.903
-0.1639 0.26800001 0.903
-0.162 0.2674 0.90100002
-0.1602 0.26710001 0.89999998
-0.1585 0.26679999 0.89899999
-0.15710001 0.26710001 0.89999998
-0.15549999 0.26710001 0.89999998
-0.1542 0.2674 0.90100002
-0.15260001 0.2674 0.90100002
-0.1512 0.26769999 0.90200001
-0.1498 0.26800001 0.903
-0.14839999 0.2683 0.90399998
-0.1468 0.2683 0.90399998
-0.1451 0.26800001 0.903
-0.1435 0.26800001 0.903
-0.142 0.26800001 0.903
-0.14030001 0.26769999 0.90200001
-0.13850001 0.2674 0.90100002
-0.13699999 0.2674 0.90100002
-0.1354 0.2674 0.90100002
-0.134 0.26769999 0.90200001
-0.13240001 0.26769999 0.90200001
-0.1309 0.26769999 0.90200001
-0.1296 0.2683 0.90399998
-0.12800001 0.2683 0.90399998
-0.1266 0.26859999 0.90499997
-0.125 0.26859999 0.90499997
-0.1235 0.26859999 0.90499997
-0.122 0.26890001 0.90600002
