ply
format ascii 1.0
comment PCL generated
element vertex 1504
property float x
property float y
property float z
element camera 0
property float view_px
property float view_py
property float view_pz
property float x_axisx
property float x_axisy
property float x_axisz
property float y_axisx
property float y_axisy
property float y_axisz
property float z_axisx
property float z_axisy
property float z_axisz
property float focal
property float scalex
property float scaley
property float centerx
property float centery
property int viewportx
property int viewporty
property float k1
property float k2
end_header
-0.2159 -0.042300001 0.87900001
-0.21439999 -0.042300001 0.87900001
-0.41249999 -0.040600002 0.87599999
-0.40959999 -0.0405 0.87300003
-0.4095 -0.040600002 0.87599999
-0.40939999 -0.0407 0.87900001
-0.40740001 -0.0407 0.87800002
-0.3874 -0.0405 0.87400001
-0.38409999 -0.0403 0.87
-0.38260001 -0.0403 0.87
-0.38060001 -0.0403 0.86900002
-0.2278 -0.0407 0.87800002
-0.2261 -0.040600002 0.87699997
-0.22480001 -0.0407 0.87800002
-0.2235 -0.0407 0.87900001
-0.2217 -0.0407 0.87800002
-0.21870001 -0.0407 0.87800002
-0.2172 -0.0407 0.87800002
-0.2129 -0.0407 0.87900001
-0.40900001 -0.039000001 0.875
-0.40630001 -0.0392 0.87900001
-0.3856 -0.038800001 0.87
-0.3836 -0.038800001 0.86900002
-0.38260001 -0.038800001 0.87
-0.38060001 -0.038800001 0.86900002
-0.2296 -0.0392 0.87900001
-0.2273 -0.039099999 0.87599999
-0.22579999 -0.039099999 0.87599999
-0.22480001 -0.0392 0.87800002
-0.2233 -0.0392 0.87800002
-0.2217 -0.0392 0.87800002
-0.22 -0.039099999 0.87699997
-0.2182 -0.039099999 0.87599999
-0.21690001 -0.039099999 0.87699997
-0.21520001 -0.039099999 0.87599999
-0.21359999 -0.039099999 0.87599999
-0.21259999 -0.0392 0.87800002
-0.4075 -0.037500001 0.875
-0.3802 -0.0372 0.86799997
-0.36219999 -0.037700001 0.87900001
-0.2296 -0.037700001 0.87900001
-0.2273 -0.037599999 0.87599999
-0.22579999 -0.037599999 0.87599999
-0.22480001 -0.037700001 0.87800002
-0.2233 -0.037700001 0.87800002
-0.2217 -0.037700001 0.87800002
-0.21969999 -0.037599999 0.87599999
-0.2167 -0.037599999 0.87599999
-0.21520001 -0.037599999 0.87599999
-0.21359999 -0.037599999 0.87599999
-0.21259999 -0.037700001 0.87800002
-0.40189999 -0.035999998 0.87599999
-0.3515 -0.036200002 0.87900001
-0.2309 -0.0361 0.87800002
-0.2273 -0.035999998 0.87599999
-0.22579999 -0.035999998 0.87599999
-0.2245 -0.0361 0.87699997
-0.2233 -0.0361 0.87800002
-0.2217 -0.0361 0.87800002
-0.2202 -0.0361 0.87800002
-0.2172 -0.0361 0.87800002
-0.2157 -0.0361 0.87800002
-0.2141 -0.0361 0.87800002
-0.4034 -0.034499999 0.87599999
-0.3608 -0.034400001 0.87199998
-0.3601 -0.034400001 0.87400001
-0.3594 -0.034499999 0.87599999
-0.2278 -0.034600001 0.87800002
-0.2263 -0.034600001 0.87800002
-0.22499999 -0.034600001 0.87900001
-0.2235 -0.034600001 0.87900001
-0.222 -0.034600001 0.87900001
-0.22050001 -0.034600001 0.87900001
-0.21870001 -0.034600001 0.87800002
-0.2172 -0.034600001 0.87800002
-0.2157 -0.034600001 0.87800002
-0.21439999 -0.034600001 0.87900001
-0.35949999 -0.032699998 0.86900002
-0.35890001 -0.0328 0.87099999
-0.35820001 -0.032900002 0.87300003
-0.35600001 -0.033 0.875
-0.2281 -0.033100002 0.87900001
-0.2189 -0.033100002 0.87900001
-0.2174 -0.033100002 0.87900001
-0.2022 -0.033100002 0.87900001
-0.2007 -0.033100002 0.87900001
-0.35929999 -0.031300001 0.87199998
-0.35780001 -0.031300001 0.87199998
-0.2296 -0.031599998 0.87900001
-0.20370001 -0.031599998 0.87900001
-0.20200001 -0.031599998 0.87800002
-0.20039999 -0.031599998 0.87800002
-0.1991 -0.031599998 0.87900001
-0.361 -0.0297 0.86900002
-0.35969999 -0.029899999 0.87300003
-0.35820001 -0.029899999 0.87300003
-0.32100001 -0.030099999 0.87900001
-0.3195 -0.030099999 0.87900001
-0.20200001 -0.029999999 0.87800002
-0.20039999 -0.029999999 0.87800002
-0.1991 -0.030099999 0.87900001
-0.289 -0.0286 0.87900001
-0.2404 -0.0284 0.87400001
-0.20370001 -0.0286 0.87900001
-0.20200001 -0.0285 0.87800002
-0.20039999 -0.0285 0.87800002
-0.1991 -0.0286 0.87900001
-0.35870001 -0.027000001 0.87800002
-0.3012 -0.027000001 0.87900001
-0.29969999 -0.027000001 0.87900001
-0.29660001 -0.027000001 0.87900001
-0.23720001 -0.027000001 0.87900001
-0.2357 -0.027000001 0.87900001
-0.2022 -0.027000001 0.87900001
-0.2007 -0.027000001 0.87900001
-0.36570001 -0.0253 0.87300003
-0.30579999 -0.0255 0.87900001
-0.30430001 -0.0255 0.87900001
-0.30270001 -0.0255 0.87900001
-0.30090001 -0.0255 0.87800002
-0.29899999 -0.0254 0.87699997
-0.2978 -0.0255 0.87800002
-0.29660001 -0.0255 0.87900001
-0.2422 -0.0254 0.875
-0.241 -0.0254 0.87599999
-0.2403 -0.0255 0.87900001
-0.36570001 -0.023800001 0.87300003
-0.3655 -0.0239 0.87599999
-0.36520001 -0.024 0.87900001
-0.30270001 -0.024 0.87900001
-0.3012 -0.024 0.87900001
-0.29929999 -0.024 0.87800002
-0.29820001 -0.024 0.87900001
-0.24150001 -0.024 0.87800002
-0.2174 -0.024 0.87900001
-0.2159 -0.024 0.87900001
-0.41159999 -0.022299999 0.87400001
-0.40959999 -0.022299999 0.87300003
-0.40900001 -0.022399999 0.875
-0.3655 -0.022399999 0.87599999
-0.34349999 -0.022399999 0.87800002
-0.34119999 -0.022399999 0.87599999
-0.3012 -0.022500001 0.87900001
-0.29969999 -0.022500001 0.87900001
-0.2189 -0.022500001 0.87900001
-0.2172 -0.022399999 0.87800002
-0.2159 -0.022500001 0.87900001
-0.21439999 -0.022500001 0.87900001
-0.40959999 -0.0208 0.87300003
-0.36520001 -0.0209 0.87900001
-0.3423 -0.0209 0.87900001
-0.2172 -0.0209 0.87800002
-0.2159 -0.0209 0.87900001
-0.21439999 -0.0209 0.87900001
-0.3664 -0.019200001 0.87099999
-0.2189 -0.019400001 0.87900001
-0.2172 -0.019400001 0.87800002
-0.2159 -0.019400001 0.87900001
-0.3378 -0.017899999 0.87900001
-0.39809999 -0.0162 0.87099999
-0.33629999 -0.0164 0.87900001
-0.4181 -0.0148 0.875
-0.39410001 -0.0148 0.87900001
-0.36050001 -0.0148 0.875
-0.39969999 -0.0132 0.86799997
-0.35609999 -0.0118 0.87900001
-0.41260001 -0.0102 0.87300003
-0.3644 -0.0102 0.87699997
-0.082699999 -0.0097000003 0.82700002
-0.078299999 -0.0102 0.87300003
-0.077 -0.0102 0.87599999
-0.075499997 -0.0102 0.87599999
-0.074199997 -0.0103 0.87900001
-0.41119999 -0.0087000001 0.87
-0.40920001 -0.0086000003 0.86900002
-0.083999999 -0.0082 0.82499999
-0.082699999 -0.0082 0.82700002
-0.077600002 -0.0086000003 0.866
-0.076300003 -0.0086000003 0.86799997
-0.074900001 -0.0086000003 0.86900002
-0.073399998 -0.0086000003 0.86900002
-0.072099999 -0.0087000001 0.87199998
-0.070900001 -0.0087000001 0.875
-0.31639999 -0.0071999999 0.87900001
-0.084200002 -0.0068000001 0.82700002
-0.082900003 -0.0068000001 0.829
-0.081500001 -0.0068000001 0.829
-0.077200003 -0.0071 0.861
-0.075800002 -0.0071 0.86199999
-0.074299999 -0.0071 0.86199999
-0.072899997 -0.0071 0.86299998
-0.071400002 -0.0071 0.86299998
-0.069899999 -0.0071 0.86299998
-0.40920001 -0.0055999998 0.86900002
-0.31799999 -0.0057000001 0.87900001
-0.31569999 -0.0057000001 0.87699997
-0.31380001 -0.0057000001 0.87599999
-0.083999999 -0.0054000001 0.82499999
-0.082699999 -0.0054000001 0.82700002
-0.081500001 -0.0054000001 0.829
-0.0788 -0.0054000001 0.83099997
-0.077600002 -0.0054000001 0.833
-0.0735 -0.0055 0.85299999
-0.070299998 -0.0055 0.85000002
-0.068700001 -0.0055 0.84799999
-0.067199998 -0.0055 0.84799999
-0.065700002 -0.0055 0.84799999
-0.064300001 -0.0055 0.84799999
-0.31909999 -0.0041999999 0.87800002
-0.315 -0.0041999999 0.875
-0.3123 -0.0041999999 0.87599999
-0.31189999 -0.0041999999 0.87900001
-0.085900001 -0.0038999999 0.81599998
-0.084899999 -0.0038999999 0.81999999
-0.083999999 -0.0038999999 0.82499999
-0.082800001 -0.0038999999 0.82800001
-0.081500001 -0.0038999999 0.829
-0.080200002 -0.0038999999 0.82999998
-0.0788 -0.0038999999 0.83099997
-0.077600002 -0.0040000002 0.833
-0.071599998 -0.0040000002 0.84799999
-0.07 -0.0040000002 0.84600002
-0.068400003 -0.0040000002 0.84500003
-0.0669 -0.0040000002 0.84399998
-0.065399997 -0.0040000002 0.84399998
-0.064000003 -0.0040000002 0.84399998
-0.062399998 -0.0040000002 0.84299999
-0.060800001 -0.0040000002 0.84100002
-0.34689999 -0.0027000001 0.87900001
-0.31150001 -0.0027000001 0.87800002
-0.2418 -0.0027000001 0.87900001
-0.2403 -0.0027000001 0.87900001
-0.2388 -0.0027000001 0.87900001
-0.2052 -0.0027000001 0.87900001
-0.087300003 -0.0024999999 0.81599998
-0.086300001 -0.0024999999 0.81999999
-0.0854 -0.0024999999 0.82499999
-0.084399998 -0.0024999999 0.829
-0.082999997 -0.0024999999 0.82999998
-0.081600003 -0.0024999999 0.82999998
-0.080300003 -0.0024999999 0.83099997
-0.078900002 -0.0024999999 0.83200002
-0.077699997 -0.0024999999 0.83399999
-0.070699997 -0.0024999999 0.83700001
-0.069300003 -0.0024999999 0.838
-0.067900002 -0.0024999999 0.838
-0.066399999 -0.0024999999 0.838
-0.064999998 -0.0024999999 0.838
-0.063600004 -0.0024999999 0.83899999
-0.062100001 -0.0024999999 0.83899999
-0.060600001 -0.0024999999 0.838
-0.059099998 -0.0024999999 0.838
-0.057700001 -0.0024999999 0.838
-0.34650001 -0.0011 0.87800002
-0.3184 -0.0011 0.87599999
-0.31299999 -0.0011 0.87800002
-0.31189999 -0.0011 0.87900001
-0.075499997 -0.00089999998 0.67299998
-0.087399997 -0.0011 0.81699997
-0.086599998 -0.0011 0.82300001
-0.085699998 -0.0011 0.82800001
-0.0845 -0.0011 0.82999998
-0.083099999 -0.0011 0.83099997
-0.081799999 -0.0011 0.83200002
-0.080499999 -0.0011 0.83399999
-0.079099998 -0.0011 0.83399999
-0.077699997 -0.0011 0.83399999
-0.070299998 -0.0011 0.83200002
-0.068899997 -0.0011 0.833
-0.067500003 -0.0011 0.83399999
-0.066200003 -0.0011 0.83499998
-0.0647 -0.0011 0.83499998
-0.063299999 -0.0011 0.83600003
-0.061900001 -0.0011 0.83600003
-0.060400002 -0.0011 0.83499998
-0.059 -0.0011 0.83600003
-0.057599999 -0.0011 0.83700001
-0.056200001 -0.0011 0.83700001
-0.34799999 0.00039999999 0.87800002
-0.088600002 0.00039999999 0.815
-0.087899998 0.00039999999 0.82200003
-0.087200001 0.00039999999 0.829
-0.086000003 0.00039999999 0.83099997
-0.084799998 0.00039999999 0.833
-0.083300002 0.00039999999 0.833
-0.082000002 0.00039999999 0.83399999
-0.080700003 0.00039999999 0.83600003
-0.0792 0.00039999999 0.83499998
-0.077600002 0.00039999999 0.833
-0.075900003 0.00039999999 0.83099997
-0.071500003 0.00039999999 0.82999998
-0.070100002 0.00039999999 0.82999998
-0.068700001 0.00039999999 0.83099997
-0.067400001 0.00039999999 0.83200002
-0.066 0.00039999999 0.833
-0.064599998 0.00039999999 0.833
-0.063199997 0.00039999999 0.83399999
-0.061799999 0.00039999999 0.83499998
-0.060400002 0.00039999999 0.83499998
-0.058899999 0.00039999999 0.83499998
-0.057599999 0.00039999999 0.83700001
-0.056200001 0.00039999999 0.83700001
-0.054900002 0.00039999999 0.83899999
-0.089199997 0.0018 0.82099998
-0.088500001 0.0018 0.82700002
-0.087300003 0.0018 0.82999998
-0.086000003 0.0018 0.83099997
-0.084799998 0.0018 0.833
-0.083400004 0.0018 0.83399999
-0.082099997 0.0018 0.83499998
-0.080600001 0.0018 0.83499998
-0.079099998 0.0018 0.83399999
-0.077500001 0.0018 0.83200002
-0.075900003 0.0018 0.83099997
-0.074500002 0.0018 0.83099997
-0.072999999 0.0018 0.82999998
-0.071400002 0.0018 0.829
-0.070100002 0.0018 0.82999998
-0.068599999 0.0018 0.82999998
-0.067299999 0.0018 0.83099997
-0.065899998 0.0018 0.83200002
-0.064599998 0.0018 0.833
-0.063100003 0.0018 0.833
-0.061799999 0.0018 0.83499998
-0.060400002 0.0018 0.83499998
-0.058899999 0.0018 0.83499998
-0.057599999 0.0018 0.83700001
-0.056200001 0.0018 0.838
-0.054900002 0.0018 0.83899999
-0.0535 0.0018 0.83999997
-0.052000001 0.0018 0.83999997
-0.050700001 0.0018 0.84299999
-0.049400002 0.0018 0.84600002
-0.048 0.0018 0.847
-0.046799999 0.0019 0.852
-0.3978 0.0034 0.87699997
-0.091200002 0.0031999999 0.82599998
-0.090000004 0.0031999999 0.82800001
-0.088699996 0.0031999999 0.829
-0.087300003 0.0031999999 0.82999998
-0.086099997 0.0033 0.83200002
-0.084799998 0.0033 0.833
-0.083300002 0.0033 0.833
-0.082099997 0.0033 0.83499998
-0.080600001 0.0033 0.83499998
-0.0792 0.0033 0.83499998
-0.077600002 0.0033 0.833
-0.075900003 0.0033 0.83099997
-0.0744 0.0031999999 0.82999998
-0.072899997 0.0031999999 0.829
-0.071400002 0.0031999999 0.829
-0.07 0.0031999999 0.829
-0.068599999 0.0031999999 0.82999998
-0.065899998 0.0033 0.83099997
-0.064499997 0.0033 0.83200002
-0.063100003 0.0033 0.833
-0.061799999 0.0033 0.83399999
-0.060400002 0.0033 0.83499998
-0.058899999 0.0033 0.83499998
-0.057599999 0.0033 0.83700001
-0.056200001 0.0033 0.838
-0.054900002 0.0033 0.83999997
-0.0535 0.0033 0.83999997
-0.052099999 0.0033 0.84100002
-0.050700001 0.0033 0.84299999
-0.049400002 0.0033 0.84500003
-0.048 0.0033 0.84600002
-0.046500001 0.0033 0.84600002
-0.045200001 0.0033 0.84799999
-0.043699998 0.0033 0.84899998
-0.40920001 0.0049000001 0.86900002
-0.40310001 0.0049000001 0.87199998
-0.37239999 0.0049999999 0.87800002
-0.091700003 0.0046999999 0.82999998
-0.090300001 0.0046999999 0.83099997
-0.0889 0.0046999999 0.83099997
-0.087499999 0.0046999999 0.83099997
-0.086099997 0.0046999999 0.83200002
-0.084799998 0.0046999999 0.833
-0.083400004 0.0046999999 0.83399999
-0.082000002 0.0046999999 0.83399999
-0.080600001 0.0046999999 0.83499998
-0.0792 0.0046999999 0.83499998
-0.077600002 0.0046999999 0.833
-0.075900003 0.0046999999 0.83099997
-0.0744 0.0046999999 0.82999998
-0.072999999 0.0046999999 0.82999998
-0.071500003 0.0046999999 0.82999998
-0.07 0.0046999999 0.829
-0.068599999 0.0046999999 0.82999998
-0.067199998 0.0046999999 0.82999998
-0.065899998 0.0046999999 0.83099997
-0.064400002 0.0046999999 0.83099997
-0.063000001 0.0046999999 0.83200002
-0.061799999 0.0046999999 0.83399999
-0.060400002 0.0046999999 0.83499998
-0.059 0.0046999999 0.83600003
-0.057700001 0.0046999999 0.838
-0.056299999 0.0046999999 0.83899999
-0.055 0.0046999999 0.84100002
-0.0535 0.0046999999 0.84100002
-0.052099999 0.0046999999 0.84100002
-0.050700001 0.0048000002 0.84200001
-0.0493 0.0048000002 0.84299999
-0.047899999 0.0048000002 0.84399998
-0.046399999 0.0048000002 0.84399998
-0.045000002 0.0048000002 0.84500003
-0.0436 0.0048000002 0.84600002
-0.042300001 0.0048000002 0.84899998
-0.39300001 0.0063999998 0.87300003
-0.3748 0.0063999998 0.87300003
-0.37279999 0.0065000001 0.87900001
-0.2129 0.0065000001 0.87900001
-0.2113 0.0065000001 0.87900001
-0.093400002 0.0060999999 0.833
-0.091899998 0.0060999999 0.83200002
-0.090400003 0.0060999999 0.83200002
-0.089000002 0.0060999999 0.83200002
-0.0876 0.0060999999 0.83200002
-0.086300001 0.0062000002 0.83399999
-0.085000001 0.0062000002 0.83499998
-0.083499998 0.0062000002 0.83499998
-0.082099997 0.0062000002 0.83499998
-0.080700003 0.0062000002 0.83600003
-0.0792 0.0062000002 0.83499998
-0.077600002 0.0060999999 0.833
-0.075999998 0.0060999999 0.83200002
-0.074500002 0.0060999999 0.83099997
-0.073100001 0.0060999999 0.83099997
-0.071599998 0.0060999999 0.83099997
-0.070100002 0.0060999999 0.82999998
-0.068700001 0.0060999999 0.83099997
-0.067299999 0.0060999999 0.83099997
-0.065899998 0.0060999999 0.83200002
-0.064499997 0.0060999999 0.83200002
-0.063100003 0.0060999999 0.833
-0.061799999 0.0062000002 0.83399999
-0.0605 0.0062000002 0.83600003
-0.059099998 0.0062000002 0.83700001
-0.057700001 0.0062000002 0.838
-0.056400001 0.0062000002 0.83999997
-0.054900002 0.0062000002 0.83999997
-0.0535 0.0062000002 0.83999997
-0.051899999 0.0062000002 0.83899999
-0.050500002 0.0062000002 0.83899999
-0.048999999 0.0062000002 0.83899999
-0.047600001 0.0062000002 0.83899999
-0.0462 0.0062000002 0.83999997
-0.044799998 0.0062000002 0.84100002
-0.043499999 0.0062000002 0.84399998
-0.042100001 0.0062000002 0.84600002
-0.0407 0.0063 0.84799999
-0.0396 0.0063 0.85399997
-0.41029999 0.0078999996 0.86799997
-0.39160001 0.0078999996 0.87
-0.37239999 0.0080000004 0.87800002
-0.093400002 0.0076000001 0.833
-0.092 0.0076000001 0.833
-0.090599999 0.0076000001 0.833
-0.089000002 0.0076000001 0.83200002
-0.087700002 0.0076000001 0.833
-0.086400002 0.0076000001 0.83499998
-0.085199997 0.0076000001 0.83700001
-0.083899997 0.0076000001 0.83899999
-0.082400002 0.0076000001 0.838
-0.080600001 0.0076000001 0.83499998
-0.079099998 0.0076000001 0.83399999
-0.077500001 0.0076000001 0.83200002
-0.075999998 0.0076000001 0.83200002
-0.074500002 0.0076000001 0.83099997
-0.073100001 0.0076000001 0.83099997
-0.071599998 0.0076000001 0.83099997
-0.070200004 0.0076000001 0.83099997
-0.068800002 0.0076000001 0.83200002
-0.067400001 0.0076000001 0.83200002
-0.066 0.0076000001 0.833
-0.064599998 0.0076000001 0.833
-0.063199997 0.0076000001 0.83399999
-0.061799999 0.0076000001 0.83499998
-0.0605 0.0076000001 0.83600003
-0.059099998 0.0076000001 0.83700001
-0.057700001 0.0076000001 0.838
-0.056200001 0.0076000001 0.838
-0.0548 0.0076000001 0.838
-0.053300001 0.0076000001 0.838
-0.051800001 0.0076000001 0.83700001
-0.050299998 0.0076000001 0.83600003
-0.048799999 0.0076000001 0.83499998
-0.047400001 0.0076000001 0.83499998
-0.046 0.0076000001 0.83600003
-0.044599999 0.0076000001 0.838
-0.043299999 0.0077 0.84100002
-0.042100001 0.0077 0.84500003
-0.0407 0.0077 0.847
-0.0394 0.0077999998 0.85100001
-0.0383 0.0077999998 0.85799998
-0.41029999 0.0093999999 0.86799997
-0.39120001 0.0093999999 0.86900002
-0.3906 0.0093999999 0.87099999
-0.37369999 0.0094999997 0.87400001
-0.3707 0.0094999997 0.87400001
-0.37 0.0094999997 0.87599999
-0.096000001 0.0091000004 0.84299999
-0.093699999 0.0091000004 0.83499998
-0.092100002 0.0089999996 0.83399999
-0.090700001 0.0089999996 0.83399999
-0.089199997 0.0089999996 0.83399999
-0.087899998 0.0091000004 0.83499998
-0.086599998 0.0091000004 0.83700001
-0.085299999 0.0091000004 0.838
-0.083899997 0.0091000004 0.83899999
-0.082400002 0.0091000004 0.838
-0.080600001 0.0091000004 0.83499998
-0.079099998 0.0089999996 0.83399999
-0.077500001 0.0089999996 0.83200002
-0.075900003 0.0089999996 0.83099997
-0.074500002 0.0089999996 0.83099997
-0.073100001 0.0089999996 0.83099997
-0.071599998 0.0089999996 0.83099997
-0.070299998 0.0089999996 0.83200002
-0.068899997 0.0089999996 0.833
-0.067500003 0.0089999996 0.833
-0.066 0.0089999996 0.833
-0.064599998 0.0089999996 0.833
-0.063199997 0.0089999996 0.83399999
-0.061799999 0.0091000004 0.83499998
-0.0605 0.0091000004 0.83700001
-0.059099998 0.0091000004 0.838
-0.057799999 0.0091000004 0.83899999
-0.056400001 0.0091000004 0.83999997
-0.054900002 0.0091000004 0.83999997
-0.053300001 0.0091000004 0.838
-0.051800001 0.0091000004 0.83700001
-0.0502 0.0091000004 0.83499998
-0.048700001 0.0089999996 0.83399999
-0.0473 0.0089999996 0.83399999
-0.045899998 0.0089999996 0.83399999
-0.044500001 0.0091000004 0.83499998
-0.043200001 0.0091000004 0.838
-0.041999999 0.0091000004 0.84299999
-0.040600002 0.0092000002 0.84600002
-0.039299998 0.0092000002 0.84899998
-0.037999999 0.0093 0.85299999
-0.036800001 0.0093 0.86000001
-0.0361 0.0094999997 0.87699997
-0.41029999 0.0109 0.86799997
-0.39120001 0.0109 0.86900002
-0.3901 0.0109 0.87
-0.3714 0.011 0.87199998
-0.36939999 0.011 0.87099999
-0.095299996 0.0105 0.83700001
-0.093699999 0.0105 0.83499998
-0.092200004 0.0105 0.83499998
-0.090700001 0.0105 0.83399999
-0.089199997 0.0105 0.83399999
-0.087899998 0.0105 0.83499998
-0.0854 0.0106 0.83899999
-0.083999999 0.0106 0.83999997
-0.082400002 0.0105 0.838
-0.080700003 0.0105 0.83600003
-0.079099998 0.0105 0.83399999
-0.077600002 0.0105 0.833
-0.075999998 0.0105 0.83200002
-0.074600004 0.0105 0.83200002
-0.073100001 0.0105 0.83200002
-0.071699999 0.0105 0.83200002
-0.070299998 0.0105 0.833
-0.068999998 0.0105 0.83399999
-0.067500003 0.0105 0.83399999
-0.066200003 0.0105 0.83499998
-0.0647 0.0105 0.83499998
-0.063299999 0.0105 0.83499998
-0.061999999 0.0105 0.83700001
-0.060600001 0.0105 0.838
-0.059099998 0.0105 0.838
-0.057700001 0.0105 0.838
-0.056299999 0.0106 0.83899999
-0.0548 0.0105 0.838
-0.053300001 0.0105 0.83700001
-0.0517 0.0105 0.83499998
-0.0502 0.0105 0.83499998
-0.048700001 0.0105 0.83399999
-0.0473 0.0105 0.83399999
-0.045899998 0.0105 0.83399999
-0.044500001 0.0105 0.83499998
-0.043200001 0.0106 0.83899999
-0.041999999 0.0106 0.84299999
-0.040600002 0.0106 0.84600002
-0.039299998 0.0107 0.84899998
-0.037900001 0.0107 0.85000002
-0.036499999 0.0107 0.85299999
-0.035399999 0.0108 0.86199999
-0.034000002 0.0109 0.86400002
-0.032900002 0.011 0.87300003
-0.37259999 0.0125 0.875
-0.37029999 0.0125 0.87300003
-0.33399999 0.0126 0.87699997
-0.3321 0.0125 0.87599999
-0.33059999 0.0125 0.87599999
-0.32980001 0.0126 0.87800002
-0.0955 0.012 0.838
-0.093800001 0.012 0.83600003
-0.092100002 0.0119 0.83399999
-0.090700001 0.0119 0.83399999
-0.089299999 0.0119 0.83499998
-0.088100001 0.012 0.83700001
-0.0854 0.012 0.83899999
-0.083899997 0.012 0.83899999
-0.082400002 0.012 0.838
-0.080700003 0.012 0.83600003
-0.0792 0.0119 0.83499998
-0.077600002 0.0119 0.833
-0.076099999 0.0119 0.833
-0.074600004 0.0119 0.83200002
-0.073200002 0.0119 0.833
-0.071800001 0.0119 0.833
-0.0704 0.0119 0.83399999
-0.0691 0.0119 0.83499998
-0.067699999 0.012 0.83600003
-0.066299997 0.012 0.83700001
-0.064900003 0.012 0.83700001
-0.0634 0.012 0.83700001
-0.061999999 0.012 0.838
-0.060699999 0.012 0.83899999
-0.059099998 0.012 0.838
-0.057700001 0.012 0.838
-0.056200001 0.012 0.838
-0.054699998 0.012 0.83700001
-0.053300001 0.012 0.83700001
-0.0517 0.0119 0.83499998
-0.0502 0.0119 0.83399999
-0.048700001 0.0119 0.833
-0.047200002 0.0119 0.833
-0.045899998 0.0119 0.83399999
-0.044500001 0.012 0.83600003
-0.043200001 0.012 0.83899999
-0.041999999 0.0121 0.84399998
-0.0407 0.0121 0.847
-0.039299998 0.0121 0.84799999
-0.037900001 0.0122 0.85000002
-0.036499999 0.0122 0.85100001
-0.035100002 0.0122 0.85299999
-0.033599999 0.0122 0.85399997
-0.032200001 0.0122 0.85399997
-0.0308 0.0123 0.85699999
-0.0295 0.0123 0.86199999
-0.028100001 0.0124 0.86500001
-0.33430001 0.0141 0.87800002
-0.33129999 0.0141 0.87800002
-0.0955 0.0134 0.838
-0.093900003 0.0134 0.83700001
-0.092200004 0.0134 0.83499998
-0.090800002 0.0134 0.83499998
-0.089500003 0.0134 0.83700001
-0.088299997 0.0135 0.83899999
-0.083899997 0.0135 0.83899999
-0.082400002 0.0134 0.838
-0.080799997 0.0134 0.83700001
-0.0792 0.0134 0.83499998
-0.077699997 0.0134 0.83399999
-0.076200001 0.0134 0.83399999
-0.0748 0.0134 0.83399999
-0.073299997 0.0134 0.83399999
-0.071900003 0.0134 0.83399999
-0.070600003 0.0134 0.83600003
-0.069200002 0.0134 0.83700001
-0.0678 0.0134 0.83700001
-0.066299997 0.0134 0.83700001
-0.064900003 0.0134 0.83700001
-0.063500002 0.0134 0.838
-0.061999999 0.0134 0.838
-0.060600001 0.0134 0.838
-0.059099998 0.0134 0.838
-0.057599999 0.0134 0.83700001
-0.056200001 0.0134 0.83700001
-0.0546 0.0134 0.83499998
-0.053100001 0.0134 0.83499998
-0.051600002 0.0134 0.83399999
-0.050099999 0.0134 0.833
-0.048700001 0.0134 0.833
-0.047200002 0.0134 0.833
-0.045899998 0.0134 0.83399999
-0.044500001 0.0134 0.83600003
-0.043200001 0.0135 0.83899999
-0.041999999 0.0135 0.84299999
-0.040600002 0.0136 0.84500003
-0.0392 0.0136 0.847
-0.037799999 0.0136 0.84799999
-0.0363 0.0136 0.84799999
-0.034899998 0.0136 0.84799999
-0.033399999 0.0136 0.84899998
-0.0319 0.0136 0.84600002
-0.030300001 0.0136 0.84500003
-0.028999999 0.0136 0.847
-0.0275 0.0136 0.84799999
-0.39989999 0.0156 0.875
-0.39750001 0.0155 0.87300003
-0.33430001 0.0156 0.87800002
-0.33129999 0.0156 0.87800002
-0.095299996 0.0149 0.83700001
-0.093800001 0.0149 0.83600003
-0.092200004 0.0148 0.83499998
-0.090899996 0.0149 0.83600003
-0.0898 0.0149 0.83899999
-0.088500001 0.015 0.84100002
-0.086999997 0.015 0.84100002
-0.085500002 0.0149 0.83999997
-0.083899997 0.0149 0.83899999
-0.082400002 0.0149 0.838
-0.080700003 0.0149 0.83600003
-0.0792 0.0148 0.83499998
-0.077699997 0.0148 0.83399999
-0.076200001 0.0148 0.83399999
-0.0748 0.0148 0.83399999
-0.073299997 0.0148 0.83399999
-0.071999997 0.0148 0.83499998
-0.070600003 0.0149 0.83600003
-0.069200002 0.0149 0.83700001
-0.0678 0.0149 0.83700001
-0.066399999 0.0149 0.838
-0.064900003 0.0149 0.83700001
-0.063500002 0.0149 0.838
-0.061999999 0.0149 0.838
-0.060600001 0.0149 0.838
-0.059099998 0.0149 0.83700001
-0.057599999 0.0149 0.83700001
-0.0561 0.0149 0.83600003
-0.054499999 0.0148 0.83399999
-0.053100001 0.0148 0.83399999
-0.051600002 0.0148 0.83399999
-0.0502 0.0148 0.83399999
-0.048700001 0.0148 0.833
-0.047200002 0.0148 0.833
-0.045899998 0.0148 0.83499998
-0.0447 0.0149 0.83899999
-0.043400001 0.015 0.84299999
-0.041999999 0.015 0.84399998
-0.040600002 0.015 0.84600002
-0.0392 0.015 0.84600002
-0.037799999 0.0151 0.847
-0.036200002 0.015 0.84600002
-0.034699999 0.015 0.84500003
-0.033199999 0.015 0.84399998
-0.0317 0.015 0.84100002
-0.030200001 0.0149 0.83999997
-0.0288 0.015 0.84200001
-0.0274 0.015 0.84399998
-0.026000001 0.015 0.84500003
-0.024499999 0.0151 0.847
-0.0231 0.0151 0.84799999
-0.40040001 0.017100001 0.87599999
-0.39840001 0.017100001 0.875
-0.3969 0.017100001 0.875
-0.3926 0.017100001 0.87900001
-0.37130001 0.017100001 0.87900001
-0.33629999 0.017100001 0.87900001
-0.33430001 0.017100001 0.87800002
-0.33239999 0.017100001 0.87699997
-0.096600004 0.0163 0.83499998
-0.094999999 0.0163 0.83399999
-0.093599997 0.0163 0.83399999
-0.092 0.0163 0.833
-0.090700001 0.0163 0.83399999
-0.089299999 0.0163 0.83499998
-0.088100001 0.0163 0.83700001
-0.0867 0.0163 0.838
-0.085199997 0.0163 0.83700001
-0.083700001 0.0163 0.83700001
-0.0823 0.0163 0.83700001
-0.080799997 0.0163 0.83700001
-0.0792 0.0163 0.83499998
-0.077699997 0.0163 0.83499998
-0.076200001 0.0163 0.83399999
-0.074900001 0.0163 0.83499998
-0.073399998 0.0163 0.83499998
-0.071999997 0.0163 0.83499998
-0.070699997 0.0163 0.83700001
-0.069300003 0.0163 0.838
-0.066500001 0.0164 0.83899999
-0.064999998 0.0163 0.838
-0.063600004 0.0164 0.83899999
-0.062100001 0.0164 0.83899999
-0.060699999 0.0164 0.83899999
-0.059099998 0.0163 0.838
-0.057599999 0.0163 0.83700001
-0.056200001 0.0163 0.83700001
-0.0546 0.0163 0.83499998
-0.053100001 0.0163 0.83499998
-0.051600002 0.0163 0.83399999
-0.0502 0.0163 0.83399999
-0.048700001 0.0163 0.83399999
-0.047400001 0.0163 0.83499998
-0.040600002 0.0165 0.84600002
-0.0392 0.0165 0.84600002
-0.037700001 0.0165 0.84600002
-0.036200002 0.0165 0.84500003
-0.034699999 0.0165 0.84399998
-0.033199999 0.0164 0.84299999
-0.031599998 0.0164 0.83999997
-0.030200001 0.0164 0.83999997
-0.0287 0.0164 0.84100002
-0.0273 0.0164 0.84200001
-0.025900001 0.0165 0.84399998
-0.024499999 0.0165 0.84500003
-0.0231 0.0165 0.84600002
-0.021600001 0.0165 0.847
-0.020199999 0.0165 0.84799999
-0.39669999 0.0187 0.87800002
-0.39520001 0.0187 0.87800002
-0.3937 0.0187 0.87800002
-0.3378 0.0187 0.87900001
-0.33320001 0.0186 0.875
-0.33019999 0.0186 0.875
-0.32859999 0.0187 0.87900001
-0.096799999 0.0178 0.83700001
-0.095100001 0.0177 0.83499998
-0.093599997 0.0177 0.83399999
-0.092 0.0177 0.833
-0.090599999 0.0177 0.833
-0.089199997 0.0177 0.83399999
-0.087800004 0.0177 0.83399999
-0.086300001 0.0177 0.83399999
-0.084899999 0.0177 0.83399999
-0.083499998 0.0177 0.83499998
-0.082099997 0.0177 0.83499998
-0.080600001 0.0177 0.83499998
-0.0792 0.0177 0.83499998
-0.077799998 0.0178 0.83600003
-0.076399997 0.0178 0.83600003
-0.074900001 0.0177 0.83499998
-0.073399998 0.0177 0.83499998
-0.071999997 0.0178 0.83600003
-0.070699997 0.0178 0.83700001
-0.069300003 0.0178 0.838
-0.067900002 0.0178 0.838
-0.066399999 0.0178 0.838
-0.064999998 0.0178 0.838
-0.063500002 0.0178 0.838
-0.062100001 0.0178 0.83899999
-0.060699999 0.0178 0.83899999
-0.0592 0.0178 0.83899999
-0.057700001 0.0178 0.838
-0.056200001 0.0178 0.838
-0.054699998 0.0178 0.83700001
-0.053300001 0.0178 0.83700001
-0.051800001 0.0178 0.83600003
-0.0504 0.0178 0.83700001
-0.048999999 0.0178 0.838
-0.047600001 0.0178 0.83899999
-0.039099999 0.017899999 0.84399998
-0.037599999 0.017899999 0.84399998
-0.035999998 0.017899999 0.84100002
-0.034499999 0.0178 0.83999997
-0.033 0.0178 0.83899999
-0.031500001 0.0178 0.83700001
-0.030099999 0.0178 0.83700001
-0.0286 0.0178 0.838
-0.0272 0.0178 0.83899999
-0.025800001 0.017899999 0.84100002
-0.0244 0.017899999 0.84299999
-0.023 0.017899999 0.84299999
-0.021600001 0.017999999 0.84500003
-0.020099999 0.017999999 0.84600002
-0.0187 0.017999999 0.847
-0.017200001 0.017999999 0.847
-0.3989 0.020099999 0.87599999
-0.39629999 0.020199999 0.87699997
-0.39430001 0.020099999 0.87599999
-0.3928 0.020099999 0.87599999
-0.39129999 0.020099999 0.87599999
-0.33739999 0.020199999 0.87800002
-0.33469999 0.020099999 0.875
-0.33320001 0.020099999 0.875
-0.32980001 0.020199999 0.87800002
-0.2129 0.020199999 0.87900001
-0.2113 0.020199999 0.87900001
-0.098399997 0.019300001 0.838
-0.096799999 0.019200001 0.83700001
-0.095100001 0.019200001 0.83499998
-0.093599997 0.019200001 0.83399999
-0.092 0.019099999 0.833
-0.090599999 0.019099999 0.833
-0.089199997 0.019200001 0.83399999
-0.087700002 0.019099999 0.833
-0.086199999 0.019099999 0.833
-0.084799998 0.019099999 0.833
-0.083400004 0.019200001 0.83399999
-0.082099997 0.019200001 0.83499998
-0.080499999 0.019200001 0.83399999
-0.0792 0.019200001 0.83499998
-0.077699997 0.019200001 0.83499998
-0.076300003 0.019200001 0.83499998
-0.074900001 0.019200001 0.83499998
-0.073399998 0.019200001 0.83499998
-0.071999997 0.019200001 0.83499998
-0.070600003 0.019200001 0.83600003
-0.069200002 0.019200001 0.83700001
-0.0678 0.019200001 0.83700001
-0.066399999 0.019300001 0.838
-0.064900003 0.019200001 0.83700001
-0.063500002 0.019300001 0.838
-0.061999999 0.019300001 0.838
-0.060699999 0.019300001 0.83899999
-0.059099998 0.019300001 0.838
-0.057700001 0.019300001 0.838
-0.056200001 0.019300001 0.838
-0.054699998 0.019200001 0.83700001
-0.053300001 0.019200001 0.83700001
-0.051800001 0.019200001 0.83700001
-0.050500002 0.019300001 0.83899999
-0.0491 0.019300001 0.83999997
-0.047699999 0.019300001 0.84100002
-0.037700001 0.019400001 0.84500003
-0.0361 0.019400001 0.84299999
-0.034600001 0.019300001 0.84200001
-0.033100002 0.019300001 0.83999997
-0.031500001 0.019300001 0.838
-0.030099999 0.019200001 0.83700001
-0.0286 0.019200001 0.83700001
-0.0272 0.019300001 0.838
-0.025800001 0.019300001 0.83899999
-0.0244 0.019300001 0.84100002
-0.0229 0.019300001 0.84200001
-0.021500001 0.019400001 0.84299999
-0.020099999 0.019400001 0.84399998
-0.0186 0.019400001 0.84500003
-0.017100001 0.019400001 0.84399998
-0.015699999 0.019400001 0.84399998
-0.0142 0.019400001 0.84299999
-0.39930001 0.0217 0.87699997
-0.39629999 0.0217 0.87699997
-0.39430001 0.021600001 0.87599999
-0.3928 0.021600001 0.87599999
-0.39129999 0.021600001 0.87599999
-0.38980001 0.021600001 0.87599999
-0.33739999 0.0217 0.87800002
-0.3351 0.021600001 0.87599999
-0.21259999 0.0217 0.87800002
-0.2111 0.0217 0.87800002
-0.1002 0.0208 0.84100002
-0.098399997 0.0207 0.838
-0.096799999 0.0207 0.83700001
-0.095100001 0.0206 0.83499998
-0.093400002 0.0206 0.833
-0.091899998 0.0206 0.83200002
-0.090400003 0.0206 0.83200002
-0.089000002 0.0206 0.83200002
-0.0876 0.0206 0.83200002
-0.084799998 0.0206 0.833
-0.083300002 0.0206 0.833
-0.082000002 0.0206 0.83399999
-0.080499999 0.0206 0.83399999
-0.079099998 0.0206 0.83399999
-0.077699997 0.0206 0.83399999
-0.076200001 0.0206 0.83399999
-0.0748 0.0206 0.83399999
-0.073299997 0.0206 0.83399999
-0.071900003 0.0206 0.83399999
-0.070500001 0.0206 0.83499998
-0.0691 0.0207 0.83600003
-0.0678 0.0207 0.83700001
-0.066299997 0.0207 0.83700001
-0.064900003 0.0207 0.83700001
-0.0634 0.0207 0.83700001
-0.061999999 0.0207 0.83700001
-0.0605 0.0207 0.83700001
-0.059099998 0.0207 0.838
-0.057700001 0.0207 0.838
-0.056200001 0.0207 0.83700001
-0.054699998 0.0207 0.83700001
-0.053300001 0.0207 0.83700001
-0.051899999 0.0207 0.838
-0.0506 0.0208 0.83999997
-0.049199998 0.0208 0.84100002
-0.0449 0.0209 0.84399998
-0.036200002 0.0209 0.84399998
-0.034699999 0.0208 0.84299999
-0.033100002 0.0208 0.83999997
-0.031500001 0.0207 0.83700001
-0.029999999 0.0206 0.83499998
-0.0285 0.0206 0.83499998
-0.027100001 0.0207 0.83600003
-0.025699999 0.0207 0.838
-0.0243 0.0208 0.83999997
-0.0229 0.0208 0.84100002
-0.021500001 0.0208 0.84299999
-0.020099999 0.0209 0.84399998
-0.0186 0.0209 0.84399998
-0.015699999 0.0209 0.84399998
-0.0142 0.0209 0.84399998
-0.40020001 0.0232 0.87900001
-0.39719999 0.0232 0.87900001
-0.39520001 0.0232 0.87800002
-0.3937 0.0232 0.87800002
-0.39129999 0.0232 0.87599999
-0.38499999 0.0232 0.87900001
-0.3328 0.0232 0.87800002
-0.21439999 0.0232 0.87900001
-0.2129 0.0232 0.87900001
-0.2113 0.0232 0.87900001
-0.102 0.022299999 0.84399998
-0.1002 0.0222 0.84100002
-0.098399997 0.0222 0.838
-0.096699998 0.0221 0.83600003
-0.094999999 0.0221 0.83399999
-0.093400002 0.022 0.833
-0.091899998 0.022 0.83200002
-0.090400003 0.022 0.83200002
-0.089000002 0.022 0.83200002
-0.086099997 0.022 0.83200002
-0.084700003 0.022 0.83200002
-0.083300002 0.022 0.833
-0.082000002 0.0221 0.83399999
-0.080499999 0.0221 0.83399999
-0.079000004 0.022 0.833
-0.077600002 0.022 0.833
-0.076099999 0.022 0.833
-0.074699998 0.022 0.833
-0.073100001 0.022 0.83200002
-0.071699999 0.022 0.83200002
-0.070299998 0.022 0.833
-0.068999998 0.0221 0.83399999
-0.067500003 0.0221 0.83399999
-0.066200003 0.0221 0.83499998
-0.0647 0.0221 0.83499998
-0.063299999 0.0221 0.83499998
-0.061799999 0.0221 0.83499998
-0.060400002 0.0221 0.83499998
-0.059 0.0221 0.83600003
-0.057599999 0.0221 0.83700001
-0.056200001 0.0221 0.83700001
-0.054699998 0.0221 0.83700001
-0.053300001 0.0222 0.838
-0.051899999 0.0222 0.83899999
-0.0506 0.0222 0.84100002
-0.049199998 0.0222 0.84100002
-0.033100002 0.0222 0.83999997
-0.031500001 0.0221 0.83700001
-0.029999999 0.0221 0.83499998
-0.0285 0.0221 0.83399999
-0.027100001 0.0221 0.83399999
-0.025599999 0.0221 0.83499998
-0.0243 0.0221 0.83700001
-0.0229 0.0222 0.83899999
-0.021500001 0.0222 0.84100002
-0.02 0.022299999 0.84200001
-0.0186 0.022299999 0.84299999
-0.017100001 0.022299999 0.84299999
-0.015699999 0.022299999 0.84299999
-0.0142 0.022299999 0.84299999
-0.0128 0.022299999 0.84399998
-0.0098000001 0.022299999 0.84200001
-0.0083999997 0.022299999 0.84299999
-0.3928 0.024700001 0.87599999
-0.3908 0.024700001 0.875
-0.102 0.023800001 0.84399998
-0.1002 0.023700001 0.84100002
-0.098399997 0.023600001 0.838
-0.096600004 0.023499999 0.83499998
-0.094999999 0.023499999 0.83399999
-0.093400002 0.023499999 0.833
-0.091899998 0.023399999 0.83200002
-0.090400003 0.023399999 0.83200002
-0.089000002 0.023399999 0.83200002
-0.0876 0.023399999 0.83200002
-0.084700003 0.023399999 0.83200002
-0.083300002 0.023499999 0.833
-0.081900001 0.023499999 0.833
-0.080399998 0.023499999 0.833
-0.079000004 0.023499999 0.833
-0.077600002 0.023499999 0.833
-0.076099999 0.023499999 0.833
-0.074600004 0.023399999 0.83200002
-0.073100001 0.023399999 0.83099997
-0.071599998 0.023399999 0.83099997
-0.070299998 0.023399999 0.83200002
-0.068800002 0.023399999 0.83200002
-0.067500003 0.023499999 0.833
-0.066 0.023499999 0.833
-0.064599998 0.023499999 0.833
-0.063199997 0.023499999 0.83399999
-0.061799999 0.023499999 0.83399999
-0.0603 0.023499999 0.83399999
-0.058899999 0.023499999 0.83499998
-0.057500001 0.023499999 0.83499998
-0.0561 0.023600001 0.83600003
-0.054699998 0.023600001 0.83700001
-0.053300001 0.023600001 0.838
-0.033100002 0.023700001 0.84100002
-0.031500001 0.023600001 0.838
-0.025699999 0.023600001 0.83600003
-0.0243 0.023600001 0.83700001
-0.0229 0.023600001 0.83899999
-0.021500001 0.023700001 0.84100002
-0.02 0.023700001 0.84100002
-0.0186 0.023700001 0.84200001
-0.017100001 0.023800001 0.84299999
-0.0156 0.023700001 0.84200001
-0.0142 0.023700001 0.84200001
-0.0127 0.023800001 0.84299999
-0.0113 0.023800001 0.84299999
-0.0098000001 0.023700001 0.84200001
-0.0083999997 0.023700001 0.84200001
-0.0068999999 0.023700001 0.84200001
-0.0054000001 0.023700001 0.83999997
-0.1037 0.0253 0.84600002
-0.1019 0.0252 0.84299999
-0.1 0.0251 0.83999997
-0.098399997 0.0251 0.838
-0.096600004 0.025 0.83499998
-0.094899997 0.024900001 0.833
-0.0933 0.024900001 0.83200002
-0.091799997 0.024900001 0.83099997
-0.090300001 0.024900001 0.83099997
-0.0889 0.024900001 0.83099997
-0.087499999 0.024900001 0.83099997
-0.086000003 0.024900001 0.83099997
-0.084700003 0.024900001 0.83200002
-0.0832 0.024900001 0.83200002
-0.081900001 0.024900001 0.833
-0.080399998 0.024900001 0.833
-0.079000004 0.024900001 0.833
-0.077600002 0.024900001 0.833
-0.076099999 0.024900001 0.833
-0.074600004 0.024900001 0.83200002
-0.073100001 0.024900001 0.83200002
-0.071699999 0.024900001 0.83200002
-0.070299998 0.024900001 0.83200002
-0.068800002 0.024900001 0.83200002
-0.067500003 0.024900001 0.833
-0.066 0.024900001 0.833
-0.064599998 0.024900001 0.833
-0.063100003 0.024900001 0.833
-0.061700001 0.024900001 0.833
-0.0603 0.024900001 0.83399999
-0.058899999 0.024900001 0.83399999
-0.057399999 0.024900001 0.83399999
-0.0561 0.025 0.83600003
-0.054699998 0.025 0.83700001
-0.053399999 0.0251 0.83899999
-0.0243 0.0251 0.83999997
-0.0229 0.0252 0.84200001
-0.021500001 0.0252 0.84299999
-0.02 0.0252 0.84299999
-0.0186 0.0252 0.84399998
-0.017100001 0.0252 0.84399998
-0.015699999 0.0252 0.84299999
-0.0142 0.0252 0.84299999
-0.0127 0.0252 0.84299999
-0.0113 0.0252 0.84299999
-0.0098000001 0.0252 0.84200001
-0.0082999999 0.0252 0.84100002
-0.0068999999 0.0252 0.84100002
-0.0054000001 0.0252 0.84100002
-0.0040000002 0.0251 0.83999997
-0.0024999999 0.0251 0.83899999
-0.1036 0.026699999 0.84500003
-0.1017 0.0266 0.84200001
-0.0999 0.0265 0.83899999
-0.098399997 0.0265 0.838
-0.096699998 0.0265 0.83600003
-0.094999999 0.0264 0.83399999
-0.093400002 0.0264 0.833
-0.091899998 0.0263 0.83200002
-0.090300001 0.0263 0.83099997
-0.089000002 0.0263 0.83200002
-0.087499999 0.0263 0.83099997
-0.086000003 0.0263 0.83099997
-0.084700003 0.0263 0.83200002
-0.0832 0.0263 0.83200002
-0.081900001 0.0264 0.833
-0.080399998 0.0264 0.833
-0.079000004 0.0264 0.833
-0.077600002 0.0264 0.833
-0.076099999 0.0264 0.833
-0.074699998 0.0264 0.833
-0.073100001 0.0263 0.83200002
-0.071599998 0.0263 0.83099997
-0.070200004 0.0263 0.83099997
-0.068700001 0.0263 0.83099997
-0.067299999 0.0263 0.83099997
-0.065899998 0.0263 0.83200002
-0.064499997 0.0263 0.83200002
-0.063000001 0.0263 0.83200002
-0.0616 0.0263 0.83200002
-0.060199998 0.0264 0.833
-0.058800001 0.0264 0.833
-0.057399999 0.0264 0.83399999
-0.056000002 0.0264 0.83499998
-0.054699998 0.0265 0.83700001
-0.053399999 0.0265 0.83899999
-0.052099999 0.0266 0.84100002
-0.0244 0.0266 0.84200001
-0.023 0.026699999 0.84299999
-0.021500001 0.026699999 0.84399998
-0.020099999 0.026699999 0.84399998
-0.0186 0.026699999 0.84399998
-0.017100001 0.026699999 0.84399998
-0.015699999 0.026699999 0.84299999
-0.0142 0.026699999 0.84299999
-0.0127 0.026699999 0.84299999
-0.0113 0.0266 0.84200001
-0.0098000001 0.0266 0.84100002
-0.0082999999 0.0266 0.84100002
-0.0068999999 0.0266 0.84100002
-0.0054000001 0.0266 0.83999997
-0.0040000002 0.0266 0.83999997
-0.0024999999 0.0266 0.83999997
-0.0011 0.0266 0.83999997
0.00039999999 0.026699999 0.84299999
0.0019 0.026699999 0.84500003
0.0033 0.026799999 0.847
0.0048000002 0.026799999 0.847
0.0078999996 0.0275 0.86799997
-0.1034 0.028200001 0.84399998
-0.1017 0.028100001 0.84200001
-0.0999 0.028000001 0.83899999
-0.098399997 0.028000001 0.838
-0.096699998 0.027899999 0.83600003
-0.094999999 0.027799999 0.83399999
-0.093400002 0.027799999 0.833
-0.092 0.027799999 0.833
-0.090400003 0.027799999 0.83200002
-0.089100003 0.027799999 0.833
-0.0876 0.027799999 0.83200002
-0.086099997 0.027799999 0.83200002
-0.084799998 0.027799999 0.833
-0.083300002 0.027799999 0.833
-0.081900001 0.027799999 0.833
-0.080399998 0.027799999 0.833
-0.079000004 0.027799999 0.833
-0.077600002 0.027799999 0.833
-0.075999998 0.027799999 0.83200002
-0.074600004 0.027799999 0.83200002
-0.073100001 0.0277 0.83099997
-0.071599998 0.0277 0.83099997
-0.070100002 0.0277 0.82999998
-0.068599999 0.0277 0.82999998
-0.067199998 0.0277 0.82999998
-0.065899998 0.0277 0.83099997
-0.064400002 0.0277 0.83099997
-0.062899999 0.0277 0.82999998
-0.061500002 0.0277 0.82999998
-0.0601 0.0277 0.83099997
-0.058699999 0.027799999 0.83200002
-0.057300001 0.027799999 0.833
-0.056000002 0.027799999 0.83399999
-0.054699998 0.027899999 0.83600003
-0.053300001 0.027899999 0.83700001
-0.052000001 0.028000001 0.83999997
-0.0244 0.028100001 0.84299999
-0.023 0.028200001 0.84399998
-0.021500001 0.028100001 0.84299999
-0.02 0.028100001 0.84299999
-0.0186 0.028100001 0.84299999
-0.017100001 0.028100001 0.84299999
-0.0156 0.028100001 0.84100002
-0.0142 0.028100001 0.84200001
-0.0127 0.028100001 0.84200001
-0.0113 0.028100001 0.84200001
-0.0098000001 0.028100001 0.84200001
-0.0083999997 0.028100001 0.84200001
-0.0068999999 0.028100001 0.84100002
-0.0054000001 0.028100001 0.84100002
-0.0040000002 0.028100001 0.84100002
-0.0024999999 0.028000001 0.83999997
-0.0011 0.028100001 0.84100002
0.00039999999 0.028200001 0.84399998
0.0019 0.028200001 0.84500003
0.0033 0.028200001 0.84600002
0.0048000002 0.0283 0.847
0.0063 0.0283 0.847
0.0077999998 0.0283 0.84899998
0.0092000002 0.0284 0.85000002
-0.1033 0.0296 0.84299999
-0.1016 0.0295 0.84100002
-0.099799998 0.0294 0.838
-0.098399997 0.0294 0.838
-0.096699998 0.0294 0.83600003
-0.095100001 0.029300001 0.83499998
-0.093599997 0.029300001 0.83399999
-0.092 0.029200001 0.833
-0.090599999 0.029200001 0.833
-0.089100003 0.029200001 0.833
-0.087700002 0.029200001 0.833
-0.086099997 0.029200001 0.83200002
-0.084700003 0.029200001 0.83200002
-0.0832 0.029200001 0.83200002
-0.081799999 0.029200001 0.83200002
-0.080300003 0.029200001 0.83200002
-0.078900002 0.029200001 0.83200002
-0.077500001 0.029200001 0.83200002
-0.075999998 0.029200001 0.83200002
-0.074600004 0.029200001 0.83200002
-0.073100001 0.029200001 0.83200002
-0.071599998 0.029200001 0.83099997
-0.070100002 0.029100001 0.82999998
-0.068599999 0.029100001 0.82999998
-0.067199998 0.029100001 0.82999998
-0.065800004 0.029100001 0.82999998
-0.064300001 0.029100001 0.82999998
-0.062899999 0.029100001 0.82999998
-0.061500002 0.029100001 0.82999998
-0.0601 0.029200001 0.83099997
-0.058699999 0.029200001 0.83200002
-0.057300001 0.029200001 0.833
-0.056000002 0.029300001 0.83399999
-0.054699998 0.0294 0.83600003
-0.053300001 0.0294 0.83700001
-0.051899999 0.0295 0.83899999
-0.050500002 0.0295 0.83899999
-0.024499999 0.0296 0.84399998
-0.023 0.0296 0.84399998
-0.021500001 0.0296 0.84399998
-0.020099999 0.0296 0.84399998
-0.0186 0.0297 0.84500003
-0.017100001 0.0296 0.84399998
-0.015699999 0.0296 0.84299999
-0.0142 0.0296 0.84200001
-0.0127 0.0296 0.84200001
-0.0113 0.0295 0.84100002
-0.0098000001 0.0296 0.84200001
-0.0083999997 0.0296 0.84200001
-0.0068999999 0.0296 0.84200001
-0.0054000001 0.0296 0.84200001
-0.0040000002 0.0296 0.84200001
-0.0024999999 0.0296 0.84200001
-0.0011 0.0296 0.84299999
0.00039999999 0.0296 0.84399998
0.0019 0.0296 0.84399998
0.0033 0.0297 0.84500003
0.0048000002 0.0297 0.84600002
0.0063 0.0297 0.84600002
0.0077 0.0297 0.84600002
0.0092000002 0.0297 0.847
0.0107 0.0298 0.84799999
0.0122 0.0298 0.85000002
-0.36669999 0.032400001 0.87900001
-0.1031 0.030999999 0.84100002
-0.1013 0.0309 0.838
-0.099600002 0.0308 0.83600003
-0.098099999 0.0308 0.83600003
-0.096600004 0.0308 0.83499998
-0.094999999 0.0307 0.83399999
-0.093599997 0.0307 0.83399999
-0.092100002 0.0307 0.83399999
-0.090700001 0.0307 0.83399999
-0.089199997 0.0307 0.83399999
-0.087700002 0.0307 0.833
-0.086199999 0.0307 0.833
-0.084799998 0.0307 0.833
-0.0832 0.0307 0.83200002
-0.081799999 0.0307 0.83200002
-0.080300003 0.0307 0.83200002
-0.078900002 0.0307 0.83200002
-0.077600002 0.0307 0.833
-0.076099999 0.0307 0.833
-0.074699998 0.0307 0.833
-0.073200002 0.0307 0.833
-0.071699999 0.0307 0.83200002
-0.070200004 0.0306 0.83099997
-0.068700001 0.0306 0.83099997
-0.067199998 0.0306 0.82999998
-0.065800004 0.0306 0.82999998
-0.064300001 0.0306 0.82999998
-0.062899999 0.0306 0.82999998
-0.061500002 0.0306 0.82999998
-0.0601 0.0306 0.83099997
-0.058699999 0.0307 0.83200002
-0.057300001 0.0307 0.833
-0.056000002 0.0308 0.83499998
-0.054699998 0.0308 0.83700001
-0.053300001 0.0308 0.83700001
-0.051899999 0.0309 0.83899999
-0.050500002 0.0309 0.83899999
-0.048999999 0.0309 0.838
-0.031800002 0.031099999 0.84500003
-0.030300001 0.031099999 0.84500003
-0.025900001 0.031099999 0.84399998
-0.024499999 0.031099999 0.84399998
-0.023 0.031099999 0.84500003
-0.021600001 0.031099999 0.84500003
-0.020099999 0.031099999 0.84399998
-0.0186 0.031099999 0.84399998
-0.017100001 0.031099999 0.84299999
-0.0156 0.030999999 0.84100002
-0.0142 0.0309 0.83999997
-0.0127 0.0309 0.83999997
-0.0112 0.0309 0.83999997
-0.0098000001 0.0309 0.83999997
-0.0082999999 0.0309 0.83999997
-0.0068999999 0.030999999 0.84100002
-0.0054000001 0.030999999 0.84100002
-0.0040000002 0.030999999 0.84100002
-0.0024999999 0.030999999 0.84100002
-0.0011 0.030999999 0.84200001
0.00039999999 0.031099999 0.84299999
0.0019 0.031099999 0.84399998
0.0033 0.031099999 0.84500003
0.0048000002 0.031099999 0.84399998
0.0063 0.031099999 0.84399998
0.0077 0.031099999 0.84500003
0.0092000002 0.031099999 0.84500003
0.0107 0.031099999 0.84500003
0.0121 0.031099999 0.84500003
0.0136 0.031099999 0.84399998
0.015 0.031099999 0.84299999
0.0165 0.031099999 0.84399998
-0.36930001 0.0339 0.87800002
-0.1028 0.032400001 0.83899999
-0.1011 0.032299999 0.83700001
-0.099299997 0.032200001 0.83399999
-0.097900003 0.032200001 0.83399999
-0.0964 0.032200001 0.83399999
-0.094999999 0.032200001 0.83399999
-0.093599997 0.032200001 0.83399999
-0.092100002 0.032200001 0.83399999
-0.090700001 0.032200001 0.83399999
-0.089299999 0.032200001 0.83499998
-0.087800004 0.032200001 0.83399999
-0.086300001 0.032200001 0.83399999
-0.084799998 0.032099999 0.833
-0.083300002 0.032099999 0.833
-0.081799999 0.032099999 0.83200002
-0.080300003 0.032099999 0.83200002
-0.078900002 0.032099999 0.83200002
-0.077500001 0.032099999 0.83200002
-0.076099999 0.032099999 0.833
-0.074699998 0.032099999 0.833
-0.073200002 0.032099999 0.833
-0.071699999 0.032099999 0.83200002
-0.070200004 0.032099999 0.83099997
-0.068700001 0.032099999 0.83099997
-0.067299999 0.032099999 0.83099997
-0.065899998 0.032099999 0.83099997
-0.064400002 0.032099999 0.83099997
-0.062899999 0.032000002 0.82999998
-0.061500002 0.032000002 0.82999998
-0.0601 0.032099999 0.83099997
-0.058699999 0.032099999 0.83200002
-0.057300001 0.032099999 0.833
-0.056000002 0.032200001 0.83399999
-0.054699998 0.032200001 0.83600003
-0.053300001 0.032299999 0.83700001
-0.051899999 0.032299999 0.838
-0.050500002 0.032400001 0.83899999
-0.048999999 0.032299999 0.838
-0.047499999 0.032299999 0.83700001
-0.033300001 0.032600001 0.84500003
-0.031800002 0.032600001 0.84399998
-0.030300001 0.032600001 0.84399998
-0.0288 0.032600001 0.84399998
-0.0274 0.032499999 0.84299999
-0.025900001 0.032600001 0.84399998
-0.024499999 0.032600001 0.84399998
-0.023 0.032600001 0.84399998
-0.021500001 0.032600001 0.84399998
-0.02 0.032499999 0.84200001
-0.0185 0.032400001 0.84100002
-0.017100001 0.032400001 0.83999997
-0.0156 0.032400001 0.83899999
-0.0141 0.032299999 0.83700001
-0.0127 0.032299999 0.83700001
-0.0112 0.032299999 0.83700001
-0.0098000001 0.032299999 0.838
-0.0082999999 0.032400001 0.83899999
-0.0068999999 0.032400001 0.83899999
-0.0054000001 0.032400001 0.83899999
-0.0040000002 0.032400001 0.83899999
-0.0024999999 0.032400001 0.83999997
-0.0011 0.032400001 0.83999997
0.00039999999 0.032400001 0.84100002
0.0019 0.032499999 0.84299999
0.0033 0.032600001 0.84399998
0.0048000002 0.032600001 0.84399998
0.0063 0.032600001 0.84399998
0.0077 0.032600001 0.84500003
0.0092000002 0.032600001 0.84500003
0.0107 0.032600001 0.84500003
0.0121 0.032600001 0.84500003
0.0136 0.032499999 0.84299999
0.015 0.032499999 0.84299999
0.0165 0.032499999 0.84299999
0.017999999 0.032600001 0.84500003
-0.36739999 0.035399999 0.87699997
-0.104 0.0337 0.83700001
-0.1026 0.0337 0.83700001
-0.1008 0.033599999 0.83399999
-0.099200003 0.033599999 0.833
-0.097800002 0.033599999 0.833
-0.096299998 0.033599999 0.833
-0.094899997 0.033599999 0.833
-0.093599997 0.033599999 0.83399999
-0.092200004 0.0337 0.83499998
-0.090800002 0.0337 0.83499998
-0.089400001 0.0337 0.83600003
-0.088 0.0337 0.83600003
-0.086400002 0.0337 0.83499998
-0.084899999 0.033599999 0.83399999
-0.083300002 0.033599999 0.833
-0.081799999 0.033500001 0.83200002
-0.080300003 0.033500001 0.83200002
-0.078900002 0.033500001 0.83200002
-0.077500001 0.033500001 0.83200002
