ply
format ascii 1.0
comment PCL generated
element vertex 1679
property float x
property float y
property float z
element camera 0
property float view_px
property float view_py
property float view_pz
property float x_axisx
property float x_axisy
property float x_axisz
property float y_axisx
property float y_axisy
property float y_axisz
property float z_axisx
property float z_axisy
property float z_axisz
property float focal
property float scalex
property float scaley
property float centerx
property float centery
property int viewportx
property int viewporty
property float k1
property float k2
end_header
-0.071699999 0.2325 0.90499997
-0.070100002 0.2325 0.90499997
-0.068499997 0.2323 0.90399998
-0.0669 0.2323 0.90399998
-0.065399997 0.2323 0.90399998
-0.063699998 0.23199999 0.903
-0.062199999 0.23199999 0.903
-0.060600001 0.23199999 0.903
-0.059 0.23199999 0.903
-0.054400001 0.2323 0.90399998
-0.0528 0.2323 0.90399998
-0.049600001 0.23199999 0.903
-0.046500001 0.23199999 0.903
-0.045000002 0.2323 0.90399998
-0.041900001 0.2323 0.90399998
-0.040199999 0.2318 0.90200001
-0.038600001 0.2318 0.90200001
-0.037 0.2313 0.89999998
-0.035399999 0.2307 0.898
-0.0337 0.23 0.89499998
-0.032099999 0.2297 0.89399999
-0.028999999 0.2297 0.89399999
-0.025900001 0.23 0.89499998
-0.0244 0.23 0.89499998
-0.0229 0.2305 0.89700001
-0.021400001 0.2307 0.898
-0.0198 0.2313 0.89999998
-0.018300001 0.2315 0.90100002
-0.0167 0.2315 0.90100002
-0.0152 0.2318 0.90200001
-0.0137 0.23199999 0.903
-0.0121 0.2323 0.90399998
-0.0105 0.2325 0.90499997
0.0082999999 0.2331 0.90700001
0.0098999999 0.2333 0.90799999
0.0114 0.2331 0.90700001
0.0208 0.23199999 0.903
0.022299999 0.2318 0.90200001
0.0254 0.2313 0.89999998
0.026900001 0.2313 0.89999998
0.0285 0.2315 0.90100002
0.030099999 0.2315 0.90100002
0.031800002 0.2323 0.90399998
0.033399999 0.2325 0.90499997
0.034899998 0.2325 0.90499997
0.036600001 0.23280001 0.90600002
0.038199998 0.2331 0.90700001
0.039700001 0.2331 0.90700001
0.041299999 0.2331 0.90700001
0.042800002 0.23280001 0.90600002
0.044399999 0.2325 0.90499997
0.046 0.23280001 0.90600002
0.047600001 0.2331 0.90700001
0.0491 0.23280001 0.90600002
0.050700001 0.2331 0.90700001
0.052299999 0.2331 0.90700001
0.0539 0.2331 0.90700001
0.055500001 0.2331 0.90700001
0.057 0.23280001 0.90600002
0.058499999 0.2325 0.90499997
0.059999999 0.2325 0.90499997
0.061500002 0.2323 0.90399998
0.063100003 0.2323 0.90399998
0.066299997 0.2325 0.90499997
0.0678 0.2323 0.90399998
0.069399998 0.2325 0.90499997
0.071000002 0.2325 0.90499997
0.074199997 0.2325 0.90499997
0.077299997 0.2325 0.90499997
0.078900002 0.23280001 0.90600002
0.080399998 0.2325 0.90499997
0.086999997 0.2333 0.90799999
0.096100003 0.2325 0.90499997
0.099200003 0.2325 0.90499997
0.1009 0.23280001 0.90600002
0.1025 0.23280001 0.90600002
0.1042 0.2331 0.90700001
0.1059 0.2333 0.90799999
0.1074 0.2333 0.90799999
0.109 0.2333 0.90799999
0.1105 0.2331 0.90700001
0.1119 0.23280001 0.90600002
0.1134 0.2325 0.90499997
0.1147 0.23199999 0.903
0.1175 0.2315 0.90100002
0.1192 0.2318 0.90200001
0.1209 0.23199999 0.903
0.1225 0.23199999 0.903
0.1242 0.2323 0.90399998
0.1259 0.2325 0.90499997
0.1275 0.2325 0.90499997
0.1311 0.2333 0.90799999
0.13259999 0.2333 0.90799999
0.13609999 0.23379999 0.91000003
0.13779999 0.2341 0.91100001
0.1397 0.23459999 0.91299999
0.1411 0.2343 0.912
0.1427 0.2343 0.912
0.1443 0.2343 0.912
0.1468 0.2333 0.90799999
0.154 0.23 0.89499998
0.15539999 0.2297 0.89399999
0.1573 0.23019999 0.89600003
0.15970001 0.2315 0.90100002
0.1618 0.2323 0.90399998
0.1639 0.2331 0.90700001
0.1657 0.2333 0.90799999
0.1672 0.2333 0.90799999
0.1688 0.2333 0.90799999
0.17020001 0.2331 0.90700001
0.1733 0.2331 0.90700001
0.1749 0.2331 0.90700001
0.17649999 0.2331 0.90700001
0.17829999 0.2333 0.90799999
0.1802 0.23379999 0.91000003
-0.38119999 0.2297 0.88800001
-0.37970001 0.2297 0.88800001
-0.35589999 0.23019999 0.88999999
-0.3443 0.2297 0.88800001
-0.34279999 0.2297 0.88800001
-0.34079999 0.2295 0.88700002
-0.33739999 0.22920001 0.88599998
-0.33590001 0.22920001 0.88599998
-0.33090001 0.2289 0.88499999
-0.3301 0.2295 0.88700002
-0.3274 0.2297 0.88800001
-0.3258 0.2297 0.88800001
-0.32429999 0.2297 0.88800001
-0.32280001 0.2297 0.88800001
-0.32089999 0.2295 0.88700002
-0.3193 0.2295 0.88700002
-0.31740001 0.22920001 0.88599998
-0.31119999 0.23019999 0.88999999
-0.3114 0.2315 0.89499998
-0.31 0.23280001 0.89999998
-0.30880001 0.2331 0.90100002
-0.30689999 0.23280001 0.89999998
-0.30250001 0.2331 0.90100002
-0.30059999 0.23280001 0.89999998
-0.29910001 0.23280001 0.89999998
-0.29629999 0.2331 0.90100002
-0.29499999 0.2333 0.90200001
-0.29280001 0.23280001 0.89999998
-0.2493 0.2315 0.89499998
-0.248 0.2318 0.89600003
-0.24699999 0.2323 0.898
-0.24519999 0.23199999 0.89700001
-0.2439 0.2323 0.898
-0.23800001 0.2341 0.90499997
-0.23540001 0.23459999 0.90700001
-0.2335 0.2344 0.90600002
-0.23199999 0.2344 0.90600002
-0.23010001 0.2341 0.90499997
-0.22830001 0.23379999 0.90399998
-0.22669999 0.23379999 0.90399998
-0.2252 0.23379999 0.90399998
-0.2236 0.23379999 0.90399998
-0.222 0.23379999 0.90399998
-0.2207 0.2341 0.90499997
-0.2192 0.2341 0.90499997
-0.214 0.23360001 0.903
-0.2101 0.23280001 0.89999998
-0.2061 0.2318 0.89600003
-0.2045 0.2318 0.89600003
-0.20370001 0.2326 0.89899999
-0.2026 0.2331 0.90100002
-0.20100001 0.2331 0.90100002
-0.193 0.23280001 0.89999998
-0.191 0.2323 0.898
-0.1892 0.23199999 0.89700001
-0.1875 0.2318 0.89600003
-0.1859 0.2318 0.89600003
-0.1842 0.2315 0.89499998
-0.1824 0.2313 0.89399999
-0.1806 0.23100001 0.89300001
-0.17910001 0.23100001 0.89300001
-0.178 0.2315 0.89499998
-0.1754 0.2323 0.898
-0.1741 0.2326 0.89899999
-0.17290001 0.2331 0.90100002
-0.17129999 0.2331 0.90100002
-0.1698 0.2331 0.90100002
-0.168 0.23280001 0.89999998
-0.1663 0.2326 0.89899999
-0.1645 0.2323 0.898
-0.163 0.2323 0.898
-0.1564 0.2318 0.89600003
-0.148 0.2307 0.89200002
-0.1468 0.2313 0.89399999
-0.1464 0.2331 0.90100002
-0.1453 0.23379999 0.90399998
-0.14390001 0.2341 0.90499997
-0.1392 0.2341 0.90499997
-0.1371 0.2333 0.90200001
-0.1353 0.23280001 0.89999998
-0.1337 0.23280001 0.89999998
-0.1322 0.23280001 0.89999998
-0.13070001 0.2331 0.90100002
-0.1293 0.2333 0.90200001
-0.1278 0.2333 0.90200001
-0.1265 0.23379999 0.90399998
-0.1252 0.2344 0.90600002
-0.122 0.2344 0.90600002
-0.1203 0.2341 0.90499997
-0.1186 0.23379999 0.90399998
-0.1172 0.2341 0.90499997
-0.1155 0.23379999 0.90399998
-0.1138 0.23360001 0.903
-0.1122 0.23360001 0.903
-0.1106 0.2333 0.90200001
-0.109 0.2333 0.90200001
-0.1072 0.23280001 0.89999998
-0.1056 0.23280001 0.89999998
-0.1041 0.23280001 0.89999998
-0.1023 0.2323 0.898
-0.1007 0.2323 0.898
-0.099100001 0.23199999 0.89700001
-0.097599998 0.2323 0.898
-0.096199997 0.2326 0.89899999
-0.094499998 0.2323 0.898
-0.092900001 0.2323 0.898
-0.091499999 0.2326 0.89899999
-0.0898 0.2323 0.898
-0.088299997 0.2323 0.898
-0.086499996 0.2318 0.89600003
-0.083499998 0.23199999 0.89700001
-0.082099997 0.2323 0.898
-0.078900002 0.2323 0.898
-0.077500001 0.2326 0.89899999
-0.075900003 0.2326 0.89899999
-0.0744 0.23280001 0.89999998
-0.072999999 0.2331 0.90100002
-0.071599998 0.23379999 0.90399998
-0.07 0.23360001 0.903
-0.068400003 0.23360001 0.903
-0.066799998 0.2333 0.90200001
-0.065300003 0.23360001 0.903
-0.063699998 0.23360001 0.903
-0.062199999 0.23360001 0.903
-0.060600001 0.23360001 0.903
-0.059099998 0.23379999 0.90399998
-0.057599999 0.2341 0.90499997
-0.056200001 0.23459999 0.90700001
-0.052999999 0.2344 0.90600002
-0.046599999 0.23379999 0.90399998
-0.045000002 0.23379999 0.90399998
-0.0418 0.23360001 0.903
-0.040199999 0.2333 0.90200001
-0.038600001 0.2331 0.90100002
-0.037 0.23280001 0.89999998
-0.035300002 0.2318 0.89600003
-0.0337 0.2313 0.89399999
-0.032099999 0.23100001 0.89300001
-0.0305 0.23100001 0.89300001
-0.028999999 0.23100001 0.89300001
-0.0274 0.23100001 0.89300001
-0.025900001 0.2315 0.89499998
-0.0244 0.2315 0.89499998
-0.0229 0.2318 0.89600003
-0.021299999 0.23199999 0.89700001
-0.0198 0.2326 0.89899999
-0.018300001 0.23280001 0.89999998
-0.0167 0.23280001 0.89999998
-0.0152 0.2331 0.90100002
-0.0136 0.2333 0.90200001
-0.0121 0.23360001 0.903
-0.0105 0.23379999 0.90399998
-0.0089999996 0.2341 0.90499997
-0.0074 0.2341 0.90499997
-0.0057999999 0.2344 0.90600002
0.00039999999 0.23459999 0.90700001
0.0114 0.2341 0.90499997
0.013 0.2341 0.90499997
0.0146 0.2341 0.90499997
0.016100001 0.2341 0.90499997
0.0177 0.2341 0.90499997
0.0208 0.23360001 0.903
0.022299999 0.23360001 0.903
0.0255 0.23360001 0.903
0.027000001 0.2331 0.90100002
0.0286 0.23360001 0.903
0.030200001 0.23360001 0.903
0.031800002 0.2341 0.90499997
0.033399999 0.2341 0.90499997
0.034899998 0.2341 0.90499997
0.036499999 0.2341 0.90499997
0.0381 0.2341 0.90499997
0.0396 0.2341 0.90499997
0.041200001 0.2341 0.90499997
0.0427 0.23379999 0.90399998
0.044300001 0.23360001 0.903
0.045899998 0.23379999 0.90399998
0.047499999 0.2341 0.90499997
0.0491 0.2341 0.90499997
0.050700001 0.2344 0.90600002
0.052299999 0.2344 0.90600002
0.0539 0.23459999 0.90700001
0.055500001 0.23459999 0.90700001
0.057 0.2344 0.90600002
0.058499999 0.2341 0.90499997
0.0601 0.2344 0.90600002
0.0616 0.2341 0.90499997
0.063199997 0.2341 0.90499997
0.0647 0.2341 0.90499997
0.066299997 0.2341 0.90499997
0.069499999 0.2344 0.90600002
0.072700001 0.23459999 0.90700001
0.074199997 0.2344 0.90600002
0.0757 0.2341 0.90499997
0.077299997 0.2341 0.90499997
0.078900002 0.2344 0.90600002
0.080399998 0.2341 0.90499997
0.082099997 0.2344 0.90600002
0.1026 0.23459999 0.90700001
0.1043 0.2349 0.90799999
0.1059 0.2349 0.90799999
0.1074 0.2349 0.90799999
0.1089 0.23459999 0.90700001
0.1105 0.23459999 0.90700001
0.1119 0.2344 0.90600002
0.1134 0.2341 0.90499997
0.1194 0.23360001 0.903
0.1209 0.23360001 0.903
0.1226 0.23379999 0.90399998
0.1243 0.2341 0.90499997
0.1259 0.2341 0.90499997
0.1278 0.23459999 0.90700001
0.1295 0.2349 0.90799999
0.13609999 0.23540001 0.91000003
0.1376 0.23540001 0.91000003
0.13950001 0.2359 0.912
0.1408 0.23540001 0.91000003
0.1424 0.23540001 0.91000003
0.14399999 0.23540001 0.91000003
0.1454 0.2351 0.90899998
0.1468 0.2349 0.90799999
0.15279999 0.23199999 0.89700001
0.1557 0.2318 0.89600003
0.1578 0.2326 0.89899999
0.1601 0.23360001 0.903
0.162 0.2341 0.90499997
0.16410001 0.2349 0.90799999
0.16590001 0.2351 0.90899998
0.1672 0.2349 0.90799999
0.1688 0.2349 0.90799999
0.17039999 0.2349 0.90799999
0.17200001 0.2349 0.90799999
0.1735 0.2349 0.90799999
0.1751 0.2349 0.90799999
0.17649999 0.23459999 0.90700001
0.17829999 0.2349 0.90799999
0.1802 0.23540001 0.91000003
0.1822 0.2359 0.912
-0.3594 0.23199999 0.89099997
-0.35589999 0.2318 0.88999999
-0.3459 0.23119999 0.88800001
-0.34240001 0.23100001 0.88700002
-0.3405 0.2307 0.88599998
-0.3355 0.2305 0.88499999
-0.32429999 0.23119999 0.88800001
-0.32280001 0.23119999 0.88800001
-0.3193 0.23100001 0.88700002
-0.31220001 0.2326 0.89300001
-0.31200001 0.23360001 0.89700001
-0.31150001 0.2344 0.89999998
-0.30880001 0.23459999 0.90100002
-0.30720001 0.23459999 0.90100002
-0.30410001 0.23459999 0.90100002
-0.30059999 0.2344 0.89999998
-0.2987 0.2341 0.89899999
-0.29589999 0.2344 0.89999998
-0.2922 0.2339 0.898
-0.2906 0.2339 0.898
-0.2897 0.2344 0.89999998
-0.28909999 0.2352 0.903
-0.24869999 0.2326 0.89300001
-0.24779999 0.2331 0.89499998
-0.2465 0.2333 0.89600003
-0.2449 0.2333 0.89600003
-0.2439 0.2339 0.898
-0.2413 0.2344 0.89999998
-0.2387 0.2349 0.90200001
-0.23720001 0.2349 0.90200001
-0.23559999 0.2349 0.90200001
-0.23379999 0.23459999 0.90100002
-0.23199999 0.2344 0.89999998
-0.2304 0.2344 0.89999998
-0.2286 0.2341 0.89899999
-0.22679999 0.2339 0.898
-0.22570001 0.2344 0.89999998
-0.2244 0.23459999 0.90100002
-0.2229 0.23459999 0.90100002
-0.2216 0.2349 0.90200001
-0.22050001 0.23540001 0.90399998
-0.2192 0.2357 0.90499997
-0.21600001 0.2357 0.90499997
-0.2124 0.2352 0.903
-0.2106 0.2349 0.90200001
-0.2086 0.2344 0.89999998
-0.207 0.2344 0.89999998
-0.2052 0.2341 0.89899999
-0.2041 0.23459999 0.90100002
-0.20280001 0.2349 0.90200001
-0.20119999 0.2349 0.90200001
-0.1997 0.2349 0.90200001
-0.1963 0.23459999 0.90100002
-0.1948 0.23459999 0.90100002
-0.193 0.2344 0.89999998
-0.1894 0.2339 0.898
-0.1875 0.2333 0.89600003
-0.1857 0.2331 0.89499998
-0.1842 0.2331 0.89499998
-0.1822 0.2326 0.89300001
-0.1806 0.2326 0.89300001
-0.1793 0.23280001 0.89399999
-0.178 0.2331 0.89499998
-0.177 0.2339 0.898
-0.17560001 0.2341 0.89899999
-0.1743 0.2344 0.89999998
-0.17290001 0.23459999 0.90100002
-0.17129999 0.23459999 0.90100002
-0.1698 0.23459999 0.90100002
-0.168 0.2344 0.89999998
-0.1661 0.2339 0.898
-0.1645 0.2339 0.898
-0.163 0.2339 0.898
-0.1583 0.2339 0.898
-0.1564 0.2333 0.89600003
-0.1531 0.2331 0.89499998
-0.1512 0.2326 0.89300001
-0.1494 0.23199999 0.89099997
-0.1478 0.23199999 0.89099997
-0.14659999 0.2326 0.89300001
-0.146 0.2341 0.89899999
-0.1451 0.2352 0.903
-0.14390001 0.2357 0.90499997
-0.14210001 0.23540001 0.90399998
-0.1407 0.2357 0.90499997
-0.1354 0.23459999 0.90100002
-0.1337 0.2344 0.89999998
-0.13070001 0.23459999 0.90100002
-0.1293 0.2349 0.90200001
-0.1266 0.2357 0.90499997
-0.1252 0.2359 0.90600002
-0.1236 0.2359 0.90600002
-0.1222 0.2362 0.90700001
-0.1203 0.2357 0.90499997
-0.1188 0.2357 0.90499997
-0.1171 0.23540001 0.90399998
-0.1154 0.2352 0.903
-0.1137 0.2349 0.90200001
-0.1121 0.2349 0.90200001
-0.1104 0.23459999 0.90100002
-0.1089 0.23459999 0.90100002
-0.1072 0.2344 0.89999998
-0.1055 0.2341 0.89899999
-0.104 0.2341 0.89899999
-0.1023 0.2339 0.898
-0.1006 0.23360001 0.89700001
-0.098999999 0.2333 0.89600003
-0.097400002 0.2333 0.89600003
-0.096000001 0.23360001 0.89700001
-0.094400004 0.23360001 0.89700001
-0.092900001 0.2339 0.898
-0.091399997 0.2339 0.898
-0.0898 0.2339 0.898
-0.088299997 0.2339 0.898
-0.086599998 0.23360001 0.89700001
-0.085100003 0.23360001 0.89700001
-0.083499998 0.23360001 0.89700001
-0.080499999 0.2339 0.898
-0.078900002 0.2339 0.898
-0.077399999 0.2339 0.898
-0.075800002 0.2339 0.898
-0.074299999 0.2339 0.898
-0.072899997 0.2344 0.89999998
-0.071500003 0.2349 0.90200001
-0.07 0.2352 0.903
-0.068400003 0.2352 0.903
-0.066799998 0.2349 0.90200001
-0.065300003 0.2352 0.903
-0.063699998 0.2352 0.903
-0.062199999 0.2352 0.903
-0.060600001 0.2352 0.903
-0.059099998 0.23540001 0.90399998
-0.057599999 0.2357 0.90499997
-0.0561 0.2359 0.90600002
-0.052900001 0.2357 0.90499997
-0.051399998 0.2359 0.90600002
-0.048099998 0.2352 0.903
-0.046500001 0.2352 0.903
-0.045000002 0.2352 0.903
-0.043400001 0.2352 0.903
-0.0418 0.2352 0.903
-0.040199999 0.2349 0.90200001
-0.038600001 0.23459999 0.90100002
-0.037 0.2344 0.89999998
-0.035399999 0.2339 0.898
-0.0337 0.2333 0.89600003
-0.032099999 0.2331 0.89499998
-0.0306 0.23280001 0.89399999
-0.028999999 0.23280001 0.89399999
-0.0274 0.2326 0.89300001
-0.025900001 0.2331 0.89499998
-0.0243 0.2326 0.89300001
-0.0228 0.2331 0.89499998
-0.021299999 0.2331 0.89499998
-0.0198 0.23360001 0.89700001
-0.018200001 0.2339 0.898
-0.0167 0.2339 0.898
-0.0151 0.2339 0.898
-0.0121 0.2349 0.90200001
-0.0105 0.2352 0.903
-0.0089999996 0.23540001 0.90399998
-0.0011 0.2362 0.90700001
0.00039999999 0.2362 0.90700001
0.0020000001 0.2357 0.90499997
0.0082999999 0.2357 0.90499997
0.0098000001 0.2357 0.90499997
0.0114 0.2357 0.90499997
0.013 0.2357 0.90499997
0.0146 0.2357 0.90499997
0.016100001 0.2357 0.90499997
0.0177 0.2357 0.90499997
0.019300001 0.2357 0.90499997
0.0208 0.23540001 0.90399998
0.022399999 0.23540001 0.90399998
0.0239 0.2352 0.903
0.0254 0.2349 0.90200001
0.027000001 0.23459999 0.90100002
0.0286 0.2349 0.90200001
0.030099999 0.2349 0.90200001
0.033399999 0.2357 0.90499997
0.034899998 0.23540001 0.90399998
0.036499999 0.23540001 0.90399998
0.037999999 0.23540001 0.90399998
0.0396 0.23540001 0.90399998
0.041200001 0.2357 0.90499997
0.0427 0.2352 0.903
0.044300001 0.2352 0.903
0.045899998 0.2357 0.90499997
0.047499999 0.2359 0.90600002
0.0491 0.2359 0.90600002
0.050700001 0.2362 0.90700001
0.052299999 0.2362 0.90700001
0.0539 0.2362 0.90700001
0.055500001 0.2362 0.90700001
0.057 0.2362 0.90700001
0.058499999 0.2357 0.90499997
0.059999999 0.2357 0.90499997
0.0616 0.2357 0.90499997
0.063199997 0.2357 0.90499997
0.064800002 0.2359 0.90600002
0.069600001 0.2362 0.90700001
0.071199998 0.2362 0.90700001
0.072700001 0.2362 0.90700001
0.074199997 0.2359 0.90600002
0.0757 0.2357 0.90499997
0.077299997 0.2357 0.90499997
0.078900002 0.2357 0.90499997
0.080300003 0.23540001 0.90399998
0.081900001 0.23540001 0.90399998
0.083499998 0.23540001 0.90399998
0.101 0.2362 0.90700001
0.1027 0.23649999 0.90799999
0.1043 0.23649999 0.90799999
0.106 0.2367 0.90899998
0.1074 0.23649999 0.90799999
0.1089 0.2362 0.90700001
0.1105 0.2362 0.90700001
0.1119 0.2359 0.90600002
0.1194 0.2352 0.903
0.1211 0.23540001 0.90399998
0.1226 0.23540001 0.90399998
0.1243 0.2357 0.90499997
0.1259 0.2357 0.90499997
0.1278 0.2362 0.90700001
0.1295 0.23649999 0.90799999
0.1312 0.2367 0.90899998
0.1358 0.23649999 0.90799999
0.1373 0.23649999 0.90799999
0.1388 0.2362 0.90700001
0.14030001 0.2362 0.90700001
0.1419 0.2362 0.90700001
0.1436 0.23649999 0.90799999
0.1452 0.23649999 0.90799999
0.14659999 0.2362 0.90700001
0.15189999 0.23459999 0.90100002
0.15350001 0.23459999 0.90100002
0.1566 0.23459999 0.90100002
0.1585 0.2352 0.903
0.1604 0.2357 0.90499997
0.16230001 0.2362 0.90700001
0.16429999 0.2367 0.90899998
0.1662 0.23720001 0.91100001
0.16779999 0.23720001 0.91100001
0.1692 0.237 0.91000003
0.1708 0.237 0.91000003
0.1723 0.237 0.91000003
0.1737 0.2367 0.90899998
0.1753 0.2367 0.90899998
0.1767 0.23649999 0.90799999
0.1787 0.237 0.91000003
0.1806 0.2375 0.912
0.18260001 0.23800001 0.91399997
-0.4131 0.2325 0.88700002
-0.38119999 0.23280001 0.88800001
-0.35980001 0.23379999 0.89200002
-0.34549999 0.2325 0.88700002
-0.34200001 0.2323 0.88599998
-0.3405 0.2323 0.88599998
-0.33700001 0.23199999 0.88499999
-0.33590001 0.2323 0.88599998
-0.32890001 0.23280001 0.88800001
-0.3247 0.233 0.889
-0.3231 0.233 0.889
-0.32120001 0.23280001 0.88800001
-0.31400001 0.23199999 0.88499999
-0.31279999 0.2323 0.88599998
-0.3116 0.2325 0.88700002
-0.31220001 0.2341 0.89300001
-0.31240001 0.23540001 0.898
-0.30840001 0.2359 0.89999998
-0.3044 0.23649999 0.90200001
-0.29179999 0.2351 0.89700001
-0.29030001 0.2351 0.89700001
-0.289 0.23540001 0.898
-0.28780001 0.2357 0.89899999
-0.2647 0.2304 0.87900001
-0.2631 0.2304 0.87900001
-0.2493 0.2317 0.884
-0.2489 0.23280001 0.88800001
-0.24869999 0.2341 0.89300001
-0.248 0.2349 0.89600003
-0.24699999 0.23540001 0.898
-0.24600001 0.2359 0.89999998
-0.2432 0.2362 0.90100002
-0.23899999 0.2367 0.903
-0.2374 0.2367 0.903
-0.23540001 0.2362 0.90100002
-0.23379999 0.2362 0.90100002
-0.2315 0.23540001 0.898
-0.2297 0.2351 0.89700001
-0.2278 0.2349 0.89600003
-0.2263 0.2349 0.89600003
-0.2247 0.2349 0.89600003
-0.2237 0.23540001 0.898
-0.2221 0.23540001 0.898
-0.2208 0.2357 0.89899999
-0.21950001 0.2359 0.89999998
-0.2182 0.2362 0.90100002
-0.21349999 0.2362 0.90100002
-0.21170001 0.2359 0.89999998
-0.20810001 0.23540001 0.898
-0.2066 0.23540001 0.898
-0.205 0.23540001 0.898
-0.2034 0.23540001 0.898
-0.2026 0.2362 0.90100002
-0.20100001 0.2362 0.90100002
-0.1997 0.23649999 0.90200001
-0.1983 0.2367 0.903
-0.1963 0.2362 0.90100002
-0.1948 0.2362 0.90100002
-0.19140001 0.2359 0.89999998
-0.18970001 0.2357 0.89899999
-0.18790001 0.23540001 0.898
-0.18610001 0.2351 0.89700001
-0.18440001 0.2349 0.89600003
-0.18260001 0.23459999 0.89499998
-0.1811 0.23459999 0.89499998
-0.1797 0.2349 0.89600003
-0.1785 0.23540001 0.898
-0.17739999 0.2359 0.89999998
-0.176 0.2362 0.90100002
-0.1743 0.2359 0.89999998
-0.17290001 0.2362 0.90100002
-0.17129999 0.2362 0.90100002
-0.1698 0.2362 0.90100002
-0.16779999 0.2357 0.89899999
-0.1661 0.23540001 0.898
-0.1644 0.2351 0.89700001
-0.1612 0.2351 0.89700001
-0.1583 0.23540001 0.898
-0.1533 0.2349 0.89600003
-0.1516 0.23459999 0.89499998
-0.1495 0.23379999 0.89200002
-0.148 0.23379999 0.89200002
-0.1469 0.23459999 0.89499998
-0.14650001 0.23649999 0.90200001
-0.14560001 0.2375 0.90600002
-0.14399999 0.2375 0.90600002
-0.1425 0.2375 0.90600002
-0.141 0.2378 0.90700001
-0.1393 0.2375 0.90600002
-0.1323 0.2362 0.90100002
-0.13070001 0.2362 0.90100002
-0.1293 0.23649999 0.90200001
-0.1279 0.2367 0.903
-0.12530001 0.2378 0.90700001
-0.1236 0.2375 0.90600002
-0.1222 0.2378 0.90700001
-0.1203 0.23720001 0.90499997
-0.1188 0.23720001 0.90499997
-0.1171 0.237 0.90399998
-0.1154 0.2367 0.903
-0.1138 0.2367 0.903
-0.1121 0.23649999 0.90200001
-0.1104 0.2362 0.90100002
-0.1089 0.2362 0.90100002
-0.1072 0.2359 0.89999998
-0.1056 0.2359 0.89999998
-0.104 0.2357 0.89899999
-0.1023 0.23540001 0.898
-0.1005 0.2349 0.89600003
-0.098800004 0.23459999 0.89499998
-0.0973 0.23459999 0.89499998
-0.095700003 0.23459999 0.89499998
-0.0942 0.23459999 0.89499998
-0.092600003 0.23459999 0.89499998
-0.091200002 0.2349 0.89600003
-0.089599997 0.2349 0.89600003
-0.088100001 0.2349 0.89600003
-0.086499996 0.2349 0.89600003
-0.085000001 0.2349 0.89600003
-0.083400004 0.2349 0.89600003
-0.082000002 0.2351 0.89700001
-0.080300003 0.2349 0.89600003
-0.0788 0.2349 0.89600003
-0.077200003 0.2349 0.89600003
-0.0757 0.2351 0.89700001
-0.074299999 0.23540001 0.898
-0.072899997 0.2359 0.89999998
-0.071599998 0.2367 0.903
-0.070100002 0.23720001 0.90499997
-0.068599999 0.23720001 0.90499997
-0.0669 0.237 0.90399998
-0.065399997 0.237 0.90399998
-0.062199999 0.237 0.90399998
-0.060699999 0.237 0.90399998
-0.0592 0.23720001 0.90499997
-0.057599999 0.23720001 0.90499997
-0.056200001 0.2378 0.90700001
-0.054499999 0.23720001 0.90499997
-0.052900001 0.23720001 0.90499997
-0.051199999 0.2367 0.903
-0.0495 0.2362 0.90100002
-0.046399999 0.2362 0.90100002
-0.0449 0.2362 0.90100002
-0.043299999 0.2362 0.90100002
-0.041700002 0.2362 0.90100002
-0.040199999 0.2362 0.90100002
-0.038600001 0.2359 0.89999998
-0.035300002 0.2351 0.89700001
-0.028899999 0.23379999 0.89200002
-0.0274 0.23379999 0.89200002
-0.025900001 0.2341 0.89300001
-0.0243 0.23379999 0.89200002
-0.022700001 0.23360001 0.89099997
-0.021199999 0.23379999 0.89200002
-0.0197 0.2341 0.89300001
-0.018200001 0.23459999 0.89499998
-0.0166 0.2344 0.89399999
-0.0135 0.23459999 0.89499998
-0.012 0.2357 0.89899999
-0.0105 0.23649999 0.90200001
-0.0089999996 0.2367 0.903
-0.0074 0.237 0.90399998
-0.0057999999 0.23720001 0.90499997
-0.0043000001 0.23800001 0.90799999
-0.0027000001 0.23800001 0.90799999
-0.0011 0.2378 0.90700001
0.00039999999 0.2378 0.90700001
0.0020000001 0.23720001 0.90499997
0.0035999999 0.2375 0.90600002
0.0051000002 0.2375 0.90600002
0.0066999998 0.23720001 0.90499997
0.0082999999 0.237 0.90399998
0.013 0.23720001 0.90499997
0.0146 0.23720001 0.90499997
0.016100001 0.23720001 0.90499997
0.019300001 0.23720001 0.90499997
0.0208 0.237 0.90399998
0.022399999 0.237 0.90399998
0.0254 0.23649999 0.90200001
0.027000001 0.2362 0.90100002
0.0285 0.2362 0.90100002
0.030099999 0.2362 0.90100002
0.0317 0.2367 0.903
0.033300001 0.23649999 0.90200001
0.034899998 0.2367 0.903
0.036400001 0.2367 0.903
0.037999999 0.2367 0.903
0.0396 0.2367 0.903
0.041099999 0.2367 0.903
0.042599998 0.23649999 0.90200001
0.044300001 0.2367 0.903
0.0458 0.2367 0.903
0.047499999 0.23720001 0.90499997
0.0491 0.23720001 0.90499997
0.050700001 0.2375 0.90600002
0.052299999 0.2378 0.90700001
0.0539 0.2378 0.90700001
0.055500001 0.2378 0.90700001
0.057 0.2378 0.90700001
0.058499999 0.2375 0.90600002
0.059999999 0.23720001 0.90499997
0.0616 0.23720001 0.90499997
0.063100003 0.237 0.90399998
0.0647 0.23720001 0.90499997
0.066399999 0.2375 0.90600002
0.069499999 0.2375 0.90600002
0.071199998 0.2378 0.90700001
0.072700001 0.2378 0.90700001
0.074199997 0.2375 0.90600002
0.0757 0.23720001 0.90499997
0.077100001 0.2367 0.903
0.078699999 0.2367 0.903
0.081900001 0.237 0.90399998
0.088500001 0.2378 0.90700001
0.090000004 0.2378 0.90700001
0.094400004 0.237 0.90399998
0.0995 0.2378 0.90700001
0.1012 0.23800001 0.90799999
0.1027 0.23800001 0.90799999
0.1043 0.23800001 0.90799999
0.1059 0.23800001 0.90799999
0.1074 0.23800001 0.90799999
0.1089 0.2378 0.90700001
0.1105 0.2378 0.90700001
0.1178 0.2367 0.903
0.1194 0.2367 0.903
0.1211 0.237 0.90399998
0.1226 0.237 0.90399998
0.1243 0.23720001 0.90499997
0.1261 0.2375 0.90600002
0.1279 0.23800001 0.90799999
0.1295 0.23800001 0.90799999
0.1312 0.2383 0.90899998
0.1356 0.2378 0.90700001
0.13699999 0.2375 0.90600002
0.13850001 0.23720001 0.90499997
0.14 0.23720001 0.90499997
0.1416 0.23720001 0.90499997
0.1433 0.2375 0.90600002
0.1451 0.2378 0.90700001
0.14659999 0.2378 0.90700001
0.14820001 0.2378 0.90700001
0.1538 0.2367 0.903
0.1569 0.2367 0.903
0.1587 0.237 0.90399998
0.16060001 0.2375 0.90600002
0.16230001 0.2378 0.90700001
0.1645 0.2386 0.91000003
0.1664 0.23909999 0.912
0.168 0.23909999 0.912
0.17110001 0.23909999 0.912
0.1727 0.23909999 0.912
0.1741 0.2388 0.91100001
0.17569999 0.2388 0.91100001
0.1769 0.2383 0.90899998
0.17919999 0.2393 0.91299999
0.1814 0.2401 0.91600001
-0.4152 0.2335 0.88499999
-0.41319999 0.2333 0.884
-0.4131 0.2341 0.88700002
-0.4111 0.23379999 0.88599998
-0.38999999 0.2341 0.88700002
-0.3698 0.23199999 0.87900001
-0.3389 0.23379999 0.88599998
-0.32890001 0.2343 0.88800001
-0.32780001 0.23459999 0.889
-0.32620001 0.23459999 0.889
-0.32280001 0.2343 0.88800001
-0.32120001 0.2343 0.88800001
-0.31779999 0.2341 0.88700002
-0.3159 0.23379999 0.88599998
-0.31470001 0.2341 0.88700002
-0.3132 0.2341 0.88700002
-0.3123 0.23459999 0.889
-0.31290001 0.2362 0.89499998
-0.31119999 0.23720001 0.89899999
-0.30770001 0.237 0.898
-0.3053 0.2375 0.89999998
-0.3037 0.2375 0.89999998
-0.29370001 0.237 0.898
-0.2922 0.237 0.898
-0.29030001 0.2367 0.89700001
-0.28870001 0.2367 0.89700001
-0.2872 0.2367 0.89700001
-0.28470001 0.2359 0.89399999
-0.28220001 0.2351 0.89099997
-0.27289999 0.23379999 0.88599998
-0.25229999 0.23459999 0.889
-0.25130001 0.2351 0.89099997
-0.2509 0.2362 0.89499998
-0.2499 0.2367 0.89700001
-0.24860001 0.237 0.898
-0.24160001 0.2378 0.90100002
-0.2369 0.2378 0.90100002
-0.2351 0.2375 0.89999998
-0.2333 0.23720001 0.89899999
-0.2309 0.23639999 0.89600003
-0.22939999 0.23639999 0.89600003
-0.22759999 0.2362 0.89499998
-0.22579999 0.2359 0.89399999
-0.2245 0.2362 0.89499998
-0.22319999 0.23639999 0.89600003
-0.2219 0.2367 0.89700001
-0.2203 0.2367 0.89700001
-0.219 0.237 0.898
-0.21789999 0.2375 0.89999998
-0.21709999 0.2383 0.903
-0.2137 0.23800001 0.90200001
-0.2122 0.23800001 0.90200001
-0.2104 0.2378 0.90100002
-0.2088 0.2378 0.90100002
-0.207 0.2375 0.89999998
-0.2052 0.23720001 0.89899999
-0.2032 0.2367 0.89700001
-0.20190001 0.237 0.898
-0.19939999 0.2378 0.90100002
-0.19679999 0.2383 0.903
-0.19499999 0.23800001 0.90200001
-0.19320001 0.2378 0.90100002
-0.19159999 0.2378 0.90100002
-0.1899 0.2375 0.89999998
-0.1881 0.23720001 0.89899999
-0.1865 0.23720001 0.89899999
-0.185 0.23720001 0.89899999
-0.1832 0.237 0.898
-0.1815 0.2367 0.89700001
-0.18009999 0.237 0.898
-0.1787 0.23720001 0.89899999
-0.17739999 0.2375 0.89999998
-0.1758 0.2375 0.89999998
-0.1743 0.2375 0.89999998
-0.1727 0.2375 0.89999998
-0.17110001 0.2375 0.89999998
-0.16940001 0.23720001 0.89899999
-0.1675 0.2367 0.89700001
-0.1657 0.23639999 0.89600003
-0.16419999 0.23639999 0.89600003
-0.1626 0.23639999 0.89600003
-0.1568 0.237 0.898
-0.155 0.2367 0.89700001
-0.1533 0.23639999 0.89600003
-0.15180001 0.23639999 0.89600003
-0.1499 0.2359 0.89399999
-0.14830001 0.2359 0.89399999
-0.1473 0.2367 0.89700001
-0.14669999 0.2383 0.903
-0.14560001 0.23909999 0.90600002
-0.1442 0.2393 0.90700001
-0.1426 0.2393 0.90700001
-0.141 0.2393 0.90700001
-0.1376 0.2388 0.90499997
-0.1357 0.2383 0.903
-0.134 0.23800001 0.90200001
-0.1323 0.2378 0.90100002
-0.1309 0.23800001 0.90200001
-0.1295 0.2383 0.903
-0.12800001 0.2385 0.90399998
-0.1268 0.23909999 0.90600002
-0.12530001 0.2393 0.90700001
-0.1236 0.23909999 0.90600002
-0.122 0.23909999 0.90600002
-0.1202 0.2385 0.90399998
-0.1186 0.2385 0.90399998
-0.1169 0.2383 0.903
-0.1154 0.2383 0.903
-0.1137 0.23800001 0.90200001
-0.1121 0.23800001 0.90200001
-0.1104 0.2378 0.90100002
-0.1089 0.2378 0.90100002
-0.1072 0.2375 0.89999998
-0.1056 0.2375 0.89999998
-0.104 0.23720001 0.89899999
-0.1021 0.23639999 0.89600003
-0.1003 0.2359 0.89399999
-0.0986 0.23559999 0.89300001
-0.097099997 0.23559999 0.89300001
-0.0955 0.23559999 0.89300001
-0.093999997 0.23559999 0.89300001
-0.092399999 0.23559999 0.89300001
-0.090999998 0.2359 0.89399999
-0.089500003 0.2362 0.89499998
-0.088100001 0.23639999 0.89600003
-0.086499996 0.23639999 0.89600003
-0.085000001 0.23639999 0.89600003
-0.083400004 0.23639999 0.89600003
-0.080300003 0.23639999 0.89600003
-0.0788 0.23639999 0.89600003
-0.0757 0.23639999 0.89600003
-0.072899997 0.2375 0.89999998
-0.071599998 0.2383 0.903
-0.070200004 0.23909999 0.90600002
-0.068700001 0.23909999 0.90600002
-0.067000002 0.2388 0.90499997
-0.063900001 0.2388 0.90499997
-0.0623 0.2388 0.90499997
-0.060699999 0.2388 0.90499997
-0.057599999 0.2388 0.90499997
-0.0561 0.23909999 0.90600002
-0.054400001 0.2385 0.90399998
-0.0528 0.2385 0.90399998
-0.051100001 0.2378 0.90100002
-0.049400002 0.23720001 0.89899999
-0.047899999 0.23720001 0.89899999
-0.046399999 0.2375 0.89999998
-0.044799998 0.2375 0.89999998
-0.043200001 0.2375 0.89999998
-0.041700002 0.2375 0.89999998
-0.040100001 0.2375 0.89999998
-0.038600001 0.2375 0.89999998
-0.035300002 0.2367 0.89700001
-0.0337 0.2362 0.89499998
-0.032000002 0.2351 0.89099997
-0.030400001 0.2349 0.88999999
-0.028899999 0.2349 0.88999999
-0.0273 0.23459999 0.889
-0.025800001 0.2351 0.89099997
-0.0243 0.2351 0.89099997
-0.022700001 0.2349 0.88999999
-0.021199999 0.2351 0.89099997
-0.0197 0.23559999 0.89300001
-0.018100001 0.23559999 0.89300001
-0.0166 0.23540001 0.89200002
-0.015 0.2351 0.89099997
-0.0135 0.2351 0.89099997
-0.012 0.23559999 0.89300001
-0.0105 0.237 0.898
-0.0088999998 0.2378 0.90100002
-0.0074 0.2383 0.903
-0.0057999999 0.2388 0.90499997
-0.0043000001 0.2396 0.90799999
-0.0027000001 0.23989999 0.90899998
-0.0011 0.23989999 0.90899998
0.0020000001 0.2393 0.90700001
0.0035999999 0.2393 0.90700001
0.0052 0.2393 0.90700001
0.0066999998 0.2388 0.90499997
0.0082999999 0.2385 0.90399998
0.0098000001 0.2385 0.90399998
0.0114 0.2383 0.903
0.013 0.2388 0.90499997
0.0146 0.2388 0.90499997
0.016100001 0.2388 0.90499997
0.0177 0.2388 0.90499997
0.019300001 0.2388 0.90499997
0.0208 0.2385 0.90399998
0.022399999 0.2385 0.90399998
0.0239 0.2383 0.903
0.027000001 0.2378 0.90100002
0.0285 0.2378 0.90100002
0.0317 0.2378 0.90100002
0.033199999 0.2375 0.89999998
0.0348 0.2378 0.90100002
0.0363 0.2375 0.89999998
0.037900001 0.2375 0.89999998
0.0394 0.2375 0.89999998
0.041000001 0.2375 0.89999998
0.0425 0.2375 0.89999998
0.044199999 0.2378 0.90100002
0.0458 0.23800001 0.90200001
0.047499999 0.2388 0.90499997
0.0491 0.2388 0.90499997
0.050700001 0.23909999 0.90600002
0.052299999 0.2393 0.90700001
0.0539 0.2393 0.90700001
0.055500001 0.2393 0.90700001
0.057 0.2393 0.90700001
0.058499999 0.23909999 0.90600002
0.059999999 0.2388 0.90499997
0.061500002 0.2385 0.90399998
0.063000001 0.2383 0.903
0.064599998 0.2383 0.903
0.066299997 0.2388 0.90499997
0.067900002 0.2388 0.90499997
0.072700001 0.2393 0.90700001
0.074199997 0.23909999 0.90600002
0.0757 0.2388 0.90499997
0.077200003 0.2385 0.90399998
0.0788 0.2385 0.90399998
0.088500001 0.2393 0.90700001
0.1012 0.2396 0.90799999
0.1027 0.2396 0.90799999
0.1043 0.2396 0.90799999
0.1059 0.2396 0.90799999
0.1074 0.2396 0.90799999
0.1089 0.2393 0.90700001
0.1105 0.2393 0.90700001
0.1119 0.23909999 0.90600002
0.1162 0.2383 0.903
0.1179 0.2385 0.90399998
0.1196 0.2388 0.90499997
0.1212 0.2388 0.90499997
0.1228 0.2388 0.90499997
0.1245 0.23909999 0.90600002
0.1296 0.23989999 0.90899998
0.1313 0.2401 0.91000003
0.1328 0.23989999 0.90899998
0.13420001 0.2396 0.90799999
0.1358 0.2396 0.90799999
0.1372 0.2393 0.90700001
0.13850001 0.2388 0.90499997
0.14 0.2388 0.90499997
0.1416 0.2388 0.90499997
0.1432 0.2388 0.90499997
0.14489999 0.23909999 0.90600002
0.14839999 0.2396 0.90799999
0.1559 0.23909999 0.90600002
0.1575 0.23909999 0.90600002
0.1592 0.2393 0.90700001
0.161 0.2396 0.90799999
0.1627 0.23989999 0.90899998
0.1648 0.24070001 0.912
0.16680001 0.2412 0.91399997
0.1684 0.2412 0.91399997
0.1699 0.2412 0.91399997
0.1733 0.24150001 0.91500002
0.17470001 0.2412 0.91399997
0.1763 0.2412 0.91399997
0.1779 0.2412 0.91399997
0.1804 0.24250001 0.91900003
-0.4152 0.2351 0.88499999
-0.41370001 0.2351 0.88499999
-0.4131 0.23559999 0.88700002
-0.37650001 0.2348 0.884
-0.37059999 0.234 0.88099998
-0.3691 0.234 0.88099998
-0.3669 0.23450001 0.88300002
-0.3662 0.2351 0.88499999
-0.36669999 0.23639999 0.88999999
-0.32390001 0.2367 0.89099997
-0.322 0.23639999 0.88999999
-0.31889999 0.23639999 0.88999999
-0.317 0.2361 0.889
-0.31459999 0.2367 0.89099997
-0.3145 0.2377 0.89499998
-0.31400001 0.2385 0.898
-0.31310001 0.23909999 0.89999998
-0.31119999 0.2388 0.89899999
-0.3089 0.2383 0.89700001
-0.30739999 0.2383 0.89700001
-0.3055 0.23800001 0.89600003
-0.29370001 0.2385 0.898
-0.2922 0.2385 0.898
-0.2906 0.2385 0.898
-0.28870001 0.2383 0.89700001
-0.2872 0.2383 0.89700001
-0.285 0.2377 0.89499998
-0.28279999 0.23720001 0.89300001
-0.28060001 0.2367 0.89099997
-0.2784 0.2361 0.889
-0.27630001 0.23559999 0.88700002
-0.27469999 0.23559999 0.88700002
-0.2735 0.2359 0.88800001
-0.27200001 0.2359 0.88800001
-0.27200001 0.23720001 0.89300001
-0.27399999 0.2404 0.90499997
-0.27309999 0.24089999 0.90700001
-0.27180001 0.2412 0.90799999
-0.27079999 0.24169999 0.91000003
-0.26899999 0.2414 0.90899998
-0.26679999 0.24089999 0.90700001
-0.26409999 0.23980001 0.903
-0.2577 0.2369 0.89200002
-0.25310001 0.2369 0.89200002
-0.25240001 0.2377 0.89499998
-0.25170001 0.2385 0.898
-0.25009999 0.2385 0.898
-0.2489 0.2388 0.89899999
-0.245 0.2396 0.90200001
-0.2432 0.2393 0.90100002
-0.2374 0.23980001 0.903
-0.23540001 0.2393 0.90100002
-0.2335 0.23909999 0.89999998
-0.2315 0.2385 0.898
-0.22939999 0.23800001 0.89600003
-0.2273 0.2375 0.89399999
-0.2255 0.23720001 0.89300001
-0.2245 0.2377 0.89499998
-0.2229 0.2377 0.89499998
-0.2211 0.2375 0.89399999
-0.2193 0.23720001 0.89300001
-0.21780001 0.23720001 0.89300001
-0.2167 0.2377 0.89499998
-0.2159 0.2385 0.898
-0.2148 0.23909999 0.89999998
-0.21349999 0.2393 0.90100002
-0.2122 0.2396 0.90200001
-0.2106 0.2396 0.90200001
-0.2088 0.2393 0.90100002
-0.2075 0.2396 0.90200001
-0.20190001 0.2385 0.898
-0.19679999 0.23980001 0.903
-0.1936 0.23980001 0.903
-0.1918 0.2396 0.90200001
-0.1885 0.2393 0.90100002
-0.18700001 0.2393 0.90100002
-0.18520001 0.23909999 0.89999998
-0.18359999 0.23909999 0.89999998
-0.1821 0.23909999 0.89999998
-0.1805 0.23909999 0.89999998
-0.1789 0.23909999 0.89999998
-0.17739999 0.23909999 0.89999998
-0.1758 0.23909999 0.89999998
-0.1741 0.2388 0.89899999
-0.1723 0.2385 0.898
-0.1708 0.2385 0.898
-0.1688 0.23800001 0.89600003
-0.1671 0.2377 0.89499998
-0.1655 0.2377 0.89499998
-0.164 0.2377 0.89499998
-0.16240001 0.2377 0.89499998
-0.1609 0.2377 0.89499998
-0.1564 0.23800001 0.89600003
-0.1547 0.2377 0.89499998
-0.1531 0.2377 0.89499998
-0.1514 0.2375 0.89399999
-0.1495 0.2369 0.89200002
-0.148 0.2369 0.89200002
-0.1471 0.23800001 0.89600003
-0.14650001 0.2396 0.90200001
-0.14560001 0.2406 0.90600002
-0.1442 0.24089999 0.90700001
-0.1426 0.24089999 0.90700001
-0.141 0.24089999 0.90700001
-0.1393 0.2406 0.90600002
-0.1376 0.2404 0.90499997
-0.134 0.2396 0.90200001
-0.1323 0.2393 0.90100002
-0.1295 0.23980001 0.903
-0.12819999 0.2404 0.90499997
-0.1266 0.2404 0.90499997
-0.1252 0.2406 0.90600002
-0.1236 0.2406 0.90600002
-0.1219 0.2404 0.90499997
-0.1201 0.23980001 0.903
-0.1185 0.23980001 0.903
-0.1168 0.2396 0.90200001
-0.1152 0.2396 0.90200001
-0.1136 0.2393 0.90100002
-0.112 0.2393 0.90100002
-0.1103 0.23909999 0.89999998
-0.1088 0.23909999 0.89999998
-0.107 0.2385 0.898
-0.1054 0.2385 0.898
-0.1037 0.2383 0.89700001
-0.1019 0.2377 0.89499998
-0.1002 0.23720001 0.89300001
-0.098499998 0.2369 0.89200002
-0.097000003 0.2369 0.89200002
-0.0955 0.23720001 0.89300001
-0.093999997 0.23720001 0.89300001
-0.092399999 0.23720001 0.89300001
-0.090999998 0.2375 0.89399999
-0.089599997 0.23800001 0.89600003
-0.088200003 0.2383 0.89700001
-0.0867 0.2385 0.898
-0.085199997 0.2385 0.898
-0.0836 0.2385 0.898
-0.082099997 0.2385 0.898
-0.080499999 0.2385 0.898
-0.077399999 0.2385 0.898
-0.075800002 0.2385 0.898
-0.074299999 0.2385 0.898
-0.072899997 0.23909999 0.89999998
-0.071599998 0.23980001 0.903
-0.0623 0.2404 0.90499997
-0.060699999 0.2404 0.90499997
-0.0592 0.2404 0.90499997
-0.057599999 0.2404 0.90499997
-0.056000002 0.2404 0.90499997
-0.054400001 0.2401 0.90399998
-0.0528 0.23980001 0.903
-0.051100001 0.2393 0.90100002
-0.049400002 0.2385 0.898
-0.047699999 0.23800001 0.89600003
-0.0462 0.2383 0.89700001
-0.0447 0.2385 0.898
-0.043099999 0.2385 0.898
-0.0416 0.2385 0.898
-0.039999999 0.2385 0.898
-0.0385 0.2388 0.89899999
-0.036899999 0.2385 0.898
-0.0337 0.2377 0.89499998
-0.0305 0.2367 0.89099997
-0.028899999 0.2367 0.89099997
-0.0273 0.23639999 0.88999999
-0.025900001 0.23720001 0.89300001
-0.0243 0.2367 0.89099997
-0.022700001 0.23639999 0.88999999
-0.021199999 0.23639999 0.88999999
-0.0196 0.23639999 0.88999999
-0.018100001 0.23639999 0.88999999
-0.0165 0.23639999 0.88999999
-0.0134 0.2359 0.88800001
-0.0119 0.23639999 0.88999999
-0.0057999999 0.2406 0.90600002
-0.0043000001 0.2412 0.90799999
-0.0027000001 0.2412 0.90799999
-0.0011 0.2414 0.90899998
0.00039999999 0.2412 0.90799999
0.0035999999 0.24089999 0.90700001
0.0051000002 0.2406 0.90600002
0.0066999998 0.2404 0.90499997
0.0082999999 0.2404 0.90499997
0.0098000001 0.2401 0.90399998
0.0114 0.23980001 0.903
0.013 0.2404 0.90499997
0.0146 0.2404 0.90499997
0.016100001 0.2404 0.90499997
0.0177 0.2401 0.90399998
0.019300001 0.2404 0.90499997
0.0208 0.23980001 0.903
0.022299999 0.23980001 0.903
0.0239 0.23980001 0.903
0.027000001 0.2393 0.90100002
0.0285 0.23909999 0.89999998
0.0317 0.2393 0.90100002
0.0363 0.2388 0.89899999
0.037700001 0.2383 0.89700001
0.039299998 0.23800001 0.89600003
0.040800001 0.23800001 0.89600003
0.042399999 0.23800001 0.89600003
0.044 0.2385 0.898
0.045699999 0.23909999 0.89999998
0.047400001 0.23980001 0.903
0.0506 0.2404 0.90499997
0.052299999 0.24089999 0.90700001
0.0539 0.24089999 0.90700001
0.055500001 0.24089999 0.90700001
0.057 0.24089999 0.90700001
0.058600001 0.24089999 0.90700001
0.0601 0.2406 0.90600002
0.0616 0.2404 0.90499997
0.063199997 0.2404 0.90499997
0.064800002 0.2406 0.90600002
0.066399999 0.2406 0.90600002
0.067900002 0.2404 0.90499997
0.069399998 0.2404 0.90499997
0.071199998 0.24089999 0.90700001
0.072700001 0.24089999 0.90700001
0.074199997 0.2404 0.90499997
0.0757 0.2404 0.90499997
0.077100001 0.23980001 0.903
0.078699999 0.23980001 0.903
0.080200002 0.23980001 0.903
0.0836 0.2404 0.90499997
0.1013 0.2414 0.90899998
0.1027 0.2412 0.90799999
0.1043 0.2412 0.90799999
0.1059 0.2412 0.90799999
0.1074 0.2412 0.90799999
0.1089 0.24089999 0.90700001
0.1106 0.2412 0.90799999
0.112 0.24089999 0.90700001
0.1135 0.2406 0.90600002
0.1165 0.2404 0.90499997
0.1182 0.2406 0.90600002
0.1199 0.24089999 0.90700001
0.1215 0.24089999 0.90700001
0.123 0.24089999 0.90700001
0.1246 0.24089999 0.90700001
0.12620001 0.24089999 0.90700001
0.13420001 0.2412 0.90799999
0.1356 0.24089999 0.90700001
0.13699999 0.2406 0.90600002
0.13850001 0.2404 0.90499997
0.14 0.2404 0.90499997
0.14139999 0.2401 0.90399998
0.1432 0.2404 0.90499997
0.14489999 0.2406 0.90600002
0.14659999 0.24089999 0.90700001
0.14839999 0.2412 0.90799999
0.15360001 0.242 0.91100001
0.1567 0.242 0.91100001
0.1582 0.24169999 0.91000003
0.15970001 0.24169999 0.91000003
0.1617 0.2422 0.912
0.16320001 0.2422 0.912
0.16500001 0.24250001 0.91299999
0.16680001 0.2428 0.91399997
0.1682 0.24250001 0.91299999
0.1697 0.24250001 0.91299999
0.17820001 0.24330001 0.91600001
-0.4152 0.2366 0.88499999
-0.41370001 0.2366 0.88499999
-0.4131 0.23710001 0.88700002
-0.38999999 0.23710001 0.88700002
-0.36950001 0.2358 0.88200003
-0.368 0.2358 0.88200003
-0.3669 0.2361 0.88300002
-0.3662 0.2366 0.88499999
-0.36590001 0.2374 0.88800001
-0.366 0.2385 0.89200002
-0.36359999 0.2379 0.88999999
-0.3612 0.2374 0.88800001
-0.3335 0.2374 0.88800001
-0.33160001 0.23710001 0.88700002
-0.33050001 0.2374 0.88800001
-0.32890001 0.2374 0.88800001
-0.3281 0.2379 0.88999999
-0.32659999 0.2379 0.88999999
-0.3177 0.23819999 0.89099997
-0.31639999 0.2395 0.89600003
-0.31479999 0.2395 0.89600003
-0.31400001 0.2401 0.898
-0.31240001 0.2401 0.898
-0.31009999 0.2395 0.89600003
-0.3082 0.2393 0.89499998
-0.3064 0.23899999 0.89399999
-0.30450001 0.2387 0.89300001
-0.30289999 0.2387 0.89300001
-0.29370001 0.2401 0.898
-0.2922 0.2401 0.898
-0.2906 0.2401 0.898
-0.28870001 0.23980001 0.89700001
-0.28690001 0.2395 0.89600003
-0.28470001 0.23899999 0.89399999
-0.2825 0.2385 0.89200002
-0.28029999 0.2379 0.88999999
-0.27810001 0.2374 0.88800001
-0.27469999 0.23710001 0.88700002
-0.27320001 0.23710001 0.88700002
-0.27169999 0.23710001 0.88700002
-0.2726 0.2393 0.89499998
-0.27340001 0.2414 0.903
-0.27250001 0.2419 0.90499997
-0.2712 0.2422 0.90600002
-0.2696 0.2422 0.90600002
-0.2678 0.2419 0.90499997
-0.26499999 0.24089999 0.90100002
-0.26230001 0.23980001 0.89700001
-0.25960001 0.2387 0.89300001
-0.25749999 0.23819999 0.89099997
-0.25560001 0.2379 0.88999999
-0.25409999 0.2379 0.88999999
-0.2525 0.2379 0.88999999
-0.25130001 0.23819999 0.89099997
-0.2509 0.2393 0.89499998
-0.24959999 0.2395 0.89600003
-0.24860001 0.2401 0.898
-0.2476 0.2406 0.89999998
-0.2463 0.24089999 0.90100002
-0.24529999 0.2414 0.903
-0.24339999 0.2411 0.90200001
-0.24079999 0.24169999 0.90399998
-0.23800001 0.2419 0.90499997
-0.23559999 0.2411 0.90200001
-0.23379999 0.24089999 0.90100002
-0.2317 0.2403 0.89899999
-0.2291 0.2393 0.89499998
-0.2273 0.23899999 0.89399999
-0.2255 0.2387 0.89300001
-0.22400001 0.2387 0.89300001
-0.22239999 0.2387 0.89300001
-0.22059999 0.2385 0.89200002
-0.21879999 0.23819999 0.89099997
-0.2173 0.23819999 0.89099997
-0.21619999 0.2387 0.89300001
-0.21430001 0.2401 0.898
-0.2133 0.2406 0.89999998
-0.2119 0.24089999 0.90100002
-0.2104 0.24089999 0.90100002
-0.2088 0.24089999 0.90100002
-0.207 0.2406 0.89999998
-0.205 0.2401 0.898
-0.1963 0.24089999 0.90100002
-0.1948 0.24089999 0.90100002
-0.19320001 0.24089999 0.90100002
-0.1921 0.2414 0.903
-0.19050001 0.2414 0.903
-0.18870001 0.2411 0.90200001
-0.18719999 0.2411 0.90200001
-0.18539999 0.24089999 0.90100002
-0.1838 0.24089999 0.90100002
-0.1821 0.2406 0.89999998
-0.1805 0.2406 0.89999998
-0.1789 0.2406 0.89999998
-0.17739999 0.2406 0.89999998
-0.1758 0.2406 0.89999998
-0.17389999 0.2401 0.898
-0.1723 0.2401 0.898
-0.1708 0.2401 0.898
-0.1688 0.2395 0.89600003
-0.1673 0.2395 0.89600003
-0.1657 0.2395 0.89600003
-0.16419999 0.2395 0.89600003
-0.1626 0.2395 0.89600003
-0.1578 0.2393 0.89499998
-0.15620001 0.2393 0.89499998
-0.1543 0.2387 0.89300001
-0.15279999 0.2387 0.89300001
-0.1512 0.2387 0.89300001
-0.1497 0.2387 0.89300001
-0.1481 0.2387 0.89300001
-0.1473 0.23980001 0.89700001
-0.1462 0.2406 0.89999998
-0.1453 0.24169999 0.90399998
-0.14390001 0.2419 0.90499997
-0.14229999 0.2419 0.90499997
-0.1407 0.2419 0.90499997
-0.1392 0.2419 0.90499997
-0.1374 0.24169999 0.90399998
-0.1357 0.2414 0.903
-0.134 0.2411 0.90200001
-0.1323 0.24089999 0.90100002
-0.1309 0.2411 0.90200001
-0.1295 0.2414 0.903
-0.12800001 0.24169999 0.90399998
-0.1266 0.2419 0.90499997
-0.125 0.2419 0.90499997
-0.1235 0.2419 0.90499997
-0.122 0.2422 0.90600002
-0.1202 0.24169999 0.90399998
-0.1186 0.24169999 0.90399998
-0.1169 0.2414 0.903
-0.1152 0.2411 0.90200001
-0.1137 0.2411 0.90200001
-0.1119 0.2406 0.89999998
-0.1103 0.2406 0.89999998
-0.1088 0.2406 0.89999998
-0.1072 0.2406 0.89999998
-0.1058 0.24089999 0.90100002
-0.1041 0.2406 0.89999998
-0.1023 0.2401 0.898
-0.1005 0.2395 0.89600003
-0.098700002 0.23899999 0.89399999
-0.097199999 0.23899999 0.89399999
-0.095600002 0.23899999 0.89399999
-0.093999997 0.2387 0.89300001
-0.092399999 0.2387 0.89300001
-0.090999998 0.23899999 0.89399999
-0.089599997 0.2395 0.89600003
-0.088200003 0.23980001 0.89700001
-0.0867 0.2401 0.898
-0.085199997 0.2401 0.898
-0.0836 0.2401 0.898
-0.080600001 0.2403 0.89899999
-0.077399999 0.2401 0.898
-0.075800002 0.2401 0.898
-0.074299999 0.2401 0.898
-0.062399998 0.24250001 0.90700001
-0.060899999 0.24250001 0.90700001
-0.059300002 0.24250001 0.90700001
-0.057700001 0.24250001 0.90700001
-0.0561 0.2422 0.90600002
-0.054499999 0.2419 0.90499997
-0.0528 0.24169999 0.90399998
-0.051100001 0.24089999 0.90100002
-0.0493 0.2395 0.89600003
-0.047699999 0.2393 0.89499998
-0.0462 0.2395 0.89600003
-0.044599999 0.2395 0.89600003
-0.043000001 0.2395 0.89600003
-0.041499998 0.23980001 0.89700001
-0.039999999 0.2401 0.898
-0.038600001 0.2406 0.89999998
-0.0306 0.2393 0.89499998
-0.028999999 0.23899999 0.89399999
-0.0274 0.2387 0.89300001
-0.025900001 0.2393 0.89499998
-0.0244 0.23899999 0.89399999
-0.0228 0.2385 0.89200002
-0.021199999 0.23819999 0.89099997
-0.0196 0.2379 0.88999999
-0.018100001 0.2379 0.88999999
-0.0165 0.2374 0.88800001
-0.0043000001 0.24250001 0.90700001
-0.0027000001 0.2428 0.90799999
-0.0011 0.2428 0.90799999
0.00039999999 0.24250001 0.90700001
0.0020000001 0.2422 0.90600002
0.0035999999 0.2422 0.90600002
0.0051000002 0.2422 0.90600002
0.0066999998 0.2419 0.90499997
0.0082999999 0.2419 0.90499997
0.0098000001 0.24169999 0.90399998
0.0114 0.2414 0.903
0.013 0.24169999 0.90399998
0.0146 0.2419 0.90499997
0.016100001 0.24169999 0.90399998
0.0177 0.24169999 0.90399998
0.019200001 0.24169999 0.90399998
0.0208 0.2414 0.903
0.022299999 0.2414 0.903
0.0239 0.2414 0.903
0.0254 0.24089999 0.90100002
0.027000001 0.24089999 0.90100002
0.0285 0.24089999 0.90100002
0.0317 0.2411 0.90200001
0.033199999 0.24089999 0.90100002
0.0348 0.24089999 0.90100002
0.0363 0.24089999 0.90100002
0.037799999 0.2403 0.89899999
0.039299998 0.2401 0.898
0.040800001 0.2395 0.89600003
0.042300001 0.2393 0.89499998
0.044 0.2401 0.898
0.045699999 0.2406 0.89999998
0.047400001 0.2414 0.903
0.0491 0.2419 0.90499997
0.0506 0.2419 0.90499997
0.052299999 0.2422 0.90600002
0.055500001 0.24250001 0.90700001
0.058499999 0.2422 0.90600002
0.059999999 0.2419 0.90499997
0.061500002 0.24169999 0.90399998
0.063199997 0.2419 0.90499997
0.0647 0.2419 0.90499997
0.066399999 0.2422 0.90600002
0.068000004 0.2422 0.90600002
0.069499999 0.2422 0.90600002
0.071199998 0.24250001 0.90700001
0.072700001 0.24250001 0.90700001
0.074199997 0.2419 0.90499997
0.075599998 0.24169999 0.90399998
0.077100001 0.2414 0.903
0.078699999 0.2414 0.903
0.080200002 0.2414 0.903
0.086900003 0.24250001 0.90700001
0.088600002 0.2428 0.90799999
0.0933 0.2428 0.90799999
0.1013 0.243 0.90899998
0.1028 0.243 0.90899998
0.1043 0.2428 0.90799999
0.1059 0.2428 0.90799999
0.1074 0.2428 0.90799999
0.1089 0.24250001 0.90700001
0.1105 0.24250001 0.90700001
0.1119 0.2422 0.90600002
0.1199 0.24250001 0.90700001
0.1215 0.24250001 0.90700001
0.123 0.24250001 0.90700001
0.1246 0.24250001 0.90700001
0.12620001 0.24250001 0.90700001
0.13429999 0.243 0.90899998
0.1358 0.2428 0.90799999
0.1372 0.24250001 0.90700001
0.13850001 0.2419 0.90499997
0.14 0.2419 0.90499997
0.14139999 0.24169999 0.90399998
0.1432 0.2419 0.90499997
0.14489999 0.2422 0.90600002
0.14659999 0.24250001 0.90700001
0.14839999 0.2428 0.90799999
0.1503 0.24330001 0.91000003
0.1539 0.2441 0.91299999
0.15530001 0.2438 0.912
0.1569 0.2438 0.912
0.1585 0.2438 0.912
0.1601 0.2438 0.912
0.1617 0.2438 0.912
0.1631 0.2436 0.91100001
0.1648 0.2438 0.912
0.1666 0.2441 0.91299999
0.168 0.2438 0.912
-0.41460001 0.2387 0.88700002
-0.39250001 0.2392 0.889
-0.39140001 0.2395 0.88999999
-0.39030001 0.23980001 0.89099997
-0.38870001 0.23980001 0.89099997
-0.37259999 0.23729999 0.88200003
-0.37099999 0.23729999 0.88200003
-0.36950001 0.23729999 0.88200003
-0.36840001 0.2376 0.88300002
-0.3673 0.2379 0.884
-0.3662 0.23810001 0.88499999
-0.3646 0.23810001 0.88499999
-0.33430001 0.2395 0.88999999
-0.33239999 0.2392 0.889
-0.33050001 0.23890001 0.88800001
-0.32929999 0.2392 0.889
-0.3281 0.2395 0.88999999
-0.32659999 0.2395 0.88999999
-0.32080001 0.23980001 0.89099997
-0.31869999 0.2406 0.89399999
