ply
format ascii 1.0
comment PCL generated
element vertex 1530
property float x
property float y
property float z
element camera 0
property float view_px
property float view_py
property float view_pz
property float x_axisx
property float x_axisy
property float x_axisz
property float y_axisx
property float y_axisy
property float y_axisz
property float z_axisx
property float z_axisy
property float z_axisz
property float focal
property float scalex
property float scaley
property float centerx
property float centery
property int viewportx
property int viewporty
property float k1
property float k2
end_header
0.082199998 -0.039700001 0.88999999
0.083700001 -0.039700001 0.88999999
0.085199997 -0.039700001 0.889
0.086800002 -0.039700001 0.88999999
0.088299997 -0.039700001 0.88999999
0.090000004 -0.039799999 0.89099997
0.091600001 -0.039799999 0.89200002
0.093500003 -0.039900001 0.89499998
0.095200002 -0.039999999 0.89600003
0.096799999 -0.039999999 0.89700001
0.098399997 -0.039999999 0.89700001
0.0999 -0.039999999 0.89700001
0.1014 -0.039999999 0.89600003
0.1028 -0.039900001 0.89499998
0.1039 -0.039799999 0.89099997
0.1053 -0.039700001 0.88999999
0.1066 -0.0396 0.88800001
0.108 -0.0396 0.88700002
0.1093 -0.039500002 0.88499999
0.1109 -0.039500002 0.88499999
0.1123 -0.0394 0.884
0.1155 -0.039500002 0.88499999
0.117 -0.039500002 0.88499999
0.1188 -0.0396 0.88700002
0.1203 -0.0396 0.88700002
0.1219 -0.0396 0.88700002
0.1234 -0.0396 0.88700002
0.1249 -0.0396 0.88700002
0.12630001 -0.039500002 0.88599998
0.1279 -0.039500002 0.88599998
0.1296 -0.0396 0.88700002
0.1312 -0.0396 0.88800001
0.1328 -0.0396 0.88800001
0.1346 -0.039700001 0.88999999
0.1363 -0.039799999 0.89099997
0.138 -0.039799999 0.89200002
0.1397 -0.039799999 0.89300001
0.141 -0.039799999 0.89099997
0.14229999 -0.039700001 0.88999999
0.14390001 -0.039700001 0.88999999
0.147 -0.039700001 0.88999999
0.1485 -0.039700001 0.88999999
0.15000001 -0.039700001 0.88999999
0.15180001 -0.039799999 0.89099997
0.15350001 -0.039799999 0.89200002
0.1548 -0.039799999 0.89099997
0.1566 -0.039799999 0.89200002
0.15790001 -0.039799999 0.89099997
0.1593 -0.039700001 0.88999999
0.1608 -0.039700001 0.88999999
0.1622 -0.039700001 0.889
0.1636 -0.0396 0.88800001
0.16509999 -0.0396 0.88800001
0.1666 -0.0396 0.88800001
0.1682 -0.0396 0.88800001
0.17030001 -0.039799999 0.89099997
0.1724 -0.039900001 0.89399999
0.1744 -0.039999999 0.89600003
0.1763 -0.040100001 0.898
0.17829999 -0.040199999 0.89999998
0.18000001 -0.040199999 0.90100002
0.182 -0.0403 0.903
0.1839 -0.040399998 0.90499997
0.1855 -0.040399998 0.90499997
0.1875 -0.0405 0.90700001
0.1891 -0.0405 0.90700001
0.1909 -0.0405 0.90799999
0.19310001 -0.040600002 0.91100001
-0.3802 -0.0372 0.86799997
-0.3642 -0.0374 0.87300003
-0.3396 -0.0372 0.86799997
-0.3373 -0.037099998 0.866
-0.3355 -0.0374 0.87300003
-0.33430001 -0.037500001 0.87400001
-0.33239999 -0.0374 0.87300003
-0.33059999 -0.0374 0.87199998
-0.2393 -0.037799999 0.88099998
-0.2386 -0.037900001 0.884
-0.2342 -0.037999999 0.88499999
-0.2332 -0.037999999 0.88700002
-0.2309 -0.037900001 0.884
-0.2286 -0.037799999 0.88099998
-0.22679999 -0.037700001 0.88
-0.22499999 -0.037700001 0.87900001
-0.2238 -0.037700001 0.88
-0.2225 -0.037799999 0.88099998
-0.2212 -0.037799999 0.88200003
-0.2202 -0.037900001 0.884
-0.21870001 -0.037900001 0.884
-0.2174 -0.037999999 0.88499999
-0.21359999 -0.037799999 0.88200003
-0.2113 -0.037700001 0.87900001
-0.2069 -0.0374 0.87300003
-0.2016 -0.037300002 0.87
-0.2001 -0.037300002 0.87
-0.19859999 -0.037300002 0.87
-0.1973 -0.037300002 0.87099999
-0.19599999 -0.0374 0.87199998
-0.1952 -0.037500001 0.875
-0.1946 -0.037700001 0.87900001
-0.1935 -0.037799999 0.88099998
-0.19239999 -0.037900001 0.88300002
-0.1893 -0.037900001 0.88300002
-0.1865 -0.037900001 0.884
-0.18520001 -0.037999999 0.88499999
-0.18359999 -0.037999999 0.88499999
-0.18189999 -0.037900001 0.884
-0.1804 -0.037900001 0.884
-0.1788 -0.037900001 0.884
-0.1769 -0.037799999 0.88200003
-0.17479999 -0.037700001 0.87900001
-0.17209999 -0.0374 0.87300003
-0.15530001 -0.035700001 0.83200002
-0.1533 -0.035500001 0.829
-0.1513 -0.035399999 0.82599998
-0.1478 -0.0352 0.82200003
-0.1462 -0.0352 0.82099998
-0.14470001 -0.0352 0.82099998
-0.1433 -0.0352 0.82099998
-0.14219999 -0.035300002 0.82300001
-0.141 -0.035300002 0.824
-0.13959999 -0.035300002 0.824
-0.1383 -0.035399999 0.82499999
-0.13699999 -0.035399999 0.82599998
-0.1358 -0.035500001 0.82700002
-0.13429999 -0.035500001 0.82700002
-0.1332 -0.035500001 0.829
-0.1319 -0.035599999 0.82999998
-0.1305 -0.035599999 0.82999998
-0.12909999 -0.035599999 0.82999998
-0.1275 -0.035500001 0.829
-0.1259 -0.035500001 0.82800001
-0.1244 -0.035500001 0.82800001
-0.1229 -0.035500001 0.82700002
-0.1214 -0.035500001 0.82700002
-0.1201 -0.035500001 0.82800001
-0.119 -0.035599999 0.82999998
-0.1176 -0.035599999 0.82999998
-0.1161 -0.035599999 0.82999998
-0.1147 -0.035599999 0.82999998
-0.1132 -0.035599999 0.82999998
-0.11 -0.035500001 0.82700002
-0.1066 -0.035300002 0.82300001
-0.105 -0.0352 0.82200003
-0.1035 -0.0352 0.82099998
-0.1019 -0.0352 0.81999999
-0.1005 -0.0352 0.81999999
-0.098999999 -0.035100002 0.81900001
-0.097499996 -0.035100002 0.81900001
-0.096100003 -0.035100002 0.81900001
-0.094700001 -0.035100002 0.81900001
-0.093400002 -0.0352 0.81999999
-0.092 -0.0352 0.81999999
-0.090400003 -0.035100002 0.81900001
-0.089100003 -0.0352 0.81999999
-0.087700002 -0.0352 0.81999999
-0.086300001 -0.0352 0.81999999
-0.085000001 -0.0352 0.82099998
-0.0836 -0.0352 0.82099998
-0.082099997 -0.0352 0.82099998
-0.073399998 -0.035100002 0.81900001
-0.072099999 -0.0352 0.81999999
-0.071199998 -0.035399999 0.82599998
-0.069899999 -0.035500001 0.82800001
-0.068599999 -0.035500001 0.829
-0.067299999 -0.035599999 0.83099997
-0.060199998 -0.035700001 0.833
-0.058800001 -0.035700001 0.833
-0.057300001 -0.035700001 0.833
-0.0559 -0.035700001 0.833
-0.054499999 -0.035700001 0.833
-0.047400001 -0.035799999 0.83600003
-0.0458 -0.038199998 0.88999999
-0.044399999 -0.038199998 0.89099997
-0.0427 -0.0381 0.88800001
-0.041099999 -0.037999999 0.88700002
-0.039500002 -0.037999999 0.88700002
-0.037999999 -0.0381 0.88800001
-0.036499999 -0.0381 0.88800001
-0.035 -0.0381 0.889
-0.033500001 -0.038199998 0.88999999
-0.032000002 -0.038199998 0.88999999
-0.030400001 -0.038199998 0.88999999
-0.0273 -0.0381 0.889
-0.025699999 -0.0381 0.88800001
-0.0242 -0.0381 0.88800001
-0.022600001 -0.037999999 0.88700002
-0.0211 -0.0381 0.88800001
-0.0196 -0.0381 0.88800001
-0.018100001 -0.038199998 0.88999999
-0.0165 -0.038199998 0.88999999
-0.015 -0.038199998 0.88999999
-0.0134 -0.0381 0.889
-0.0119 -0.0381 0.889
-0.0103 -0.0381 0.88800001
-0.0088 -0.0381 0.88800001
-0.0073000002 -0.0381 0.88800001
0.0066 -0.0383 0.89300001
0.0082 -0.0383 0.89399999
0.0097000003 -0.0383 0.89300001
0.0113 -0.0383 0.89300001
0.0128 -0.0383 0.89300001
0.0144 -0.0383 0.89300001
0.015900001 -0.0383 0.89200002
0.0174 -0.0383 0.89200002
0.018999999 -0.0383 0.89200002
0.020500001 -0.0383 0.89200002
0.0221 -0.0383 0.89200002
0.023600001 -0.0383 0.89300001
0.0252 -0.038400002 0.89499998
0.026799999 -0.038400002 0.89600003
0.0284 -0.038400002 0.89600003
0.029899999 -0.038400002 0.89600003
0.031500001 -0.038400002 0.89600003
0.033 -0.038400002 0.89600003
0.034600001 -0.038400002 0.89600003
0.0361 -0.038400002 0.89600003
0.037700001 -0.038400002 0.89600003
0.039299998 -0.0385 0.89700001
0.040899999 -0.0385 0.89700001
0.042399999 -0.0385 0.89700001
0.043900002 -0.038400002 0.89600003
0.045499999 -0.0385 0.89700001
0.0471 -0.0385 0.898
0.048599999 -0.0385 0.89700001
0.0502 -0.0385 0.898
0.051800001 -0.0385 0.898
0.053300001 -0.0385 0.898
0.0548 -0.0385 0.89700001
0.056400001 -0.0385 0.89700001
0.057999998 -0.0385 0.898
0.059500001 -0.0385 0.89700001
0.060899999 -0.0383 0.89399999
0.0623 -0.0383 0.89300001
0.063699998 -0.038199998 0.89099997
0.065300003 -0.038199998 0.89099997
0.066699997 -0.0381 0.889
0.068099998 -0.0381 0.88800001
0.069600001 -0.037999999 0.88700002
0.071199998 -0.0381 0.88800001
0.072800003 -0.0381 0.88800001
0.0744 -0.0381 0.889
0.075999998 -0.038199998 0.88999999
0.077600002 -0.038199998 0.88999999
0.079099998 -0.038199998 0.88999999
0.080600001 -0.038199998 0.88999999
0.082199998 -0.038199998 0.88999999
0.083700001 -0.038199998 0.88999999
0.085199997 -0.0381 0.889
0.086800002 -0.038199998 0.88999999
0.088299997 -0.038199998 0.88999999
0.090000004 -0.038199998 0.89099997
0.091600001 -0.0383 0.89200002
0.093400002 -0.0383 0.89399999
0.095200002 -0.038400002 0.89600003
0.096799999 -0.0385 0.89700001
0.098399997 -0.0385 0.89700001
0.1 -0.0385 0.898
0.1015 -0.0385 0.89700001
0.1028 -0.038400002 0.89499998
0.1041 -0.0383 0.89300001
0.1054 -0.038199998 0.89099997
0.1067 -0.0381 0.889
0.108 -0.037999999 0.88700002
0.1096 -0.037999999 0.88700002
0.1109 -0.037999999 0.88499999
0.1124 -0.037999999 0.88499999
0.1155 -0.037999999 0.88499999
0.117 -0.037999999 0.88499999
0.1187 -0.037999999 0.88599998
0.1202 -0.037999999 0.88599998
0.1219 -0.037999999 0.88700002
0.1234 -0.037999999 0.88700002
0.1249 -0.037999999 0.88700002
0.1265 -0.037999999 0.88700002
0.12800001 -0.037999999 0.88700002
0.12970001 -0.0381 0.88800001
0.1314 -0.0381 0.889
0.1331 -0.038199998 0.88999999
0.1346 -0.038199998 0.88999999
0.1365 -0.0383 0.89200002
0.1382 -0.0383 0.89300001
0.1397 -0.0383 0.89300001
0.141 -0.038199998 0.89099997
0.1425 -0.038199998 0.89099997
0.14390001 -0.038199998 0.88999999
0.1454 -0.038199998 0.88999999
0.147 -0.038199998 0.88999999
0.1487 -0.038199998 0.89099997
0.15000001 -0.038199998 0.88999999
0.15180001 -0.038199998 0.89099997
0.15350001 -0.0383 0.89200002
0.1552 -0.0383 0.89300001
0.1567 -0.0383 0.89300001
0.15809999 -0.0383 0.89200002
0.1593 -0.038199998 0.88999999
0.1608 -0.038199998 0.88999999
0.1622 -0.0381 0.889
0.1637 -0.0381 0.889
0.16509999 -0.0381 0.88800001
0.1682 -0.0381 0.88800001
0.1705 -0.0383 0.89200002
0.1726 -0.038400002 0.89499998
0.1744 -0.038400002 0.89600003
0.1763 -0.0385 0.898
0.17829999 -0.038600001 0.89999998
0.18000001 -0.038600001 0.90100002
0.182 -0.038699999 0.903
0.1839 -0.038800001 0.90499997
0.1859 -0.038899999 0.90700001
0.1877 -0.038899999 0.90799999
0.1891 -0.038899999 0.90700001
0.1909 -0.038899999 0.90799999
0.1926 -0.039000001 0.90899998
-0.37889999 -0.036200002 0.87900001
-0.37909999 -0.0363 0.88300002
-0.3378 -0.035999998 0.875
-0.33590001 -0.035999998 0.87400001
-0.33430001 -0.035999998 0.87400001
-0.33239999 -0.0359 0.87300003
-0.31799999 -0.036200002 0.87900001
-0.31720001 -0.0363 0.88099998
-0.23729999 -0.036400001 0.88499999
-0.23450001 -0.036499999 0.88599998
-0.2332 -0.036499999 0.88700002
-0.23119999 -0.036400001 0.88499999
-0.2291 -0.0363 0.88300002
-0.2273 -0.0363 0.88200003
-0.2256 -0.0363 0.88099998
-0.2243 -0.0363 0.88200003
-0.223 -0.0363 0.88300002
-0.2217 -0.036400001 0.884
-0.2202 -0.036400001 0.884
-0.2189 -0.036400001 0.88499999
-0.2174 -0.036400001 0.88499999
-0.2158 -0.036400001 0.88499999
-0.2044 -0.035799999 0.86900002
-0.2027 -0.035700001 0.86799997
-0.20119999 -0.035700001 0.86799997
-0.1997 -0.035700001 0.86799997
-0.1982 -0.035700001 0.86799997
-0.1969 -0.035799999 0.86900002
-0.1956 -0.035799999 0.87
-0.1945 -0.0359 0.87199998
-0.1937 -0.035999998 0.875
-0.19310001 -0.036200002 0.87900001
-0.19220001 -0.0363 0.88200003
-0.1893 -0.0363 0.88300002
-0.18780001 -0.0363 0.88300002
-0.1865 -0.036400001 0.884
-0.18520001 -0.036400001 0.88499999
-0.18359999 -0.036400001 0.88499999
-0.18189999 -0.036400001 0.884
-0.1804 -0.036400001 0.884
-0.1786 -0.0363 0.88300002
-0.1767 -0.0363 0.88099998
-0.17399999 -0.035999998 0.875
-0.1715 -0.035799999 0.87
-0.1551 -0.034200002 0.83099997
-0.153 -0.034000002 0.82700002
-0.1508 -0.0339 0.82300001
-0.14920001 -0.033799998 0.82200003
-0.1476 -0.033799998 0.82099998
-0.1462 -0.033799998 0.82099998
-0.14470001 -0.033799998 0.82099998
-0.1435 -0.033799998 0.82200003
-0.14219999 -0.0339 0.82300001
-0.141 -0.0339 0.824
-0.13940001 -0.0339 0.82300001
-0.1381 -0.0339 0.824
-0.13689999 -0.0339 0.82499999
-0.1356 -0.034000002 0.82599998
-0.13420001 -0.034000002 0.82599998
-0.1329 -0.034000002 0.82700002
-0.1318 -0.0341 0.829
-0.1305 -0.034200002 0.82999998
-0.12909999 -0.034200002 0.82999998
-0.1275 -0.0341 0.829
-0.1243 -0.034000002 0.82700002
-0.1227 -0.034000002 0.82599998
-0.1213 -0.034000002 0.82599998
-0.12 -0.034000002 0.82700002
-0.1189 -0.0341 0.829
-0.1177 -0.034200002 0.83099997
-0.1163 -0.034200002 0.83099997
-0.115 -0.034200002 0.83200002
-0.1134 -0.034200002 0.83099997
-0.1119 -0.034200002 0.83099997
-0.1104 -0.034200002 0.82999998
-0.1088 -0.0341 0.829
-0.1071 -0.034000002 0.82700002
-0.1054 -0.0339 0.82499999
-0.1037 -0.0339 0.82300001
-0.1021 -0.033799998 0.82099998
-0.1005 -0.0337 0.81999999
-0.098999999 -0.0337 0.81900001
-0.0973 -0.033599999 0.81699997
-0.095899999 -0.033599999 0.81699997
-0.094599999 -0.0337 0.81800002
-0.0933 -0.0337 0.81900001
-0.091899998 -0.0337 0.81900001
-0.090400003 -0.0337 0.81900001
-0.089100003 -0.0337 0.81999999
-0.087800004 -0.033799998 0.82099998
-0.086499996 -0.033799998 0.82200003
-0.085100003 -0.033799998 0.82200003
-0.083700001 -0.033799998 0.82200003
-0.082099997 -0.033799998 0.82099998
-0.080600001 -0.0337 0.81999999
-0.076200001 -0.0337 0.81800002
-0.074600004 -0.033599999 0.81599998
-0.073399998 -0.0337 0.81900001
-0.072400004 -0.0339 0.824
-0.071500003 -0.034200002 0.82999998
-0.070100002 -0.034200002 0.82999998
-0.067400001 -0.034200002 0.83200002
-0.066 -0.034299999 0.833
-0.063199997 -0.034299999 0.83399999
-0.061700001 -0.034299999 0.833
-0.060199998 -0.034299999 0.833
-0.058800001 -0.034299999 0.833
-0.057300001 -0.034200002 0.83200002
-0.055799998 -0.034200002 0.83200002
-0.054400001 -0.034200002 0.83200002
-0.0471 -0.034200002 0.83099997
-0.045600001 -0.034200002 0.82999998
-0.044199999 -0.034200002 0.82999998
-0.041000001 -0.036400001 0.88499999
-0.039500002 -0.036499999 0.88700002
-0.037999999 -0.036499999 0.88700002
-0.036499999 -0.036499999 0.88700002
-0.035 -0.036499999 0.88800001
-0.033500001 -0.036600001 0.889
-0.0319 -0.036600001 0.889
-0.030400001 -0.036600001 0.889
-0.028899999 -0.036600001 0.88999999
-0.025699999 -0.036499999 0.88800001
-0.0242 -0.036499999 0.88800001
-0.022700001 -0.036499999 0.88800001
-0.0211 -0.036499999 0.88800001
-0.0196 -0.036499999 0.88800001
-0.018100001 -0.036600001 0.889
-0.0165 -0.036600001 0.88999999
-0.015 -0.036600001 0.88999999
-0.0134 -0.036600001 0.889
-0.0119 -0.036499999 0.88800001
-0.0103 -0.036499999 0.88800001
-0.0088 -0.036499999 0.88800001
0.0066 -0.036899999 0.89600003
0.0082 -0.036800001 0.89499998
0.0097000003 -0.036800001 0.89399999
0.0113 -0.036699999 0.89300001
0.0128 -0.036699999 0.89300001
0.0143 -0.036699999 0.89200002
0.015900001 -0.036699999 0.89099997
0.0174 -0.036600001 0.88999999
0.0189 -0.036600001 0.88999999
0.020500001 -0.036600001 0.88999999
0.022 -0.036699999 0.89099997
0.023600001 -0.036699999 0.89300001
0.0252 -0.036800001 0.89399999
0.026799999 -0.036800001 0.89499998
0.0284 -0.036800001 0.89499998
0.029899999 -0.036800001 0.89499998
0.031500001 -0.036800001 0.89499998
0.033 -0.036800001 0.89499998
0.034499999 -0.036800001 0.89399999
0.0361 -0.036800001 0.89499998
0.037700001 -0.036800001 0.89499998
0.039299998 -0.036899999 0.89600003
0.040800001 -0.036899999 0.89600003
0.042399999 -0.036899999 0.89700001
0.044 -0.037 0.898
0.045699999 -0.037 0.89999998
0.047200002 -0.037 0.89999998
0.048700001 -0.037 0.89899999
0.050299998 -0.037 0.89899999
0.051800001 -0.037 0.89899999
0.053399999 -0.037 0.89899999
0.054900002 -0.037 0.898
0.056499999 -0.037 0.898
0.057999998 -0.037 0.898
0.060899999 -0.036800001 0.89499998
0.062399998 -0.036800001 0.89399999
0.063699998 -0.036699999 0.89099997
0.065300003 -0.036699999 0.89099997
0.066799998 -0.036699999 0.89099997
0.068300001 -0.036600001 0.88999999
0.069799997 -0.036600001 0.88999999
0.071400002 -0.036600001 0.88999999
0.072899997 -0.036600001 0.88999999
0.074500002 -0.036600001 0.88999999
0.075999998 -0.036600001 0.88999999
0.077600002 -0.036600001 0.88999999
0.079099998 -0.036600001 0.88999999
0.080600001 -0.036600001 0.88999999
0.082199998 -0.036600001 0.88999999
0.083700001 -0.036600001 0.88999999
0.085199997 -0.036600001 0.889
0.086800002 -0.036600001 0.88999999
0.088299997 -0.036600001 0.88999999
0.090000004 -0.036699999 0.89099997
0.091600001 -0.036699999 0.89200002
0.093400002 -0.036800001 0.89399999
0.095200002 -0.036899999 0.89600003
0.096699998 -0.036899999 0.89600003
0.098399997 -0.036899999 0.89700001
0.1 -0.037 0.898
0.1016 -0.037 0.898
0.1029 -0.036899999 0.89600003
0.1041 -0.036699999 0.89300001
0.1054 -0.036699999 0.89099997
0.1067 -0.036600001 0.889
0.108 -0.036499999 0.88700002
0.1096 -0.036499999 0.88700002
0.1124 -0.036400001 0.88499999
0.1155 -0.036400001 0.88499999
0.1171 -0.036499999 0.88599998
0.1188 -0.036499999 0.88700002
0.1202 -0.036499999 0.88599998
0.122 -0.036499999 0.88800001
0.1235 -0.036499999 0.88800001
0.1251 -0.036499999 0.88800001
0.1268 -0.036600001 0.889
0.1283 -0.036600001 0.889
0.13 -0.036600001 0.88999999
0.13169999 -0.036699999 0.89099997
0.1332 -0.036699999 0.89099997
0.1348 -0.036699999 0.89099997
0.1366 -0.036699999 0.89300001
0.1382 -0.036699999 0.89300001
0.1397 -0.036699999 0.89300001
0.141 -0.036699999 0.89099997
0.14229999 -0.036600001 0.88999999
0.14390001 -0.036600001 0.88999999
0.1453 -0.036600001 0.889
0.1468 -0.036600001 0.889
0.1485 -0.036600001 0.88999999
0.15000001 -0.036600001 0.88999999
0.15180001 -0.036699999 0.89099997
0.15360001 -0.036699999 0.89300001
0.15539999 -0.036800001 0.89399999
0.1569 -0.036800001 0.89399999
0.1583 -0.036699999 0.89300001
0.1595 -0.036699999 0.89099997
0.161 -0.036699999 0.89099997
0.16240001 -0.036600001 0.88999999
0.1637 -0.036600001 0.889
0.16509999 -0.036499999 0.88800001
0.1705 -0.036699999 0.89200002
0.1728 -0.036899999 0.89600003
0.1745 -0.036899999 0.89700001
0.1763 -0.037 0.898
0.17829999 -0.037 0.89999998
0.1798 -0.037 0.89999998
0.1816 -0.037099998 0.90100002
0.18350001 -0.0372 0.903
0.1851 -0.0372 0.903
0.18709999 -0.0372 0.90499997
0.1884 -0.0372 0.90399998
0.1902 -0.0372 0.90499997
0.1918 -0.0372 0.90499997
0.1925 -0.037099998 0.90100002
-0.35319999 -0.034400001 0.87199998
-0.33880001 -0.0341 0.866
-0.32980001 -0.034299999 0.87
-0.31999999 -0.034400001 0.87199998
-0.3177 -0.034400001 0.87400001
-0.31760001 -0.034600001 0.87800002
-0.31600001 -0.0348 0.88200003
-0.2314 -0.034899998 0.88599998
-0.2296 -0.034899998 0.88499999
-0.2279 -0.0348 0.884
-0.2263 -0.0348 0.884
-0.22480001 -0.0348 0.884
-0.2233 -0.0348 0.884
-0.2217 -0.0348 0.884
-0.22040001 -0.034899998 0.88499999
-0.2192 -0.034899998 0.88599998
-0.2158 -0.034899998 0.88499999
-0.20640001 -0.034299999 0.87099999
-0.2044 -0.034299999 0.86900002
-0.2027 -0.034200002 0.86799997
-0.1997 -0.034200002 0.86799997
-0.1979 -0.034200002 0.86699998
-0.19670001 -0.034200002 0.86799997
-0.1954 -0.034299999 0.86900002
-0.1948 -0.034400001 0.87300003
-0.1944 -0.034600001 0.87800002
-0.1935 -0.034699999 0.88099998
-0.1893 -0.0348 0.88300002
-0.18799999 -0.0348 0.884
-0.1865 -0.0348 0.884
-0.18520001 -0.034899998 0.88499999
-0.18359999 -0.034899998 0.88499999
-0.18189999 -0.0348 0.884
-0.18000001 -0.0348 0.88200003
-0.17820001 -0.034699999 0.88099998
-0.1759 -0.034600001 0.87699997
-0.1734 -0.034400001 0.87199998
-0.17110001 -0.034200002 0.86799997
-0.15440001 -0.032600001 0.82700002
-0.1524 -0.032499999 0.824
-0.15009999 -0.032299999 0.81900001
-0.1486 -0.032299999 0.81900001
-0.1472 -0.032299999 0.81900001
-0.146 -0.032299999 0.81999999
-0.14489999 -0.032400001 0.82200003
-0.1437 -0.032400001 0.82300001
-0.1424 -0.032499999 0.824
-0.14120001 -0.032499999 0.82499999
-0.13959999 -0.032499999 0.824
-0.1381 -0.032499999 0.824
-0.13689999 -0.032499999 0.82499999
-0.1356 -0.032600001 0.82599998
-0.13420001 -0.032600001 0.82599998
-0.1329 -0.032600001 0.82700002
-0.13160001 -0.032600001 0.82800001
-0.1303 -0.032699998 0.829
-0.1288 -0.032600001 0.82800001
-0.1256 -0.032600001 0.82599998
-0.1241 -0.032600001 0.82599998
-0.1226 -0.032499999 0.82499999
-0.1211 -0.032499999 0.82499999
-0.12 -0.032600001 0.82700002
-0.1189 -0.032699998 0.829
-0.1177 -0.0328 0.83099997
-0.1163 -0.0328 0.83099997
-0.115 -0.0328 0.83200002
-0.1135 -0.0328 0.83200002
-0.1119 -0.0328 0.83099997
-0.1105 -0.0328 0.83099997
-0.1089 -0.032699998 0.82999998
-0.1074 -0.032699998 0.829
-0.1057 -0.032600001 0.82700002
-0.1039 -0.032499999 0.824
-0.1022 -0.032400001 0.82200003
-0.1005 -0.032299999 0.81999999
-0.098700002 -0.032200001 0.81699997
-0.097199999 -0.032200001 0.81599998
-0.095799997 -0.032200001 0.81599998
-0.094599999 -0.032200001 0.81800002
-0.093400002 -0.032299999 0.81999999
-0.092 -0.032299999 0.81999999
-0.090700001 -0.032400001 0.82099998
-0.089599997 -0.032499999 0.824
-0.088299997 -0.032499999 0.82499999
-0.086800002 -0.032499999 0.82499999
-0.085299999 -0.032499999 0.824
-0.083800003 -0.032400001 0.82300001
-0.082099997 -0.032400001 0.82099998
-0.080600001 -0.032299999 0.81999999
-0.079099998 -0.032299999 0.81900001
-0.077600002 -0.032200001 0.81800002
-0.076099999 -0.032200001 0.81699997
-0.074500002 -0.032099999 0.815
-0.073200002 -0.032200001 0.81699997
-0.072899997 -0.032699998 0.829
-0.071599998 -0.0328 0.83099997
-0.070100002 -0.032699998 0.82999998
-0.068700001 -0.0328 0.83099997
-0.067299999 -0.0328 0.83099997
-0.065899998 -0.0328 0.83200002
-0.064599998 -0.0328 0.833
-0.063100003 -0.0328 0.833
-0.061700001 -0.0328 0.833
-0.060199998 -0.0328 0.833
-0.058699999 -0.0328 0.83200002
-0.057300001 -0.0328 0.83200002
-0.055799998 -0.0328 0.83200002
-0.052900001 -0.0328 0.83099997
-0.045499999 -0.032600001 0.82700002
-0.043900002 -0.032499999 0.82499999
-0.040800001 -0.0348 0.88200003
-0.0394 -0.0348 0.884
-0.037999999 -0.034899998 0.88599998
-0.036400001 -0.034899998 0.88599998
-0.034899998 -0.034899998 0.88599998
-0.033399999 -0.035 0.88800001
-0.0319 -0.035 0.88800001
-0.030400001 -0.035 0.88800001
-0.0288 -0.035 0.88800001
-0.025699999 -0.035 0.88800001
-0.0242 -0.035 0.88800001
-0.022700001 -0.035 0.88800001
-0.0211 -0.035 0.88800001
-0.0196 -0.035 0.889
-0.018100001 -0.035100002 0.88999999
-0.0165 -0.035100002 0.88999999
-0.015 -0.035100002 0.89099997
-0.0135 -0.035100002 0.88999999
-0.0119 -0.035100002 0.88999999
-0.0104 -0.035 0.889
-0.0088 -0.035 0.88800001
0.0082 -0.035399999 0.89700001
0.0097000003 -0.035300002 0.89499998
0.0113 -0.035300002 0.89499998
0.0128 -0.0352 0.89399999
0.0144 -0.0352 0.89300001
0.015900001 -0.035100002 0.89099997
0.0189 -0.035100002 0.88999999
0.020500001 -0.035100002 0.88999999
0.022 -0.035100002 0.88999999
0.023600001 -0.035100002 0.89099997
0.0252 -0.0352 0.89300001
0.026799999 -0.0352 0.89399999
0.0283 -0.0352 0.89399999
0.029899999 -0.035300002 0.89499998
0.031500001 -0.035300002 0.89499998
0.033 -0.035300002 0.89499998
0.034600001 -0.035300002 0.89499998
0.0361 -0.035300002 0.89499998
0.037700001 -0.035300002 0.89600003
0.039299998 -0.035399999 0.89700001
0.040899999 -0.035399999 0.898
0.0425 -0.035399999 0.89899999
0.044199999 -0.035500001 0.90100002
0.0458 -0.035599999 0.90200001
0.0473 -0.035500001 0.90100002
0.048799999 -0.035500001 0.90100002
0.0625 -0.035300002 0.89499998
0.0638 -0.0352 0.89200002
0.065399997 -0.0352 0.89300001
0.066799998 -0.035100002 0.89099997
0.068400003 -0.035100002 0.89099997
0.069899999 -0.035100002 0.89099997
0.071500003 -0.035100002 0.89099997
0.072999999 -0.035100002 0.89099997
0.074500002 -0.035100002 0.88999999
0.075999998 -0.035100002 0.88999999
0.077600002 -0.035100002 0.88999999
0.079099998 -0.035100002 0.88999999
0.080600001 -0.035100002 0.88999999
0.082199998 -0.035100002 0.88999999
0.083700001 -0.035100002 0.88999999
0.085299999 -0.035100002 0.88999999
0.086800002 -0.035100002 0.88999999
0.088299997 -0.035100002 0.88999999
0.090000004 -0.035100002 0.89099997
0.091700003 -0.0352 0.89300001
0.093400002 -0.0352 0.89399999
0.095200002 -0.035300002 0.89600003
0.096900001 -0.035399999 0.898
0.098499998 -0.035399999 0.898
0.1001 -0.035399999 0.89899999
0.1017 -0.035399999 0.89899999
0.103 -0.035399999 0.89700001
0.1044 -0.035300002 0.89499998
0.1056 -0.0352 0.89200002
0.1069 -0.035100002 0.88999999
0.1082 -0.035 0.88800001
0.1096 -0.035 0.88700002
0.1111 -0.035 0.88700002
0.1175 -0.035 0.889
0.1191 -0.035 0.889
0.1205 -0.035 0.88800001
0.1223 -0.035100002 0.88999999
0.1237 -0.035 0.889
0.1252 -0.035 0.889
0.1269 -0.035100002 0.88999999
0.1285 -0.035100002 0.88999999
0.1301 -0.035100002 0.89099997
0.132 -0.0352 0.89300001
0.13349999 -0.0352 0.89300001
0.13510001 -0.0352 0.89300001
0.13680001 -0.0352 0.89399999
0.1383 -0.0352 0.89399999
0.1397 -0.0352 0.89300001
0.141 -0.035100002 0.89099997
0.1425 -0.035100002 0.89099997
0.14390001 -0.035100002 0.88999999
0.1453 -0.035 0.889
0.14659999 -0.035 0.88800001
0.14830001 -0.035 0.889
0.15000001 -0.035100002 0.88999999
0.15180001 -0.035100002 0.89099997
0.15350001 -0.0352 0.89200002
0.1552 -0.0352 0.89300001
0.1567 -0.0352 0.89300001
0.1583 -0.0352 0.89300001
0.1595 -0.035100002 0.89099997
0.161 -0.035100002 0.89099997
0.16240001 -0.035100002 0.88999999
0.1639 -0.035100002 0.88999999
0.1653 -0.035 0.889
0.16680001 -0.035 0.889
0.16859999 -0.035100002 0.88999999
0.1707 -0.0352 0.89300001
0.17299999 -0.035399999 0.89700001
0.1745 -0.035399999 0.89700001
0.1763 -0.035399999 0.898
0.17829999 -0.035500001 0.89999998
0.1798 -0.035500001 0.89999998
0.1816 -0.035500001 0.90100002
0.1831 -0.035500001 0.90100002
0.1847 -0.035500001 0.90100002
0.18629999 -0.035500001 0.90100002
0.18780001 -0.035500001 0.90100002
0.18960001 -0.035599999 0.90200001
0.19159999 -0.035599999 0.90399998
0.1925 -0.035500001 0.90100002
0.193 -0.035300002 0.89600003
-0.37439999 -0.032900002 0.87199998
-0.35530001 -0.032600001 0.866
-0.31760001 -0.033100002 0.87800002
-0.31639999 -0.033100002 0.87900001
-0.31560001 -0.033199999 0.88099998
-0.3145 -0.033199999 0.88200003
-0.23119999 -0.033300001 0.88499999
-0.2296 -0.033300001 0.88499999
-0.2281 -0.033300001 0.88499999
-0.2263 -0.033300001 0.884
-0.22480001 -0.033300001 0.884
-0.2235 -0.033300001 0.88499999
-0.2217 -0.033300001 0.884
-0.22040001 -0.033300001 0.88499999
-0.2189 -0.033300001 0.88499999
-0.2174 -0.033300001 0.88499999
-0.2066 -0.032900002 0.87199998
-0.2044 -0.032699998 0.86900002
-0.20290001 -0.032699998 0.86900002
-0.20119999 -0.032699998 0.86799997
-0.1997 -0.032699998 0.86799997
-0.1982 -0.032699998 0.86799997
-0.1971 -0.0328 0.87
-0.19599999 -0.032900002 0.87199998
-0.1957 -0.033 0.87699997
-0.19499999 -0.033199999 0.88099998
-0.18960001 -0.033300001 0.884
-0.18799999 -0.033300001 0.884
-0.1865 -0.033300001 0.884
-0.18359999 -0.033300001 0.88499999
-0.18189999 -0.033300001 0.884
-0.1797 -0.033199999 0.88099998
-0.1697 -0.032400001 0.861
-0.16680001 -0.032200001 0.85399997
-0.1564 -0.031300001 0.82999998
-0.15440001 -0.031199999 0.82700002
-0.15260001 -0.031099999 0.82499999
-0.15019999 -0.0309 0.81999999
-0.1488 -0.0309 0.81999999
-0.1478 -0.030999999 0.82200003
-0.14650001 -0.030999999 0.82300001
-0.1453 -0.031099999 0.824
-0.14380001 -0.031099999 0.824
-0.1426 -0.031099999 0.82499999
-0.14129999 -0.031099999 0.82599998
-0.1397 -0.031099999 0.82499999
-0.1381 -0.031099999 0.824
-0.13689999 -0.031099999 0.82499999
-0.1354 -0.031099999 0.82499999
-0.134 -0.031099999 0.82499999
-0.13259999 -0.031099999 0.82499999
-0.1313 -0.031099999 0.82599998
-0.1302 -0.031199999 0.82800001
-0.1286 -0.031199999 0.82700002
-0.127 -0.031099999 0.82599998
-0.12540001 -0.031099999 0.82499999
-0.1241 -0.031099999 0.82599998
-0.1227 -0.031099999 0.82599998
-0.1213 -0.031099999 0.82599998
-0.12 -0.031199999 0.82700002
-0.1189 -0.031199999 0.829
-0.1177 -0.031300001 0.83099997
-0.1164 -0.031399999 0.83200002
-0.1151 -0.031399999 0.833
-0.1135 -0.031399999 0.83200002
-0.1121 -0.031399999 0.83200002
-0.1105 -0.031300001 0.83099997
-0.1091 -0.031300001 0.83099997
-0.1075 -0.031300001 0.82999998
-0.1059 -0.031199999 0.829
-0.104 -0.031099999 0.82499999
-0.1022 -0.030999999 0.82200003
-0.1004 -0.0309 0.81900001
-0.0986 -0.0307 0.81599998
-0.097099997 -0.0307 0.815
-0.095799997 -0.0307 0.81599998
-0.094499998 -0.0308 0.81699997
-0.0933 -0.0309 0.81900001
-0.092200004 -0.030999999 0.82200003
-0.090999998 -0.031099999 0.824
-0.089900002 -0.031199999 0.82700002
-0.088600002 -0.031199999 0.82800001
-0.086999997 -0.031199999 0.82700002
-0.085500002 -0.031099999 0.82599998
-0.083899997 -0.031099999 0.824
-0.082199998 -0.030999999 0.82200003
-0.080600001 -0.0309 0.81999999
-0.079099998 -0.0309 0.81900001
-0.077600002 -0.0308 0.81800002
-0.073100001 -0.031399999 0.83200002
-0.071699999 -0.031399999 0.83200002
-0.070200004 -0.031300001 0.83099997
-0.068700001 -0.031300001 0.83099997
-0.067299999 -0.031300001 0.83099997
-0.065899998 -0.031399999 0.83200002
-0.064499997 -0.031399999 0.83200002
-0.063000001 -0.031399999 0.83200002
-0.0616 -0.031399999 0.83200002
-0.060199998 -0.031399999 0.83200002
-0.058699999 -0.031399999 0.83200002
-0.057300001 -0.031399999 0.83200002
-0.039299998 -0.033199999 0.88200003
-0.036400001 -0.033300001 0.88499999
-0.0348 -0.033300001 0.884
-0.033399999 -0.033399999 0.88599998
-0.030300001 -0.033399999 0.88700002
-0.0288 -0.033399999 0.88700002
-0.0272 -0.033399999 0.88700002
-0.025699999 -0.033500001 0.88800001
-0.0242 -0.033500001 0.88800001
-0.022700001 -0.033500001 0.88800001
-0.0211 -0.033500001 0.88800001
-0.0196 -0.033500001 0.88999999
-0.018100001 -0.033500001 0.88999999
-0.0166 -0.033599999 0.89200002
-0.015 -0.0337 0.89300001
-0.0135 -0.0337 0.89300001
-0.0119 -0.033599999 0.89099997
-0.0104 -0.033599999 0.89099997
0.020500001 -0.033599999 0.89099997
0.022 -0.033500001 0.88999999
0.023600001 -0.033599999 0.89099997
0.0251 -0.033599999 0.89099997
0.026699999 -0.033599999 0.89200002
0.0283 -0.033599999 0.89200002
0.0298 -0.033599999 0.89200002
0.031399999 -0.0337 0.89300001
0.032900002 -0.0337 0.89300001
0.034499999 -0.0337 0.89300001
0.035999998 -0.0337 0.89300001
0.037700001 -0.0337 0.89499998
0.039299998 -0.033799998 0.89600003
0.040899999 -0.033799998 0.898
0.0425 -0.0339 0.89999998
0.044199999 -0.034000002 0.90200001
0.0458 -0.034000002 0.903
0.0473 -0.034000002 0.90200001
0.048799999 -0.034000002 0.90100002
0.060699999 -0.033599999 0.89200002
0.0623 -0.0337 0.89300001
0.063699998 -0.033599999 0.89099997
0.065399997 -0.0337 0.89300001
0.067000002 -0.0337 0.89300001
0.068499997 -0.033599999 0.89200002
0.070100002 -0.0337 0.89300001
0.071599998 -0.0337 0.89300001
0.073100001 -0.033599999 0.89200002
0.074600004 -0.033599999 0.89099997
0.075999998 -0.033500001 0.88999999
0.077600002 -0.033500001 0.88999999
0.079099998 -0.033500001 0.88999999
0.080600001 -0.033500001 0.88999999
0.082199998 -0.033500001 0.88999999
0.083700001 -0.033500001 0.88999999
0.085299999 -0.033500001 0.88999999
0.086800002 -0.033500001 0.88999999
0.088299997 -0.033500001 0.88999999
0.090000004 -0.033599999 0.89099997
0.091700003 -0.0337 0.89300001
0.093400002 -0.0337 0.89399999
0.095200002 -0.033799998 0.89600003
0.096900001 -0.033799998 0.898
0.098499998 -0.033799998 0.898
0.1001 -0.0339 0.89899999
0.1017 -0.0339 0.89899999
0.1032 -0.033799998 0.898
0.1045 -0.033799998 0.89600003
0.1057 -0.0337 0.89300001
0.107 -0.033599999 0.89099997
0.1084 -0.033500001 0.88999999
0.1099 -0.033500001 0.88999999
0.1115 -0.033500001 0.88999999
0.1192 -0.033500001 0.88999999
0.1207 -0.033500001 0.88999999
0.1224 -0.033599999 0.89099997
0.124 -0.033599999 0.89099997
0.1258 -0.0337 0.89300001
0.1275 -0.0337 0.89399999
0.1292 -0.0337 0.89499998
0.1309 -0.033799998 0.89600003
0.13240001 -0.033799998 0.89600003
0.1338 -0.0337 0.89499998
0.1354 -0.0337 0.89499998
0.13689999 -0.0337 0.89499998
0.1383 -0.0337 0.89399999
0.1399 -0.0337 0.89399999
0.1411 -0.033599999 0.89200002
0.1425 -0.033599999 0.89099997
0.14390001 -0.033500001 0.88999999
0.1454 -0.033500001 0.88999999
0.1468 -0.033500001 0.889
0.1485 -0.033500001 0.88999999
0.15019999 -0.033599999 0.89099997
0.15350001 -0.033599999 0.89200002
0.1552 -0.0337 0.89300001
0.1567 -0.0337 0.89300001
0.1593 -0.033500001 0.88999999
0.1608 -0.033500001 0.88999999
0.16240001 -0.033500001 0.88999999
0.1639 -0.033500001 0.88999999
0.1655 -0.033500001 0.88999999
0.167 -0.033500001 0.88999999
0.1689 -0.033599999 0.89200002
0.17110001 -0.0337 0.89499998
0.1732 -0.033799998 0.898
0.17470001 -0.033799998 0.898
0.17649999 -0.0339 0.89899999
0.17829999 -0.0339 0.89999998
0.18000001 -0.034000002 0.90100002
0.1816 -0.034000002 0.90100002
0.18350001 -0.034000002 0.903
0.1849 -0.034000002 0.90200001
0.1865 -0.034000002 0.90200001
0.18780001 -0.034000002 0.90100002
0.1894 -0.034000002 0.90100002
0.19140001 -0.034000002 0.903
0.1925 -0.034000002 0.90100002
0.1934 -0.033799998 0.898
0.1945 -0.033799998 0.89600003
-0.4003 -0.031099999 0.866
-0.37290001 -0.031300001 0.87199998
-0.37180001 -0.031399999 0.87300003
-0.35679999 -0.031099999 0.866
-0.35569999 -0.031199999 0.86699998
-0.33809999 -0.031300001 0.87199998
-0.3263 -0.031800002 0.88499999
-0.32440001 -0.031800002 0.884
-0.32170001 -0.0317 0.88099998
-0.3202 -0.0317 0.88099998
-0.31869999 -0.0317 0.88099998
-0.3168 -0.031599998 0.88
-0.31529999 -0.031599998 0.88
-0.3141 -0.0317 0.88099998
-0.23119999 -0.031800002 0.88499999
-0.2296 -0.031800002 0.88499999
-0.2281 -0.031800002 0.88499999
-0.22660001 -0.031800002 0.88499999
-0.22499999 -0.031800002 0.88499999
-0.2235 -0.031800002 0.88499999
-0.222 -0.031800002 0.88499999
-0.22040001 -0.031800002 0.88499999
-0.2189 -0.031800002 0.88499999
-0.2174 -0.031800002 0.88499999
-0.2156 -0.031800002 0.884
-0.21359999 -0.0317 0.88200003
-0.2069 -0.031399999 0.87300003
-0.2049 -0.031300001 0.87099999
-0.2031 -0.031300001 0.87
-0.2016 -0.031300001 0.87
-0.2001 -0.031300001 0.87
-0.19859999 -0.031300001 0.87
-0.19760001 -0.031300001 0.87199998
-0.19670001 -0.031500001 0.875
-0.19589999 -0.031599998 0.87800002
-0.1952 -0.0317 0.88200003
-0.1939 -0.0317 0.88300002
-0.1911 -0.031800002 0.884
-0.18960001 -0.031800002 0.884
-0.18780001 -0.0317 0.88300002
-0.1865 -0.031800002 0.884
-0.185 -0.031800002 0.884
-0.1832 -0.0317 0.88300002
-0.1813 -0.0317 0.88099998
-0.1787 -0.031500001 0.87599999
-0.1661 -0.0306 0.85000002
-0.1578 -0.0298 0.82999998
-0.15620001 -0.0298 0.829
-0.15440001 -0.0297 0.82700002
-0.15279999 -0.0297 0.82599998
-0.1512 -0.0297 0.82499999
-0.1497 -0.0297 0.82499999
-0.14830001 -0.0297 0.82499999
-0.1469 -0.0297 0.82499999
-0.14560001 -0.0297 0.82599998
-0.1442 -0.0297 0.82599998
-0.1428 -0.0297 0.82599998
-0.14129999 -0.0297 0.82599998
-0.13959999 -0.0296 0.824
-0.1383 -0.0297 0.82499999
-0.13689999 -0.0297 0.82499999
-0.1354 -0.0297 0.82499999
-0.134 -0.0297 0.82499999
-0.13259999 -0.0297 0.82499999
-0.1313 -0.0297 0.82599998
-0.13 -0.0297 0.82700002
-0.1284 -0.0297 0.82599998
-0.127 -0.0297 0.82599998
-0.12530001 -0.0296 0.824
-0.124 -0.0297 0.82499999
-0.1226 -0.0297 0.82499999
-0.1211 -0.0297 0.82499999
-0.1199 -0.0297 0.82599998
-0.1189 -0.0298 0.829
-0.1176 -0.0298 0.82999998
-0.1163 -0.029899999 0.83099997
-0.115 -0.029899999 0.83200002
-0.1135 -0.029899999 0.83200002
-0.1121 -0.029899999 0.83200002
-0.1106 -0.029899999 0.83200002
-0.1091 -0.029899999 0.83099997
-0.1076 -0.029899999 0.83099997
-0.106 -0.0298 0.82999998
-0.1042 -0.0297 0.82700002
-0.1024 -0.0296 0.824
-0.1005 -0.0295 0.81999999
-0.0986 -0.029300001 0.81599998
-0.097099997 -0.029300001 0.815
-0.095700003 -0.029300001 0.815
-0.094400004 -0.029300001 0.81599998
-0.093400002 -0.0295 0.81999999
-0.092399999 -0.0296 0.824
-0.091200002 -0.0297 0.82599998
-0.090099998 -0.0298 0.829
-0.088699996 -0.0298 0.829
-0.087099999 -0.0298 0.82800001
-0.085600004 -0.0297 0.82700002
-0.083999999 -0.0297 0.82499999
-0.0823 -0.0296 0.82300001
-0.080600001 -0.0295 0.81999999
-0.079000004 -0.0294 0.81800002
-0.077500001 -0.0294 0.81699997
-0.076099999 -0.0294 0.81699997
-0.073100001 -0.029899999 0.83200002
-0.071599998 -0.029899999 0.83099997
-0.070200004 -0.029899999 0.83099997
-0.068599999 -0.0298 0.82999998
-0.067199998 -0.0298 0.82999998
-0.065899998 -0.029899999 0.83099997
-0.064499997 -0.029899999 0.83200002
-0.063000001 -0.029899999 0.83200002
-0.061500002 -0.029899999 0.83099997
-0.060199998 -0.029899999 0.83200002
-0.058699999 -0.029899999 0.83200002
-0.057300001 -0.029899999 0.83200002
-0.055799998 -0.029899999 0.83099997
-0.054299999 -0.029899999 0.83099997
-0.048300002 -0.0297 0.82700002
-0.046799999 -0.0297 0.82599998
-0.0407 -0.0294 0.81800002
-0.030300001 -0.031800002 0.88499999
-0.0272 -0.031800002 0.88499999
-0.0242 -0.0319 0.88700002
-0.022600001 -0.0319 0.88700002
-0.0211 -0.0319 0.88700002
-0.0196 -0.0319 0.88800001
-0.018100001 -0.032000002 0.889
-0.0166 -0.032099999 0.89200002
-0.0151 -0.032099999 0.89399999
-0.0135 -0.032099999 0.89300001
-0.0119 -0.032099999 0.89200002
-0.0104 -0.032000002 0.89099997
-0.0088 -0.032099999 0.89200002
0.022 -0.032000002 0.88999999
0.023600001 -0.032000002 0.89099997
0.0251 -0.032000002 0.89099997
0.026699999 -0.032000002 0.89099997
0.028200001 -0.032000002 0.89099997
0.0298 -0.032000002 0.89099997
0.031300001 -0.032099999 0.89200002
0.032900002 -0.032099999 0.89200002
0.034400001 -0.032000002 0.89099997
0.0359 -0.032000002 0.89099997
0.037500001 -0.032000002 0.89099997
0.039099999 -0.032099999 0.89300001
0.040800001 -0.032200001 0.89600003
0.042399999 -0.032200001 0.89700001
0.044100001 -0.032400001 0.89999998
0.045699999 -0.032400001 0.90100002
0.0473 -0.032400001 0.90100002
0.048799999 -0.032400001 0.90100002
0.0504 -0.032400001 0.90100002
0.052000001 -0.032400001 0.90100002
0.060699999 -0.032000002 0.89099997
0.062199999 -0.032000002 0.89099997
0.063699998 -0.032000002 0.89099997
0.065399997 -0.032099999 0.89300001
0.067100003 -0.032099999 0.89399999
0.068599999 -0.032099999 0.89399999
0.070200004 -0.032200001 0.89499998
0.071900003 -0.032200001 0.89600003
0.073299997 -0.032200001 0.89499998
0.074699998 -0.032099999 0.89300001
0.076300003 -0.032099999 0.89300001
0.077699997 -0.032099999 0.89200002
0.0792 -0.032000002 0.89099997
0.080700003 -0.032000002 0.89099997
0.0823 -0.032000002 0.89099997
0.083800003 -0.032000002 0.89099997
0.0854 -0.032000002 0.89099997
0.086900003 -0.032000002 0.89099997
0.088399999 -0.032000002 0.89099997
0.090000004 -0.032000002 0.89099997
0.091700003 -0.032099999 0.89300001
0.093500003 -0.032200001 0.89499998
0.095299996 -0.032200001 0.89700001
0.096900001 -0.032299999 0.898
0.098499998 -0.032299999 0.898
0.1001 -0.032299999 0.89899999
0.1016 -0.032299999 0.898
0.1032 -0.032299999 0.898
0.1044 -0.032200001 0.89499998
0.1057 -0.032099999 0.89300001
0.107 -0.032000002 0.89099997
0.1085 -0.032000002 0.89099997
0.1101 -0.032000002 0.89099997
0.1116 -0.032000002 0.89099997
0.1132 -0.032000002 0.89099997
0.1164 -0.032099999 0.89200002
0.1179 -0.032099999 0.89200002
0.1195 -0.032099999 0.89200002
0.121 -0.032099999 0.89200002
0.1228 -0.032099999 0.89399999
0.1244 -0.032099999 0.89399999
0.12620001 -0.032200001 0.89600003
0.12809999 -0.032299999 0.898
0.12980001 -0.032299999 0.89899999
0.13150001 -0.032400001 0.89999998
0.133 -0.032400001 0.89999998
0.1344 -0.032299999 0.89899999
0.1358 -0.032299999 0.898
0.1374 -0.032299999 0.898
0.13860001 -0.032200001 0.89600003
0.14 -0.032200001 0.89499998
0.1416 -0.032200001 0.89499998
0.1428 -0.032099999 0.89300001
0.14399999 -0.032000002 0.89099997
0.14560001 -0.032000002 0.89099997
0.1471 -0.032000002 0.89099997
0.1488 -0.032099999 0.89200002
0.15019999 -0.032000002 0.89099997
0.15189999 -0.032099999 0.89200002
0.15350001 -0.032099999 0.89200002
0.155 -0.032099999 0.89200002
0.15790001 -0.032000002 0.89099997
0.1593 -0.032000002 0.88999999
0.16069999 -0.032000002 0.889
0.1622 -0.032000002 0.889
0.1639 -0.032000002 0.88999999
0.1655 -0.032000002 0.88999999
0.167 -0.032000002 0.88999999
0.16869999 -0.032000002 0.89099997
0.1707 -0.032099999 0.89300001
0.17299999 -0.032200001 0.89700001
0.17470001 -0.032299999 0.898
0.17649999 -0.032299999 0.89899999
0.17829999 -0.032400001 0.89999998
0.18000001 -0.032400001 0.90100002
0.1814 -0.032400001 0.89999998
0.1831 -0.032400001 0.90100002
0.18449999 -0.032400001 0.89999998
0.18610001 -0.032400001 0.89999998
0.18719999 -0.032299999 0.898
0.18870001 -0.032299999 0.898
0.19069999 -0.032400001 0.89999998
0.19230001 -0.032400001 0.89999998
0.1934 -0.032299999 0.898
0.1945 -0.032200001 0.89600003
-0.4034 -0.0295 0.86299998
-0.4003 -0.0296 0.866
-0.3716 -0.0297 0.86900002
-0.37009999 -0.0297 0.86900002
-0.3222 -0.029999999 0.87800002
-0.31959999 -0.029899999 0.875
-0.3184 -0.029999999 0.87599999
-0.31690001 -0.029999999 0.87599999
-0.31569999 -0.029999999 0.87699997
-0.31420001 -0.029999999 0.87699997
-0.3134 -0.030099999 0.87900001
-0.3114 -0.030200001 0.88200003
-0.31020001 -0.030200001 0.88300002
-0.23119999 -0.030300001 0.88499999
-0.2296 -0.030300001 0.88499999
-0.22840001 -0.030300001 0.88599998
-0.22660001 -0.030300001 0.88499999
-0.2253 -0.030300001 0.88599998
-0.2238 -0.030300001 0.88599998
-0.22220001 -0.030300001 0.88599998
-0.2209 -0.030300001 0.88700002
-0.2192 -0.030300001 0.88599998
-0.2176 -0.030300001 0.88599998
-0.2158 -0.030300001 0.88499999
-0.2141 -0.030200001 0.884
-0.2121 -0.030200001 0.88200003
-0.2098 -0.030099999 0.87900001
-0.20730001 -0.029899999 0.875
-0.20559999 -0.029899999 0.87400001
-0.20379999 -0.029899999 0.87300003
-0.20209999 -0.0298 0.87199998
-0.2006 -0.0298 0.87199998
-0.1998 -0.029899999 0.875
-0.1989 -0.029999999 0.87800002
-0.19760001 -0.030099999 0.87900001
-0.1965 -0.030099999 0.88099998
-0.1955 -0.030200001 0.88300002
-0.19410001 -0.030200001 0.884
-0.1928 -0.030300001 0.88499999
-0.1913 -0.030300001 0.88499999
-0.18799999 -0.030200001 0.884
-0.1865 -0.030200001 0.884
-0.1679 -0.029200001 0.852
-0.16 -0.0285 0.83399999
-0.1576 -0.0284 0.829
-0.1558 -0.0283 0.82700002
-0.1542 -0.0283 0.82599998
-0.15279999 -0.0283 0.82599998
-0.1512 -0.028200001 0.82499999
-0.1499 -0.0283 0.82599998
-0.1485 -0.0283 0.82599998
-0.1471 -0.0283 0.82599998
-0.14560001 -0.0283 0.82599998
-0.1442 -0.0283 0.82599998
-0.1428 -0.0283 0.82599998
-0.14120001 -0.028200001 0.82499999
-0.13959999 -0.028200001 0.824
-0.1381 -0.028200001 0.824
-0.1367 -0.028200001 0.824
-0.1353 -0.028200001 0.824
-0.134 -0.028200001 0.82499999
-0.13259999 -0.028200001 0.82499999
-0.1313 -0.0283 0.82599998
-0.13 -0.0283 0.82700002
-0.1286 -0.0283 0.82700002
-0.12720001 -0.0283 0.82700002
-0.1256 -0.0283 0.82599998
-0.1238 -0.028200001 0.824
-0.1223 -0.028200001 0.82300001
-0.121 -0.028200001 0.824
-0.1199 -0.0283 0.82599998
-0.1187 -0.0283 0.82800001
-0.1176 -0.0284 0.82999998
-0.1163 -0.0284 0.83099997
-0.115 -0.0285 0.83200002
-0.1135 -0.0285 0.83200002
-0.1121 -0.0285 0.83200002
-0.1105 -0.0284 0.83099997
-0.1091 -0.0284 0.83099997
-0.1076 -0.0284 0.83099997
-0.1059 -0.0284 0.829
-0.1042 -0.0283 0.82700002
-0.1024 -0.028200001 0.824
-0.1004 -0.028000001 0.81900001
-0.0986 -0.027899999 0.81599998
-0.097000003 -0.027899999 0.81400001
-0.0955 -0.027899999 0.81400001
-0.094400004 -0.027899999 0.81599998
-0.093500003 -0.028100001 0.82099998
-0.092699997 -0.0283 0.82599998
-0.091399997 -0.0283 0.82800001
-0.0902 -0.0284 0.82999998
-0.088799998 -0.0284 0.82999998
-0.087300003 -0.0284 0.82999998
-0.0858 -0.0284 0.829
-0.084200002 -0.0283 0.82700002
-0.082500003 -0.028200001 0.82499999
-0.080799997 -0.028100001 0.82200003
-0.0792 -0.028100001 0.81999999
-0.077699997 -0.028000001 0.81900001
-0.076399997 -0.028100001 0.82099998
-0.075300001 -0.028200001 0.824
-0.0744 -0.0284 0.82999998
-0.073100001 -0.0285 0.83200002
-0.071599998 -0.0284 0.83099997
-0.070200004 -0.0284 0.83099997
-0.068599999 -0.0284 0.82999998
-0.067299999 -0.0284 0.83099997
-0.065899998 -0.0284 0.83099997
-0.064400002 -0.0284 0.83099997
-0.063000001 -0.0285 0.83200002
-0.0616 -0.0285 0.83200002
-0.060199998 -0.0285 0.83200002
-0.058699999 -0.0285 0.83200002
-0.057300001 -0.0285 0.83200002
-0.055799998 -0.0284 0.83099997
-0.054299999 -0.0284 0.83099997
-0.052900001 -0.0284 0.83099997
-0.049899999 -0.0284 0.829
-0.0484 -0.0283 0.82800001
-0.037 -0.0284 0.82999998
-0.031500001 -0.029999999 0.87800002
-0.0287 -0.030300001 0.88499999
-0.0272 -0.030300001 0.88499999
-0.025699999 -0.030300001 0.88599998
-0.0242 -0.030300001 0.88700002
-0.022600001 -0.030300001 0.88700002
-0.0211 -0.030400001 0.88800001
-0.0196 -0.0305 0.88999999
-0.018100001 -0.0305 0.88999999
-0.0166 -0.0306 0.89300001
-0.012 -0.0306 0.89300001
-0.0104 -0.0305 0.89200002
-0.0088 -0.0305 0.89200002
0.022 -0.0305 0.88999999
0.023600001 -0.0305 0.88999999
0.0251 -0.0305 0.88999999
0.0266 -0.0305 0.88999999
0.028200001 -0.0305 0.88999999
0.0298 -0.0305 0.89099997
0.031300001 -0.0305 0.89099997
0.032900002 -0.0305 0.89099997
0.034400001 -0.0305 0.88999999
0.0359 -0.0305 0.88999999
0.0374 -0.0305 0.88999999
0.039000001 -0.0305 0.88999999
0.0407 -0.0306 0.89300001
0.042300001 -0.0306 0.89499998
0.044 -0.0307 0.898
0.045699999 -0.0308 0.90100002
0.0473 -0.0308 0.90100002
0.048799999 -0.0308 0.90100002
0.0504 -0.0308 0.90100002
0.052000001 -0.0308 0.90100002
0.060699999 -0.0305 0.89099997
0.062100001 -0.0305 0.88999999
0.063699998 -0.0305 0.89099997
0.0656 -0.0306 0.89499998
0.067100003 -0.0306 0.89499998
0.068700001 -0.0306 0.89499998
0.0704 -0.0307 0.89700001
0.071999997 -0.0307 0.898
0.0735 -0.0307 0.89700001
0.074900001 -0.0306 0.89499998
0.076399997 -0.0306 0.89399999
0.0779 -0.0306 0.89399999
0.079400003 -0.0306 0.89300001
0.080799997 -0.0305 0.89200002
0.0823 -0.0305 0.89099997
0.083999999 -0.0306 0.89300001
0.085600004 -0.0306 0.89399999
0.087200001 -0.0306 0.89399999
0.088600002 -0.0306 0.89300001
0.0902 -0.0306 0.89300001
0.091899998 -0.0306 0.89499998
0.093599997 -0.0307 0.89600003
0.095399998 -0.0307 0.898
0.096900001 -0.0307 0.898
0.098499998 -0.0307 0.898
0.1001 -0.0308 0.89899999
0.1017 -0.0308 0.89899999
0.1032 -0.0307 0.898
0.1045 -0.0307 0.89600003
0.1057 -0.0306 0.89300001
0.1071 -0.0305 0.89200002
0.1086 -0.0305 0.89200002
0.1102 -0.0305 0.89200002
0.1117 -0.0305 0.89200002
0.1134 -0.0306 0.89300001
0.1151 -0.0306 0.89399999
0.1182 -0.0306 0.89399999
0.1196 -0.0306 0.89300001
0.1211 -0.0306 0.89300001
0.123 -0.0306 0.89499998
0.1265 -0.0307 0.898
0.12819999 -0.0308 0.89899999
0.12989999 -0.0308 0.89999998
0.13160001 -0.0308 0.90100002
0.133 -0.0308 0.89999998
0.1346 -0.0308 0.89999998
0.13600001 -0.0308 0.89899999
0.1374 -0.0307 0.898
0.1388 -0.0307 0.89700001
0.1402 -0.0307 0.89600003
0.1416 -0.0306 0.89499998
0.1428 -0.0306 0.89300001
0.1444 -0.0306 0.89300001
0.14560001 -0.0305 0.89099997
0.1471 -0.0305 0.89099997
0.1487 -0.0305 0.89099997
0.15019999 -0.0305 0.89099997
0.15180001 -0.0305 0.89099997
0.1578 -0.0305 0.88999999
0.1591 -0.030400001 0.889
0.16069999 -0.030400001 0.889
0.1622 -0.030400001 0.889
0.1637 -0.030400001 0.889
0.16509999 -0.030400001 0.88800001
0.16680001 -0.030400001 0.889
0.16869999 -0.0305 0.89099997
0.1705 -0.0305 0.89200002
0.1724 -0.0306 0.89399999
0.1742 -0.0306 0.89499998
0.1759 -0.0307 0.89600003
0.1779 -0.0307 0.898
0.1796 -0.0308 0.89899999
0.18099999 -0.0307 0.898
0.1825 -0.0307 0.898
0.1841 -0.0307 0.898
0.1856 -0.0307 0.898
0.1868 -0.0307 0.89600003
0.1881 -0.0306 0.89499998
0.18970001 -0.0306 0.89499998
0.1912 -0.0306 0.89499998
0.1926 -0.0306 0.89399999
0.1939 -0.0306 0.89300001
0.4639 -0.0579 1.691
-0.405 -0.027899999 0.86000001
-0.33809999 -0.0285 0.87599999
-0.32679999 -0.0284 0.87400001
-0.32409999 -0.0284 0.875
-0.31990001 -0.0285 0.87599999
-0.3184 -0.0285 0.87599999
-0.31650001 -0.0284 0.875
-0.315 -0.0284 0.875
-0.31349999 -0.0284 0.875
-0.3123 -0.0285 0.87599999
-0.31150001 -0.0285 0.87800002
-0.30840001 -0.0287 0.88200003
-0.3075 -0.0287 0.884
-0.2309 -0.0287 0.884
-0.2296 -0.0287 0.88499999
-0.2281 -0.0287 0.88499999
-0.22660001 -0.0287 0.88499999
-0.2253 -0.0288 0.88599998
-0.22400001 -0.0288 0.88700002
-0.22220001 -0.0288 0.88599998
-0.2209 -0.0288 0.88700002
-0.2192 -0.0288 0.88599998
-0.2174 -0.0287 0.88499999
-0.2156 -0.0287 0.884
-0.2138 -0.0287 0.88300002
-0.2121 -0.0287 0.88200003
-0.2098 -0.0286 0.87900001
-0.2076 -0.0285 0.87599999
-0.2061 -0.0285 0.87599999
-0.2043 -0.0284 0.875
-0.2023 -0.0284 0.87300003
-0.20100001 -0.0284 0.87400001
-0.2 -0.0285 0.87599999
-0.1991 -0.0286 0.87900001
