ply
format ascii 1.0
comment PCL generated
element vertex 1476
property float x
property float y
property float z
element camera 0
property float view_px
property float view_py
property float view_pz
property float x_axisx
property float x_axisy
property float x_axisz
property float y_axisx
property float y_axisy
property float y_axisz
property float z_axisx
property float z_axisy
property float z_axisz
property float focal
property float scalex
property float scaley
property float centerx
property float centery
property int viewportx
property int viewporty
property float k1
property float k2
end_header
-0.2784 -0.095600002 0.87900001
-0.27649999 -0.0955 0.87800002
-0.27410001 -0.095100001 0.875
-0.2719 -0.094899997 0.87300003
-0.4014 -0.092600003 0.86500001
-0.39989999 -0.092600003 0.86500001
-0.38060001 -0.093000002 0.86900002
-0.38 -0.093199998 0.87099999
-0.35679999 -0.093800001 0.87699997
-0.21439999 -0.093400002 0.87300003
-0.2122 -0.093099996 0.87
-0.21070001 -0.093099996 0.87
-0.2104 -0.093599997 0.875
-0.3994 -0.090999998 0.86400002
-0.38150001 -0.091700003 0.87099999
-0.3809 -0.091899998 0.87300003
-0.38069999 -0.092200004 0.87599999
-0.35609999 -0.092500001 0.87900001
-0.2174 -0.092500001 0.87900001
-0.2129 -0.091899998 0.87300003
-0.2114 -0.091899998 0.87300003
-0.2113 -0.092500001 0.87900001
-0.39179999 -0.0898 0.86699998
-0.39070001 -0.089900002 0.86799997
-0.38299999 -0.0902 0.87099999
-0.38240001 -0.090400003 0.87300003
-0.3822 -0.090700001 0.87599999
-0.3811 -0.090800002 0.87699997
-0.37959999 -0.090800002 0.87699997
-0.36219999 -0.090999998 0.87900001
-0.2141 -0.090899996 0.87800002
-0.39129999 -0.088200003 0.866
-0.39030001 -0.088299997 0.86699998
-0.3888 -0.088299997 0.86699998
-0.38339999 -0.088799998 0.87199998
-0.38240001 -0.0889 0.87300003
-0.38170001 -0.089100003 0.875
-0.38069999 -0.089199997 0.87599999
-0.3637 -0.089500003 0.87900001
-0.36090001 -0.089199997 0.87599999
-0.35820001 -0.0889 0.87300003
-0.35620001 -0.088799998 0.87199998
-0.35479999 -0.089199997 0.87599999
-0.29210001 -0.089500003 0.87900001
-0.23270001 -0.089500003 0.87900001
-0.2159 -0.089500003 0.87900001
-0.2141 -0.089400001 0.87800002
-0.21259999 -0.089400001 0.87800002
-0.38980001 -0.0867 0.866
-0.3883 -0.0867 0.866
-0.38240001 -0.087399997 0.87300003
-0.38170001 -0.0876 0.875
-0.3802 -0.0876 0.875
-0.36520001 -0.088 0.87900001
-0.3628 -0.087800004 0.87699997
-0.3601 -0.087499999 0.87400001
-0.35780001 -0.087300003 0.87199998
-0.35429999 -0.087200001 0.87099999
-0.35440001 -0.0876 0.875
-0.29660001 -0.088 0.87900001
-0.2951 -0.088 0.87900001
-0.29359999 -0.088 0.87900001
-0.29210001 -0.088 0.87900001
-0.2159 -0.088 0.87900001
-0.2141 -0.087899998 0.87800002
-0.2121 -0.087700002 0.87599999
-0.2111 -0.087899998 0.87800002
-0.2096 -0.087899998 0.87800002
-0.20829999 -0.088 0.87900001
-0.1504 -0.088 0.87900001
-0.38280001 -0.086000003 0.87400001
-0.3822 -0.086099997 0.87599999
-0.36160001 -0.086000003 0.87400001
-0.35929999 -0.0858 0.87199998
-0.35690001 -0.085600004 0.87
-0.35350001 -0.085500002 0.86900002
-0.35319999 -0.0858 0.87199998
-0.3317 -0.086400002 0.87900001
-0.32980001 -0.086300001 0.87800002
-0.32409999 -0.086400002 0.87900001
-0.3222 -0.086300001 0.87800002
-0.2956 -0.086099997 0.87599999
-0.29480001 -0.086300001 0.87800002
-0.2933 -0.086300001 0.87800002
-0.29170001 -0.086300001 0.87800002
-0.29049999 -0.086400002 0.87900001
-0.2129 -0.086400002 0.87900001
-0.2113 -0.086400002 0.87900001
-0.2098 -0.086400002 0.87900001
-0.2068 -0.086400002 0.87900001
-0.1504 -0.086400002 0.87900001
-0.1473 -0.086400002 0.87900001
-0.39129999 -0.083700001 0.866
-0.38510001 -0.083999999 0.86900002
-0.3612 -0.084299996 0.87300003
-0.35839999 -0.083999999 0.87
-0.3565 -0.083999999 0.86900002
-0.3378 -0.084899999 0.87900001
-0.3328 -0.084799998 0.87800002
-0.33019999 -0.0845 0.875
-0.3283 -0.084399998 0.87400001
-0.3256 -0.0845 0.875
-0.32139999 -0.084600002 0.87599999
-0.3195 -0.084899999 0.87900001
-0.31799999 -0.084899999 0.87900001
-0.29730001 -0.084200002 0.87199998
-0.29609999 -0.084299996 0.87300003
-0.29530001 -0.0845 0.875
-0.29440001 -0.084700003 0.87699997
-0.2933 -0.084799998 0.87800002
-0.29170001 -0.084799998 0.87800002
-0.2902 -0.084799998 0.87800002
-0.289 -0.084899999 0.87900001
-0.2098 -0.084899999 0.87900001
-0.2078 -0.084700003 0.87699997
-0.2061 -0.084600002 0.87599999
-0.2035 -0.084799998 0.87800002
-0.14579999 -0.084899999 0.87900001
-0.3985 -0.081799999 0.86199999
-0.3892 -0.082400002 0.86799997
-0.3378 -0.083400004 0.87900001
-0.33590001 -0.083300002 0.87800002
-0.33430001 -0.083300002 0.87800002
-0.33239999 -0.0832 0.87699997
-0.33019999 -0.082999997 0.875
-0.32789999 -0.082800001 0.87300003
-0.32600001 -0.082699999 0.87199998
-0.3249 -0.082800001 0.87300003
-0.32370001 -0.082900003 0.87400001
-0.32190001 -0.082800001 0.87300003
-0.30849999 -0.083300002 0.87800002
-0.2976 -0.082800001 0.87300003
-0.2956 -0.083099999 0.87599999
-0.29480001 -0.083300002 0.87800002
-0.2933 -0.083300002 0.87800002
-0.29170001 -0.083300002 0.87800002
-0.28870001 -0.083300002 0.87800002
-0.2872 -0.083300002 0.87800002
-0.27070001 -0.083400004 0.87900001
-0.26769999 -0.083400004 0.87900001
-0.23270001 -0.083400004 0.87900001
-0.2098 -0.083400004 0.87900001
-0.2076 -0.083099999 0.87599999
-0.2058 -0.082999997 0.875
-0.2007 -0.083400004 0.87900001
-0.15019999 -0.083300002 0.87800002
-0.1487 -0.083300002 0.87800002
-0.1472 -0.083300002 0.87800002
-0.14579999 -0.083400004 0.87900001
-0.40090001 -0.080499999 0.86400002
-0.39989999 -0.080600001 0.86500001
-0.39879999 -0.080700003 0.866
-0.3892 -0.080799997 0.86799997
-0.38769999 -0.080799997 0.86799997
-0.33629999 -0.081900001 0.87900001
-0.33430001 -0.081799999 0.87800002
-0.3328 -0.081799999 0.87800002
-0.33059999 -0.081600003 0.87599999
-0.3283 -0.0814 0.87400001
-0.32640001 -0.081299998 0.87300003
-0.3249 -0.081299998 0.87300003
-0.32339999 -0.081299998 0.87300003
-0.32190001 -0.081299998 0.87300003
-0.31959999 -0.081500001 0.875
-0.3188 -0.081699997 0.87699997
-0.31420001 -0.081699997 0.87699997
-0.31189999 -0.081900001 0.87900001
-0.31 -0.081799999 0.87800002
-0.30809999 -0.081699997 0.87699997
-0.3066 -0.081699997 0.87699997
-0.29480001 -0.081799999 0.87800002
-0.2933 -0.081799999 0.87800002
-0.29170001 -0.081799999 0.87800002
-0.28870001 -0.081799999 0.87800002
-0.2723 -0.081900001 0.87900001
-0.27070001 -0.081900001 0.87900001
-0.26890001 -0.081799999 0.87800002
-0.26769999 -0.081900001 0.87900001
-0.26620001 -0.081900001 0.87900001
-0.2098 -0.081900001 0.87900001
-0.20280001 -0.081500001 0.875
-0.1991 -0.081900001 0.87900001
-0.1517 -0.081799999 0.87800002
-0.15009999 -0.081699997 0.87699997
-0.14839999 -0.081600003 0.87599999
-0.1468 -0.081600003 0.87599999
-0.1453 -0.081600003 0.87599999
-0.1441 -0.081799999 0.87800002
-0.1428 -0.081900001 0.87900001
-0.14129999 -0.081900001 0.87900001
-0.1382 -0.081900001 0.87900001
-0.1367 -0.081900001 0.87900001
-0.13519999 -0.081900001 0.87900001
-0.40329999 -0.0792 0.866
-0.4014 -0.079099998 0.86500001
-0.3897 -0.079400003 0.86900002
-0.38820001 -0.079400003 0.86900002
-0.37009999 -0.079400003 0.86900002
-0.3572 -0.079300001 0.86699998
-0.33469999 -0.080300003 0.87900001
-0.3328 -0.080300003 0.87800002
-0.33059999 -0.0801 0.87599999
-0.32870001 -0.079999998 0.875
-0.32679999 -0.079899997 0.87400001
-0.32530001 -0.079899997 0.87400001
-0.32370001 -0.079899997 0.87400001
-0.32190001 -0.079800002 0.87300003
-0.31959999 -0.079999998 0.875
-0.3184 -0.0801 0.87599999
-0.31189999 -0.080300003 0.87900001
-0.31 -0.080300003 0.87800002
-0.30809999 -0.080200002 0.87699997
-0.3066 -0.080200002 0.87699997
-0.29800001 -0.079899997 0.87400001
-0.29679999 -0.079999998 0.875
-0.29480001 -0.080300003 0.87800002
-0.2933 -0.080300003 0.87800002
-0.29170001 -0.080300003 0.87800002
-0.2902 -0.080300003 0.87800002
-0.2692 -0.080300003 0.87900001
-0.26769999 -0.080300003 0.87900001
-0.2098 -0.080300003 0.87900001
-0.2078 -0.080200002 0.87699997
-0.2061 -0.0801 0.87599999
-0.2045 -0.0801 0.87599999
-0.20299999 -0.0801 0.87599999
-0.2015 -0.0801 0.87599999
-0.20020001 -0.080200002 0.87699997
-0.1991 -0.080300003 0.87900001
-0.15189999 -0.080300003 0.87900001
-0.1485 -0.080200002 0.87699997
-0.1468 -0.0801 0.87599999
-0.1452 -0.079999998 0.875
-0.14380001 -0.0801 0.87599999
-0.1426 -0.080300003 0.87800002
-0.14129999 -0.080300003 0.87900001
-0.1397 -0.080300003 0.87900001
-0.1382 -0.080300003 0.87900001
-0.13519999 -0.080300003 0.87900001
-0.1336 -0.080300003 0.87900001
-0.40180001 -0.077699997 0.866
-0.3856 -0.078000002 0.87
-0.3845 -0.078100003 0.87099999
-0.38339999 -0.078199998 0.87199998
-0.329 -0.078599997 0.87599999
-0.32710001 -0.078500003 0.875
-0.32370001 -0.078400001 0.87400001
-0.32190001 -0.078299999 0.87300003
-0.31959999 -0.078500003 0.875
-0.31799999 -0.078500003 0.875
-0.31299999 -0.078699999 0.87800002
-0.31150001 -0.078699999 0.87800002
-0.3096 -0.078599997 0.87699997
-0.30809999 -0.078599997 0.87699997
-0.30630001 -0.078599997 0.87599999
-0.30469999 -0.078599997 0.87599999
-0.29629999 -0.078699999 0.87800002
-0.29049999 -0.0788 0.87900001
-0.289 -0.0788 0.87900001
-0.28749999 -0.0788 0.87900001
-0.28600001 -0.0788 0.87900001
-0.222 -0.0788 0.87900001
-0.2202 -0.078699999 0.87800002
-0.2189 -0.0788 0.87900001
-0.20649999 -0.078699999 0.87800002
-0.205 -0.078699999 0.87800002
-0.20370001 -0.0788 0.87900001
-0.2022 -0.0788 0.87900001
-0.2007 -0.0788 0.87900001
-0.1717 -0.0788 0.87900001
-0.17020001 -0.0788 0.87900001
-0.1517 -0.078699999 0.87800002
-0.1499 -0.078599997 0.87599999
-0.14839999 -0.078599997 0.87599999
-0.14669999 -0.078500003 0.875
-0.1452 -0.078500003 0.875
-0.1436 -0.078500003 0.875
-0.1425 -0.078599997 0.87699997
-0.14129999 -0.0788 0.87900001
-0.1397 -0.0788 0.87900001
-0.1365 -0.078699999 0.87800002
-0.13519999 -0.0788 0.87900001
-0.1336 -0.0788 0.87900001
-0.3865 -0.076700002 0.87199998
-0.38499999 -0.076700002 0.87199998
-0.38339999 -0.076700002 0.87199998
-0.38190001 -0.076700002 0.87199998
-0.3804 -0.076700002 0.87199998
-0.37889999 -0.076700002 0.87199998
-0.32980001 -0.077200003 0.87800002
-0.32409999 -0.077 0.875
-0.315 -0.077 0.875
-0.31349999 -0.077 0.875
-0.3123 -0.077 0.87599999
-0.31079999 -0.077 0.87599999
-0.30930001 -0.077 0.87599999
-0.30779999 -0.077 0.87599999
-0.30630001 -0.077 0.87599999
-0.30469999 -0.077 0.87599999
-0.28749999 -0.077299997 0.87900001
-0.2814 -0.077299997 0.87900001
-0.27379999 -0.077299997 0.87900001
-0.2723 -0.077299997 0.87900001
-0.27070001 -0.077299997 0.87900001
-0.2692 -0.077299997 0.87900001
-0.2281 -0.077299997 0.87900001
-0.223 -0.077100001 0.87699997
-0.22149999 -0.077100001 0.87699997
-0.22 -0.077100001 0.87699997
-0.2189 -0.077299997 0.87900001
-0.20829999 -0.077299997 0.87900001
-0.20649999 -0.077200003 0.87800002
-0.2052 -0.077299997 0.87900001
-0.20370001 -0.077299997 0.87900001
-0.1732 -0.077299997 0.87900001
-0.1717 -0.077299997 0.87900001
-0.17020001 -0.077299997 0.87900001
-0.1499 -0.077 0.87599999
-0.14839999 -0.077 0.87599999
-0.14669999 -0.077 0.875
-0.1452 -0.077 0.875
-0.1436 -0.077 0.875
-0.1425 -0.077100001 0.87699997
-0.14129999 -0.077299997 0.87900001
-0.1184 -0.077299997 0.87900001
-0.1167 -0.077200003 0.87800002
-0.38499999 -0.075199999 0.87199998
-0.38339999 -0.075199999 0.87199998
-0.38190001 -0.075199999 0.87199998
-0.37889999 -0.075199999 0.87199998
-0.37740001 -0.075199999 0.87199998
-0.3567 -0.075300001 0.87300003
-0.35550001 -0.075300001 0.87400001
-0.35299999 -0.075800002 0.87900001
-0.31959999 -0.075400002 0.875
-0.31799999 -0.075400002 0.875
-0.31459999 -0.075300001 0.87400001
-0.31279999 -0.075300001 0.87300003
-0.31200001 -0.075400002 0.875
-0.3105 -0.075400002 0.875
-0.3089 -0.075400002 0.875
-0.30849999 -0.0757 0.87800002
-0.3073 -0.075800002 0.87900001
-0.2281 -0.075800002 0.87900001
-0.2263 -0.0757 0.87800002
-0.2243 -0.075499997 0.87599999
-0.2225 -0.075400002 0.875
-0.2174 -0.075800002 0.87900001
-0.20829999 -0.075800002 0.87900001
-0.20649999 -0.0757 0.87800002
-0.205 -0.0757 0.87800002
-0.2035 -0.0757 0.87800002
-0.17479999 -0.075800002 0.87900001
-0.1732 -0.075800002 0.87900001
-0.1717 -0.075800002 0.87900001
-0.17020001 -0.075800002 0.87900001
-0.1517 -0.0757 0.87800002
-0.1499 -0.075499997 0.87599999
-0.14820001 -0.075400002 0.875
-0.14650001 -0.075300001 0.87400001
-0.145 -0.075300001 0.87400001
-0.1436 -0.075400002 0.875
-0.1426 -0.0757 0.87800002
-0.1199 -0.075800002 0.87900001
-0.1183 -0.0757 0.87800002
-0.1167 -0.0757 0.87800002
-0.1152 -0.0757 0.87800002
-0.1138 -0.075800002 0.87900001
-0.40169999 -0.073399998 0.86900002
-0.40020001 -0.073399998 0.86900002
-0.38800001 -0.073700003 0.87199998
-0.38690001 -0.073700003 0.87300003
-0.3854 -0.073700003 0.87300003
-0.38389999 -0.073700003 0.87300003
-0.38240001 -0.073700003 0.87300003
-0.3809 -0.073700003 0.87300003
-0.3793 -0.073700003 0.87300003
-0.36199999 -0.073899999 0.875
-0.3567 -0.073700003 0.87300003
-0.35550001 -0.073799998 0.87400001
-0.35179999 -0.074000001 0.87599999
-0.31990001 -0.074000001 0.87599999
-0.3184 -0.074000001 0.87599999
-0.31619999 -0.073799998 0.87400001
-0.31279999 -0.073700003 0.87300003
-0.3116 -0.073799998 0.87400001
-0.31079999 -0.074000001 0.87599999
-0.31 -0.074199997 0.87800002
-0.27379999 -0.074299999 0.87900001
-0.26159999 -0.074299999 0.87900001
-0.25979999 -0.074199997 0.87800002
-0.2586 -0.074299999 0.87900001
-0.257 -0.074299999 0.87900001
-0.25549999 -0.074299999 0.87900001
-0.2263 -0.074199997 0.87800002
-0.2243 -0.074000001 0.87599999
-0.2225 -0.073899999 0.875
-0.2192 -0.073799998 0.87400001
-0.2159 -0.074299999 0.87900001
-0.2098 -0.074299999 0.87900001
-0.20829999 -0.074299999 0.87900001
-0.2068 -0.074299999 0.87900001
-0.205 -0.074199997 0.87800002
-0.2035 -0.074199997 0.87800002
-0.1763 -0.074299999 0.87900001
-0.1732 -0.074299999 0.87900001
-0.14820001 -0.073899999 0.875
-0.14650001 -0.073799998 0.87400001
-0.145 -0.073799998 0.87400001
-0.14380001 -0.074000001 0.87599999
-0.1426 -0.074199997 0.87800002
-0.1198 -0.074199997 0.87800002
-0.1183 -0.074199997 0.87800002
-0.1167 -0.074199997 0.87800002
-0.1152 -0.074199997 0.87800002
-0.1138 -0.074299999 0.87900001
-0.1123 -0.074299999 0.87900001
-0.40220001 -0.071999997 0.87
-0.40110001 -0.072099999 0.87099999
-0.3874 -0.072300002 0.87400001
-0.38389999 -0.0722 0.87300003
-0.38240001 -0.0722 0.87300003
-0.3809 -0.0722 0.87300003
-0.3793 -0.0722 0.87300003
-0.37740001 -0.0722 0.87199998
-0.35030001 -0.072499998 0.87599999
-0.31909999 -0.0726 0.87800002
-0.315 -0.072400004 0.875
-0.31310001 -0.072300002 0.87400001
-0.31200001 -0.072400004 0.875
-0.31119999 -0.0726 0.87699997
-0.2613 -0.0726 0.87800002
-0.22660001 -0.072700001 0.87900001
-0.22480001 -0.0726 0.87800002
-0.2228 -0.072499998 0.87599999
-0.21950001 -0.072400004 0.875
-0.2172 -0.0726 0.87800002
-0.2157 -0.0726 0.87800002
-0.21439999 -0.072700001 0.87900001
-0.2129 -0.072700001 0.87900001
-0.2068 -0.072700001 0.87900001
-0.2052 -0.072700001 0.87900001
-0.1778 -0.072700001 0.87900001
-0.1763 -0.072700001 0.87900001
-0.17479999 -0.072700001 0.87900001
-0.1732 -0.072700001 0.87900001
-0.15189999 -0.072700001 0.87900001
-0.1499 -0.072499998 0.87599999
-0.14820001 -0.072400004 0.875
-0.14669999 -0.072400004 0.875
-0.1452 -0.072400004 0.875
-0.14399999 -0.0726 0.87699997
-0.1428 -0.072700001 0.87900001
-0.1184 -0.072700001 0.87900001
-0.1123 -0.072700001 0.87900001
-0.3996 -0.070600003 0.87099999
-0.3854 -0.070699997 0.87300003
-0.38389999 -0.070699997 0.87300003
-0.38190001 -0.070600003 0.87199998
-0.3804 -0.070600003 0.87199998
-0.37889999 -0.070600003 0.87199998
-0.37650001 -0.070500001 0.87
-0.32100001 -0.071199998 0.87900001
-0.3195 -0.071199998 0.87900001
-0.31760001 -0.071099997 0.87800002
-0.3154 -0.071000002 0.87599999
-0.31349999 -0.070900001 0.875
-0.31200001 -0.070900001 0.875
-0.31150001 -0.071099997 0.87800002
-0.2235 -0.071199998 0.87900001
-0.2217 -0.071099997 0.87800002
-0.2202 -0.071099997 0.87800002
-0.21870001 -0.071099997 0.87800002
-0.2174 -0.071199998 0.87900001
-0.2159 -0.071199998 0.87900001
-0.21439999 -0.071199998 0.87900001
-0.2129 -0.071199998 0.87900001
-0.1761 -0.071099997 0.87800002
-0.17479999 -0.071199998 0.87900001
-0.1732 -0.071199998 0.87900001
-0.1499 -0.071000002 0.87599999
-0.14839999 -0.071000002 0.87599999
-0.14669999 -0.070900001 0.875
-0.1453 -0.071000002 0.87599999
-0.1441 -0.071099997 0.87800002
-0.38339999 -0.0691 0.87199998
-0.38150001 -0.0691 0.87099999
-0.37959999 -0.068999998 0.87
-0.37799999 -0.068999998 0.87
-0.36059999 -0.069700003 0.87900001
-0.354 -0.069300003 0.87400001
-0.34689999 -0.069700003 0.87900001
-0.31799999 -0.069700003 0.87900001
-0.31420001 -0.069499999 0.87699997
-0.31299999 -0.069600001 0.87800002
-0.31189999 -0.069700003 0.87900001
-0.22050001 -0.069700003 0.87900001
-0.2189 -0.069700003 0.87900001
-0.2174 -0.069700003 0.87900001
-0.2159 -0.069700003 0.87900001
-0.205 -0.069600001 0.87800002
-0.20370001 -0.069700003 0.87900001
-0.1763 -0.069700003 0.87900001
-0.1534 -0.069700003 0.87900001
-0.1517 -0.069600001 0.87800002
-0.1485 -0.069499999 0.87699997
-0.1468 -0.069399998 0.87599999
-0.14569999 -0.069600001 0.87800002
-0.1443 -0.069700003 0.87900001
-0.31639999 -0.0682 0.87900001
-0.31490001 -0.0682 0.87900001
-0.3134 -0.0682 0.87900001
-0.2174 -0.0682 0.87900001
-0.2159 -0.0682 0.87900001
-0.21439999 -0.0682 0.87900001
-0.2129 -0.0682 0.87900001
-0.2052 -0.0682 0.87900001
-0.20370001 -0.0682 0.87900001
-0.2022 -0.0682 0.87900001
-0.2007 -0.0682 0.87900001
-0.1793 -0.0682 0.87900001
-0.1776 -0.068099998 0.87800002
-0.17479999 -0.0682 0.87900001
-0.1534 -0.0682 0.87900001
-0.1516 -0.068000004 0.87699997
-0.1499 -0.067900002 0.87599999
-0.1487 -0.068099998 0.87800002
-0.1472 -0.068099998 0.87800002
-0.14579999 -0.0682 0.87900001
-0.36059999 -0.066600002 0.87900001
-0.34830001 -0.066 0.87099999
-0.2189 -0.066600002 0.87900001
-0.2172 -0.066600002 0.87800002
-0.2157 -0.066600002 0.87800002
-0.2141 -0.066600002 0.87800002
-0.2129 -0.066600002 0.87900001
-0.2052 -0.066600002 0.87900001
-0.20370001 -0.066600002 0.87900001
-0.20200001 -0.066600002 0.87800002
-0.20039999 -0.066600002 0.87800002
-0.1989 -0.066600002 0.87800002
-0.19760001 -0.066600002 0.87900001
-0.1824 -0.066600002 0.87900001
-0.1789 -0.066500001 0.87699997
-0.17739999 -0.066500001 0.87699997
-0.1534 -0.066600002 0.87900001
-0.1517 -0.066600002 0.87800002
-0.1499 -0.066399999 0.87599999
-0.1485 -0.066500001 0.87699997
-0.1472 -0.066600002 0.87800002
-0.345 -0.064999998 0.87800002
-0.2174 -0.065099999 0.87900001
-0.2157 -0.064999998 0.87800002
-0.21439999 -0.065099999 0.87900001
-0.2129 -0.065099999 0.87900001
-0.2022 -0.065099999 0.87900001
-0.20039999 -0.064999998 0.87800002
-0.1989 -0.064999998 0.87800002
-0.19760001 -0.065099999 0.87900001
-0.18539999 -0.065099999 0.87900001
-0.1839 -0.065099999 0.87900001
-0.1822 -0.064999998 0.87800002
-0.17739999 -0.064999998 0.87699997
-0.17479999 -0.065099999 0.87900001
-0.1732 -0.065099999 0.87900001
-0.1717 -0.065099999 0.87900001
-0.15189999 -0.065099999 0.87900001
-0.1504 -0.065099999 0.87900001
-0.1489 -0.065099999 0.87900001
-0.41049999 -0.063299999 0.875
-0.40740001 -0.063500002 0.87800002
-0.37220001 -0.062700003 0.86699998
-0.34419999 -0.0634 0.87599999
-0.2174 -0.063600004 0.87900001
-0.2159 -0.063600004 0.87900001
-0.18700001 -0.063600004 0.87900001
-0.1837 -0.063500002 0.87800002
-0.17479999 -0.063600004 0.87900001
-0.1717 -0.063600004 0.87900001
-0.15189999 -0.063600004 0.87900001
-0.1504 -0.063600004 0.87900001
-0.417 -0.062100001 0.87900001
-0.41100001 -0.061900001 0.87599999
-0.4109 -0.062100001 0.87900001
-0.40939999 -0.062100001 0.87900001
-0.3712 -0.061299998 0.86799997
-0.35870001 -0.061999999 0.87800002
-0.34419999 -0.061900001 0.87599999
-0.17460001 -0.061999999 0.87800002
-0.16869999 -0.062100001 0.87900001
-0.41100001 -0.0603 0.87599999
-0.4109 -0.0605 0.87900001
-0.4084 -0.060400002 0.87699997
-0.40549999 -0.060199998 0.87400001
-0.3856 -0.059900001 0.87
-0.38409999 -0.059900001 0.87
-0.34650001 -0.0605 0.87800002
-0.3416 -0.060400002 0.87699997
-0.34079999 -0.0605 0.87900001
-0.18539999 -0.0605 0.87900001
-0.1763 -0.0605 0.87900001
-0.1715 -0.0605 0.87800002
-0.17 -0.0605 0.87800002
-0.16850001 -0.0605 0.87800002
-0.1672 -0.0605 0.87900001
-0.41240001 -0.059 0.87900001
-0.40509999 -0.058600001 0.87300003
-0.3865 -0.058600001 0.87199998
-0.38499999 -0.058600001 0.87199998
-0.36219999 -0.059 0.87900001
-0.34119999 -0.058800001 0.87599999
-0.34 -0.058899999 0.87699997
-0.17129999 -0.058899999 0.87699997
-0.17 -0.059 0.87800002
-0.16850001 -0.059 0.87800002
-0.1672 -0.059 0.87900001
-0.38749999 -0.057 0.87099999
-0.3865 -0.057 0.87199998
-0.37889999 -0.057 0.87199998
-0.37779999 -0.057100002 0.87300003
-0.36059999 -0.057500001 0.87900001
-0.34119999 -0.057300001 0.87599999
-0.17479999 -0.057500001 0.87900001
-0.1715 -0.057399999 0.87800002
-0.17 -0.057399999 0.87800002
-0.1672 -0.057500001 0.87900001
-0.4109 -0.056000002 0.87900001
-0.3863 -0.0557 0.875
-0.38370001 -0.055799998 0.87599999
-0.3822 -0.055799998 0.87599999
-0.3811 -0.055799998 0.87699997
-0.3804 -0.056000002 0.87900001
-0.3637 -0.056000002 0.87900001
-0.16869999 -0.056000002 0.87900001
-0.39719999 -0.053800002 0.86900002
-0.38820001 -0.054299999 0.87599999
-0.3863 -0.054200001 0.875
-0.38479999 -0.054200001 0.875
-0.38370001 -0.054299999 0.87599999
-0.3822 -0.054299999 0.87599999
-0.3811 -0.054299999 0.87699997
-0.3804 -0.054499999 0.87900001
-0.3608 -0.054000001 0.87199998
-0.1611 -0.054499999 0.87900001
-0.1595 -0.054499999 0.87900001
-0.15800001 -0.054499999 0.87900001
-0.1565 -0.054499999 0.87900001
-0.087899998 -0.054499999 0.87900001
-0.086300001 -0.054400001 0.87800002
-0.39719999 -0.052299999 0.86900002
-0.3876 -0.052900001 0.87800002
-0.38609999 -0.052900001 0.87800002
-0.38499999 -0.052900001 0.87900001
-0.38350001 -0.052900001 0.87900001
-0.382 -0.052900001 0.87900001
-0.361 -0.052299999 0.86900002
-0.35949999 -0.052299999 0.86900002
-0.35800001 -0.052299999 0.86900002
-0.359 -0.052700002 0.875
-0.3423 -0.052900001 0.87900001
-0.089500003 -0.052900001 0.87900001
-0.087899998 -0.052900001 0.87900001
-0.086400002 -0.052900001 0.87900001
-0.382 -0.051399998 0.87900001
-0.36570001 -0.051100001 0.87300003
-0.361 -0.050799999 0.86900002
-0.35910001 -0.050799999 0.86799997
-0.35839999 -0.050900001 0.87
-0.36019999 -0.0513 0.87800002
-0.3423 -0.051399998 0.87900001
-0.092500001 -0.051399998 0.87900001
-0.090999998 -0.051399998 0.87900001
-0.087899998 -0.051399998 0.87900001
-0.3689 -0.049800001 0.87699997
-0.36149999 -0.049400002 0.87
-0.35949999 -0.0493 0.86900002
-0.35890001 -0.049400002 0.87099999
-0.3439 -0.049899999 0.87900001
-0.3416 -0.049800001 0.87699997
-0.33970001 -0.049699999 0.87599999
-0.33739999 -0.049800001 0.87800002
-0.097099997 -0.049899999 0.87900001
-0.095600002 -0.049899999 0.87900001
-0.093999997 -0.049899999 0.87900001
-0.092500001 -0.049899999 0.87900001
-0.090999998 -0.049899999 0.87900001
-0.089500003 -0.049899999 0.87900001
-0.087899998 -0.049899999 0.87900001
-0.086400002 -0.049899999 0.87900001
-0.36719999 -0.048 0.87300003
-0.36410001 -0.047800001 0.86900002
-0.361 -0.047800001 0.86900002
-0.35949999 -0.047800001 0.86900002
-0.35929999 -0.048 0.87199998
-0.36059999 -0.0484 0.87900001
-0.33809999 -0.0482 0.87599999
-0.33739999 -0.048300002 0.87800002
-0.093999997 -0.0484 0.87900001
-0.092500001 -0.0484 0.87900001
-0.090999998 -0.0484 0.87900001
-0.087899998 -0.0484 0.87900001
-0.36149999 -0.046399999 0.87
-0.36000001 -0.046399999 0.87
-0.36050001 -0.046599999 0.875
-0.34119999 -0.046700001 0.87599999
-0.33809999 -0.046700001 0.87599999
-0.33739999 -0.046799999 0.87800002
-0.093999997 -0.046799999 0.87900001
-0.092500001 -0.046799999 0.87900001
-0.090999998 -0.046799999 0.87900001
-0.37270001 -0.0447 0.86799997
-0.3423 -0.045299999 0.87900001
-0.34040001 -0.045299999 0.87800002
-0.33930001 -0.045299999 0.87900001
-0.095600002 -0.045299999 0.87900001
-0.093999997 -0.045299999 0.87900001
-0.092500001 -0.045299999 0.87900001
-0.090999998 -0.045299999 0.87900001
-0.089500003 -0.045299999 0.87900001
-0.3423 -0.0438 0.87900001
-0.25459999 -0.0436 0.87599999
-0.095600002 -0.0438 0.87900001
-0.093999997 -0.0438 0.87900001
-0.092500001 -0.0438 0.87900001
-0.41049999 -0.042100001 0.875
-0.4095 -0.042100001 0.87599999
-0.40939999 -0.042300001 0.87900001
-0.40689999 -0.042199999 0.87699997
-0.3423 -0.042300001 0.87900001
-0.34079999 -0.042300001 0.87900001
-0.093999997 -0.042300001 0.87900001
-0.092500001 -0.042300001 0.87900001
-0.4048 -0.040100001 0.866
-0.4043 -0.040199999 0.86799997
-0.40369999 -0.0403 0.87
-0.38690001 -0.0405 0.87300003
-0.38499999 -0.040399998 0.87199998
-0.38260001 -0.0403 0.87
-0.095600002 -0.0407 0.87900001
-0.093900003 -0.0407 0.87800002
-0.092500001 -0.0407 0.87900001
-0.391 -0.038899999 0.87199998
-0.38839999 -0.038899999 0.87300003
-0.3865 -0.038899999 0.87199998
-0.38409999 -0.038800001 0.87
-0.38209999 -0.038800001 0.86900002
-0.37970001 -0.038699999 0.86699998
-0.093999997 -0.0392 0.87900001
-0.40169999 -0.037300002 0.86900002
-0.4007 -0.037300002 0.87
-0.37970001 -0.0372 0.86699998
-0.39809999 -0.035799999 0.87099999
-0.39160001 -0.035799999 0.87
-0.37439999 -0.035599999 0.86500001
-0.2401 -0.0359 0.87300003
-0.2388 -0.036200002 0.87900001
-0.2052 -0.036200002 0.87900001
-0.20370001 -0.036200002 0.87900001
-0.4025 -0.034400001 0.87400001
-0.40239999 -0.034600001 0.87699997
-0.38800001 -0.034400001 0.87199998
-0.3856 -0.034299999 0.87
-0.21439999 -0.034600001 0.87900001
-0.2111 -0.034600001 0.87800002
-0.2098 -0.034600001 0.87900001
-0.2052 -0.034600001 0.87900001
-0.2022 -0.034600001 0.87900001
-0.38859999 -0.0328 0.87
-0.38800001 -0.032900002 0.87199998
-0.38260001 -0.0328 0.87
-0.37909999 -0.032699998 0.86900002
-0.37720001 -0.032699998 0.86799997
-0.3752 -0.032699998 0.86699998
-0.3637 -0.033100002 0.87900001
-0.31799999 -0.033100002 0.87900001
-0.31639999 -0.033100002 0.87900001
-0.31490001 -0.033100002 0.87900001
-0.3134 -0.033100002 0.87900001
-0.2159 -0.033100002 0.87900001
-0.2141 -0.033100002 0.87800002
-0.2106 -0.033 0.87599999
-0.20829999 -0.033100002 0.87900001
-0.2068 -0.033100002 0.87900001
-0.205 -0.033100002 0.87800002
-0.2035 -0.033100002 0.87800002
-0.37009999 -0.031199999 0.86900002
-0.36860001 -0.031199999 0.86900002
-0.3655 -0.031500001 0.87599999
-0.3195 -0.031599998 0.87900001
-0.31760001 -0.031599998 0.87800002
-0.3161 -0.031599998 0.87800002
-0.31459999 -0.031599998 0.87800002
-0.31299999 -0.031599998 0.87800002
-0.31189999 -0.031599998 0.87900001
-0.20829999 -0.031599998 0.87900001
-0.20649999 -0.031599998 0.87800002
-0.205 -0.031599998 0.87800002
-0.2035 -0.031599998 0.87800002
-0.2022 -0.031599998 0.87900001
-0.40630001 -0.030099999 0.87900001
-0.37090001 -0.0298 0.87099999
-0.3698 -0.0298 0.87199998
-0.3655 -0.029999999 0.87599999
-0.3195 -0.030099999 0.87900001
-0.31720001 -0.029999999 0.87699997
-0.3161 -0.029999999 0.87800002
-0.31490001 -0.030099999 0.87900001
-0.22660001 -0.030099999 0.87900001
-0.22050001 -0.030099999 0.87900001
-0.2189 -0.030099999 0.87900001
-0.2174 -0.030099999 0.87900001
-0.2159 -0.030099999 0.87900001
-0.21439999 -0.030099999 0.87900001
-0.2068 -0.030099999 0.87900001
-0.2052 -0.030099999 0.87900001
-0.20370001 -0.030099999 0.87900001
-0.2022 -0.030099999 0.87900001
-0.36750001 -0.0283 0.87
-0.31909999 -0.0285 0.87800002
-0.31760001 -0.0285 0.87800002
-0.3161 -0.0285 0.87800002
-0.31490001 -0.0286 0.87900001
-0.2429 -0.0283 0.87199998
-0.2406 -0.028200001 0.86900002
-0.23899999 -0.028200001 0.86900002
-0.2296 -0.0286 0.87900001
-0.22660001 -0.0286 0.87900001
-0.22499999 -0.0286 0.87900001
-0.2235 -0.0286 0.87900001
-0.22050001 -0.0286 0.87900001
-0.2189 -0.0286 0.87900001
-0.2174 -0.0286 0.87900001
-0.2159 -0.0286 0.87900001
-0.21439999 -0.0286 0.87900001
-0.41389999 -0.027000001 0.87900001
-0.4109 -0.027000001 0.87900001
-0.3642 -0.026799999 0.87300003
-0.36219999 -0.027000001 0.87900001
-0.24609999 -0.027000001 0.87800002
-0.2437 -0.026900001 0.875
-0.24169999 -0.026799999 0.87300003
-0.2404 -0.026900001 0.87400001
-0.2384 -0.026799999 0.87199998
-0.23710001 -0.026799999 0.87300003
-0.2362 -0.026900001 0.875
-0.2349 -0.026900001 0.87599999
-0.2331 -0.026900001 0.875
-0.2309 -0.027000001 0.87800002
-0.22499999 -0.027000001 0.87900001
-0.2235 -0.027000001 0.87900001
-0.2189 -0.027000001 0.87900001
-0.2174 -0.027000001 0.87900001
-0.2159 -0.027000001 0.87900001
-0.41389999 -0.0255 0.87900001
-0.412 -0.0255 0.87800002
-0.36489999 -0.0253 0.87099999
-0.36379999 -0.0253 0.87199998
-0.3635 -0.0254 0.875
-0.2446 -0.0255 0.87800002
-0.243 -0.0255 0.87800002
-0.24150001 -0.0255 0.87800002
-0.2395 -0.0254 0.87599999
-0.2377 -0.0254 0.875
-0.23639999 -0.0254 0.87599999
-0.2349 -0.0254 0.87599999
-0.2339 -0.0255 0.87800002
-0.2324 -0.0255 0.87800002
-0.41389999 -0.024 0.87900001
-0.412 -0.024 0.87800002
-0.4109 -0.024 0.87900001
-0.40889999 -0.024 0.87800002
-0.3653 -0.023800001 0.87199998
-0.3642 -0.023800001 0.87300003
-0.3644 -0.0239 0.87699997
-0.25400001 -0.024 0.87900001
-0.24330001 -0.024 0.87900001
-0.24150001 -0.024 0.87800002
-0.2392 -0.0239 0.875
-0.2374 -0.023800001 0.87400001
-0.2359 -0.023800001 0.87400001
-0.23459999 -0.0239 0.875
-0.2334 -0.0239 0.87599999
-0.2324 -0.024 0.87800002
-0.41350001 -0.022399999 0.87800002
-0.41150001 -0.022399999 0.87699997
-0.4095 -0.022399999 0.87599999
-0.4075 -0.022399999 0.875
-0.40689999 -0.022399999 0.87699997
-0.3642 -0.022299999 0.87300003
-0.36399999 -0.022399999 0.87599999
-0.3633 -0.022399999 0.87800002
-0.2403 -0.022500001 0.87900001
-0.2385 -0.022399999 0.87800002
-0.23639999 -0.022399999 0.87599999
-0.2349 -0.022399999 0.87599999
-0.23370001 -0.022399999 0.87699997
-0.23270001 -0.022500001 0.87900001
-0.41499999 -0.0209 0.87800002
-0.41049999 -0.0208 0.875
-0.40900001 -0.0208 0.875
-0.3642 -0.0208 0.87300003
-0.3635 -0.0208 0.875
-0.2388 -0.0209 0.87900001
-0.237 -0.0209 0.87800002
-0.23540001 -0.0209 0.87800002
-0.2342 -0.0209 0.87900001
-0.36480001 -0.019400001 0.87800002
-0.35069999 -0.019400001 0.87699997
-0.36790001 -0.0177 0.87099999
-0.36669999 -0.017899999 0.87900001
-0.3488 -0.0178 0.87599999
-0.38769999 -0.0162 0.86799997
-0.34959999 -0.0163 0.87800002
-0.38859999 -0.0147 0.87
-0.39969999 -0.0132 0.86799997
-0.36849999 -0.0133 0.87599999
-0.32859999 -0.0133 0.87900001
-0.32710001 -0.0133 0.87900001
-0.4127 -0.0117 0.87
-0.41119999 -0.0117 0.87
-0.33320001 -0.0118 0.87900001
-0.3256 -0.0118 0.87900001
-0.32980001 -0.0103 0.87800002
-0.3768 -0.0087000001 0.87400001
-0.3317 -0.0087000001 0.87900001
-0.32980001 -0.0087000001 0.87800002
-0.40920001 -0.0071 0.86900002
-0.38 -0.0071999999 0.87099999
-0.37850001 -0.0071999999 0.87099999
-0.37779999 -0.0071999999 0.87300003
-0.070900001 -0.0071999999 0.875
-0.40880001 -0.0055999998 0.86799997
-0.37979999 -0.0057000001 0.87400001
-0.33129999 -0.0057000001 0.87800002
-0.32749999 -0.0057000001 0.87599999
-0.32600001 -0.0057000001 0.87599999
-0.32519999 -0.0057000001 0.87800002
-0.22050001 -0.0057000001 0.87900001
-0.076499999 -0.0054000001 0.83700001
-0.074900001 -0.0054000001 0.83600003
-0.072400004 -0.0054000001 0.83999997
-0.071000002 -0.0055 0.84100002
-0.069600001 -0.0055 0.84200001
-0.068300001 -0.0055 0.84399998
-0.066799998 -0.0055 0.84299999
-0.065399997 -0.0055 0.84399998
-0.34650001 -0.0041999999 0.87800002
-0.345 -0.0041999999 0.87800002
-0.3439 -0.0041999999 0.87900001
-0.22050001 -0.0041999999 0.87900001
-0.0867 -0.0038999999 0.824
-0.085600004 -0.0038999999 0.82700002
-0.080499999 -0.0040000002 0.83399999
-0.077699997 -0.0040000002 0.83499998
-0.076300003 -0.0040000002 0.83499998
-0.074900001 -0.0040000002 0.83499998
-0.073399998 -0.0040000002 0.83499998
-0.071999997 -0.0040000002 0.83600003
-0.070600003 -0.0040000002 0.83600003
-0.0691 -0.0040000002 0.83600003
-0.0678 -0.0040000002 0.83700001
-0.066299997 -0.0040000002 0.83700001
-0.064999998 -0.0040000002 0.838
-0.063600004 -0.0040000002 0.83899999
-0.062100001 -0.0040000002 0.83899999
-0.060600001 -0.0040000002 0.838
-0.3457 -0.0026 0.87599999
-0.345 -0.0027000001 0.87800002
-0.3439 -0.0027000001 0.87900001
-0.222 -0.0027000001 0.87900001
-0.22050001 -0.0027000001 0.87900001
-0.087700002 -0.0024999999 0.81999999
-0.086900003 -0.0024999999 0.82599998
-0.0858 -0.0024999999 0.829
-0.084600002 -0.0024999999 0.83099997
-0.0832 -0.0024999999 0.83200002
-0.081900001 -0.0024999999 0.833
-0.080499999 -0.0024999999 0.83399999
-0.0792 -0.0024999999 0.83499998
-0.077699997 -0.0024999999 0.83499998
-0.0748 -0.0024999999 0.83399999
-0.073200002 -0.0024999999 0.833
-0.071800001 -0.0024999999 0.833
-0.0704 -0.0024999999 0.83399999
-0.068999998 -0.0024999999 0.83399999
-0.067500003 -0.0024999999 0.833
-0.066100001 -0.0024999999 0.83399999
-0.0647 -0.0024999999 0.83499998
-0.0634 -0.0024999999 0.83700001
-0.061999999 -0.0024999999 0.83700001
-0.0605 -0.0024999999 0.83700001
-0.059099998 -0.0024999999 0.83700001
-0.057599999 -0.0024999999 0.83700001
-0.34540001 -0.0011 0.87900001
-0.3439 -0.0011 0.87900001
-0.222 -0.0011 0.87900001
-0.22050001 -0.0011 0.87900001
-0.088 -0.0011 0.82300001
-0.087200001 -0.0011 0.829
-0.086000003 -0.0011 0.83099997
-0.084799998 -0.0011 0.833
-0.083400004 -0.0011 0.83399999
-0.082199998 -0.0011 0.83600003
-0.080600001 -0.0011 0.83499998
-0.0792 -0.0011 0.83499998
-0.077699997 -0.0011 0.83399999
-0.076099999 -0.0011 0.833
-0.074699998 -0.0011 0.833
-0.073200002 -0.0011 0.833
-0.071800001 -0.0011 0.833
-0.070299998 -0.0011 0.833
-0.068899997 -0.0011 0.833
-0.067400001 -0.0011 0.83200002
-0.066 -0.0011 0.833
-0.064599998 -0.0011 0.833
-0.063299999 -0.0011 0.83499998
-0.061799999 -0.0011 0.83499998
-0.0605 -0.0011 0.83600003
-0.059 -0.0011 0.83600003
-0.056200001 -0.0011 0.83700001
-0.3488 0.00039999999 0.87599999
-0.34729999 0.00039999999 0.87599999
-0.34650001 0.00039999999 0.87800002
-0.34540001 0.00039999999 0.87900001
-0.32710001 0.00039999999 0.87900001
-0.3256 0.00039999999 0.87900001
-0.32370001 0.00039999999 0.87800002
-0.222 0.00039999999 0.87900001
-0.089199997 0.00039999999 0.82099998
-0.088500001 0.00039999999 0.82700002
-0.087499999 0.00039999999 0.83099997
-0.086099997 0.00039999999 0.83200002
-0.084899999 0.00039999999 0.83399999
-0.083499998 0.00039999999 0.83499998
-0.0823 0.00039999999 0.83700001
-0.080700003 0.00039999999 0.83600003
-0.079300001 0.00039999999 0.83600003
-0.077699997 0.00039999999 0.83399999
-0.076099999 0.00039999999 0.833
-0.074699998 0.00039999999 0.833
-0.073100001 0.00039999999 0.83200002
-0.071699999 0.00039999999 0.83200002
-0.070299998 0.00039999999 0.83200002
-0.068800002 0.00039999999 0.83200002
-0.067400001 0.00039999999 0.83200002
-0.066 0.00039999999 0.833
-0.064599998 0.00039999999 0.833
-0.063199997 0.00039999999 0.83399999
-0.061799999 0.00039999999 0.83499998
-0.060400002 0.00039999999 0.83499998
-0.057599999 0.00039999999 0.83700001
-0.056200001 0.00039999999 0.83700001
-0.054699998 0.00039999999 0.83700001
-0.053100001 0.00039999999 0.83499998
-0.32409999 0.0019 0.87900001
-0.090999998 0.0018 0.824
-0.090000004 0.0018 0.82800001
-0.088799998 0.0018 0.82999998
-0.0876 0.0018 0.83200002
-0.086199999 0.0018 0.833
-0.085000001 0.0018 0.83499998
-0.083700001 0.0018 0.83700001
-0.082500003 0.0018 0.83899999
-0.081 0.0018 0.83899999
-0.079499997 0.0018 0.838
-0.077799998 0.0018 0.83600003
-0.076300003 0.0018 0.83499998
-0.0748 0.0018 0.83399999
-0.073200002 0.0018 0.833
-0.071699999 0.0018 0.83200002
-0.070299998 0.0018 0.83200002
-0.068800002 0.0018 0.83200002
-0.067400001 0.0018 0.83200002
-0.065899998 0.0018 0.83200002
-0.064499997 0.0018 0.83200002
-0.063199997 0.0018 0.83399999
-0.061799999 0.0018 0.83399999
-0.0603 0.0018 0.83399999
-0.059 0.0018 0.83600003
-0.057599999 0.0018 0.83700001
-0.056200001 0.0018 0.83700001
-0.054699998 0.0018 0.83700001
-0.053100001 0.0018 0.83499998
-0.051600002 0.0018 0.83399999
-0.0502 0.0018 0.83399999
-0.048700001 0.0018 0.83399999
-0.32409999 0.0034 0.87900001
-0.2784 0.0034 0.87900001
-0.27680001 0.0034 0.87900001
-0.091600001 0.0031999999 0.829
-0.0902 0.0031999999 0.82999998
-0.0889 0.0033 0.83099997
-0.087700002 0.0033 0.833
-0.086300001 0.0033 0.83399999
-0.085100003 0.0033 0.83600003
-0.083800003 0.0033 0.838
-0.082599998 0.0033 0.83999997
-0.081100002 0.0033 0.83999997
-0.079599999 0.0033 0.83899999
-0.0779 0.0033 0.83700001
-0.076300003 0.0033 0.83499998
-0.074900001 0.0033 0.83499998
-0.073200002 0.0033 0.833
-0.071800001 0.0033 0.833
-0.070299998 0.0033 0.83200002
-0.068700001 0.0033 0.83099997
-0.065899998 0.0033 0.83200002
-0.064400002 0.0033 0.83099997
-0.063000001 0.0033 0.83200002
-0.061700001 0.0033 0.833
-0.0603 0.0033 0.83399999
-0.058899999 0.0033 0.83499998
-0.057599999 0.0033 0.83700001
-0.056200001 0.0033 0.83700001
-0.0548 0.0033 0.838
-0.053300001 0.0033 0.83700001
-0.051800001 0.0033 0.83600003
-0.0502 0.0033 0.83499998
-0.048799999 0.0033 0.83499998
-0.047400001 0.0033 0.83600003
-0.046100002 0.0033 0.838
-0.0447 0.0033 0.83999997
-0.091799997 0.0046999999 0.83099997
-0.090300001 0.0046999999 0.83099997
-0.089000002 0.0046999999 0.83200002
-0.087700002 0.0046999999 0.833
-0.086300001 0.0046999999 0.83399999
-0.085100003 0.0046999999 0.83600003
-0.083899997 0.0046999999 0.83899999
-0.082699999 0.0046999999 0.84100002
-0.081200004 0.0046999999 0.84100002
-0.079700001 0.0046999999 0.83999997
-0.0779 0.0046999999 0.83700001
-0.076300003 0.0046999999 0.83499998
-0.0748 0.0046999999 0.83399999
-0.073200002 0.0046999999 0.833
-0.071699999 0.0046999999 0.83200002
-0.070200004 0.0046999999 0.83099997
-0.068700001 0.0046999999 0.83099997
-0.067299999 0.0046999999 0.83099997
-0.065899998 0.0046999999 0.83099997
-0.064400002 0.0046999999 0.83099997
-0.063000001 0.0046999999 0.83200002
-0.061700001 0.0046999999 0.833
-0.0603 0.0046999999 0.83399999
-0.059 0.0046999999 0.83600003
-0.057599999 0.0046999999 0.83700001
-0.056200001 0.0046999999 0.838
-0.054900002 0.0046999999 0.83899999
-0.053300001 0.0046999999 0.838
-0.051800001 0.0046999999 0.83700001
-0.050299998 0.0046999999 0.83600003
-0.048900001 0.0046999999 0.83600003
-0.047499999 0.0046999999 0.838
-0.046100002 0.0046999999 0.83899999
-0.0449 0.0048000002 0.84299999
-0.0933 0.0060999999 0.83200002
-0.091899998 0.0060999999 0.83200002
-0.090400003 0.0060999999 0.83200002
-0.089000002 0.0060999999 0.83200002
-0.087800004 0.0062000002 0.83399999
-0.086499996 0.0062000002 0.83600003
-0.085299999 0.0062000002 0.838
-0.083999999 0.0062000002 0.83999997
-0.082800001 0.0062000002 0.84200001
-0.0814 0.0062000002 0.84299999
-0.079800002 0.0062000002 0.84100002
-0.078000002 0.0062000002 0.838
-0.076499999 0.0062000002 0.83700001
-0.0748 0.0062000002 0.83399999
-0.073200002 0.0060999999 0.833
-0.071800001 0.0060999999 0.833
-0.070299998 0.0060999999 0.83200002
-0.068800002 0.0060999999 0.83200002
-0.067400001 0.0060999999 0.83200002
-0.064499997 0.0060999999 0.83200002
-0.063100003 0.0060999999 0.833
-0.061700001 0.0060999999 0.833
-0.060400002 0.0062000002 0.83499998
-0.059 0.0062000002 0.83600003
-0.057599999 0.0062000002 0.83700001
-0.056200001 0.0062000002 0.83700001
-0.054699998 0.0062000002 0.83700001
-0.053300001 0.0062000002 0.83700001
-0.0517 0.0062000002 0.83499998
-0.0502 0.0062000002 0.83399999
-0.048700001 0.0060999999 0.833
-0.0473 0.0062000002 0.83399999
-0.045899998 0.0062000002 0.83399999
-0.044500001 0.0062000002 0.83600003
-0.043499999 0.0062000002 0.84399998
-0.042300001 0.0063 0.85000002
-0.4131 0.0080000004 0.87400001
-0.093400002 0.0076000001 0.833
-0.091899998 0.0076000001 0.83200002
-0.090400003 0.0076000001 0.83200002
-0.089100003 0.0076000001 0.833
-0.087899998 0.0076000001 0.83499998
-0.0867 0.0076000001 0.838
-0.085500002 0.0077 0.83999997
-0.084299996 0.0077 0.84299999
-0.082999997 0.0077 0.84399998
-0.0814 0.0077 0.84299999
-0.079800002 0.0077 0.84100002
-0.078100003 0.0076000001 0.83899999
-0.076499999 0.0076000001 0.83700001
-0.074900001 0.0076000001 0.83499998
-0.073299997 0.0076000001 0.83399999
-0.071900003 0.0076000001 0.83399999
-0.068899997 0.0076000001 0.833
-0.067500003 0.0076000001 0.833
-0.066 0.0076000001 0.833
-0.064599998 0.0076000001 0.833
-0.063100003 0.0076000001 0.833
-0.061700001 0.0076000001 0.833
-0.0603 0.0076000001 0.83399999
-0.058899999 0.0076000001 0.83499998
-0.057500001 0.0076000001 0.83499998
-0.056000002 0.0076000001 0.83499998
-0.054499999 0.0076000001 0.83399999
-0.053100001 0.0076000001 0.83399999
-0.051600002 0.0076000001 0.83399999
-0.050099999 0.0076000001 0.833
-0.048599999 0.0076000001 0.83200002
-0.047200002 0.0076000001 0.83200002
-0.0458 0.0076000001 0.833
-0.044500001 0.0076000001 0.83499998
-0.043200001 0.0076000001 0.83899999
-0.042199999 0.0077 0.84799999
-0.041000001 0.0077999998 0.85399997
-0.040100001 0.0078999996 0.866
-0.41409999 0.0094999997 0.87599999
-0.39250001 0.0094999997 0.87199998
-0.3892 0.0093999999 0.86799997
-0.2811 0.0094999997 0.87800002
-0.27959999 0.0094999997 0.87800002
-0.278 0.0094999997 0.87800002
-0.27680001 0.0094999997 0.87900001
-0.095100001 0.0091000004 0.83499998
-0.093599997 0.0089999996 0.83399999
-0.092 0.0089999996 0.833
-0.090599999 0.0089999996 0.833
-0.089199997 0.0089999996 0.83399999
-0.088100001 0.0091000004 0.83700001
-0.086900003 0.0091000004 0.83999997
-0.085699998 0.0091000004 0.84200001
-0.084299996 0.0091000004 0.84299999
-0.082999997 0.0092000002 0.84399998
-0.081500001 0.0092000002 0.84399998
-0.079899997 0.0091000004 0.84200001
-0.078100003 0.0091000004 0.83899999
-0.076499999 0.0091000004 0.83700001
-0.074900001 0.0091000004 0.83499998
-0.073299997 0.0089999996 0.83399999
-0.071900003 0.0089999996 0.83399999
-0.0704 0.0089999996 0.83399999
-0.068899997 0.0089999996 0.833
-0.067500003 0.0089999996 0.833
-0.066 0.0089999996 0.833
-0.064599998 0.0089999996 0.833
-0.063100003 0.0089999996 0.833
-0.061799999 0.0089999996 0.83399999
-0.0603 0.0089999996 0.83399999
-0.058899999 0.0089999996 0.83399999
-0.057399999 0.0089999996 0.83399999
-0.056000002 0.0089999996 0.83399999
-0.054499999 0.0089999996 0.833
-0.052999999 0.0089999996 0.833
-0.051600002 0.0089999996 0.833
-0.050099999 0.0089999996 0.83200002
-0.048599999 0.0089999996 0.83099997
-0.047200002 0.0089999996 0.83200002
-0.045699999 0.0089999996 0.83200002
-0.044500001 0.0091000004 0.83499998
-0.043200001 0.0091000004 0.838
-0.042100001 0.0092000002 0.84500003
-0.040899999 0.0092000002 0.85100001
-0.039799999 0.0093 0.86000001
-0.3987 0.0111 0.87900001
-0.39300001 0.011 0.87300003
-0.3901 0.0109 0.87
-0.2811 0.011 0.87800002
-0.27919999 0.011 0.87699997
-0.27739999 0.011 0.87599999
-0.27649999 0.011 0.87800002
-0.2753 0.0111 0.87900001
-0.095100001 0.0105 0.83499998
-0.093400002 0.0105 0.833
-0.091899998 0.0105 0.83200002
-0.090400003 0.0105 0.83200002
-0.089100003 0.0105 0.833
-0.088100001 0.0105 0.83700001
-0.086999997 0.0106 0.84100002
-0.0858 0.0106 0.84299999
-0.0845 0.0106 0.84500003
-0.083099999 0.0106 0.84500003
-0.081500001 0.0106 0.84399998
-0.079899997 0.0106 0.84200001
-0.078199998 0.0106 0.83999997
-0.076499999 0.0105 0.83700001
-0.074900001 0.0105 0.83499998
-0.073299997 0.0105 0.83399999
-0.071900003 0.0105 0.83399999
-0.0704 0.0105 0.83399999
-0.068999998 0.0105 0.83399999
-0.067500003 0.0105 0.83399999
-0.066100001 0.0105 0.83399999
-0.064599998 0.0105 0.83399999
-0.063199997 0.0105 0.83399999
-0.061799999 0.0105 0.83399999
-0.060199998 0.0105 0.833
-0.058899999 0.0105 0.83399999
-0.057399999 0.0105 0.83399999
-0.0559 0.0105 0.833
-0.054499999 0.0105 0.833
-0.052999999 0.0105 0.833
-0.051600002 0.0105 0.833
-0.050099999 0.0105 0.83200002
-0.048599999 0.0105 0.83099997
-0.047200002 0.0105 0.83200002
-0.045699999 0.0105 0.83200002
-0.044399999 0.0105 0.83399999
-0.043099999 0.0105 0.83600003
-0.041900001 0.0106 0.84100002
-0.0407 0.0107 0.847
-0.0394 0.0107 0.85100001
-0.0385 0.0109 0.86299998
-0.38479999 0.0125 0.875
-0.38499999 0.0126 0.87900001
-0.34999999 0.0126 0.87900001
-0.095299996 0.012 0.83700001
-0.093400002 0.0119 0.833
-0.091899998 0.0119 0.83200002
-0.090300001 0.0119 0.83099997
-0.089000002 0.0119 0.83200002
-0.088100001 0.012 0.83700001
-0.086999997 0.012 0.84100002
-0.0858 0.0121 0.84299999
-0.084399998 0.0121 0.84399998
-0.082999997 0.0121 0.84399998
-0.0814 0.0121 0.84299999
-0.079700001 0.012 0.83999997
-0.078000002 0.012 0.838
-0.076399997 0.012 0.83600003
-0.0748 0.0119 0.83399999
-0.073299997 0.0119 0.83399999
-0.071900003 0.0119 0.83399999
-0.0704 0.0119 0.83399999
-0.068999998 0.0119 0.83399999
-0.067500003 0.0119 0.83399999
-0.066100001 0.0119 0.83399999
-0.064599998 0.0119 0.83399999
-0.063199997 0.0119 0.83399999
-0.061799999 0.0119 0.83399999
-0.0603 0.0119 0.83399999
-0.058899999 0.0119 0.83399999
-0.057300001 0.0119 0.833
-0.0559 0.0119 0.833
-0.054400001 0.0119 0.83200002
-0.052999999 0.0119 0.833
-0.051600002 0.0119 0.833
-0.050099999 0.0119 0.83200002
-0.048599999 0.0119 0.83099997
-0.047200002 0.0119 0.83200002
-0.0458 0.0119 0.833
-0.044500001 0.0119 0.83499998
-0.043099999 0.012 0.83600003
-0.041999999 0.0121 0.84399998
-0.0407 0.0121 0.84799999
-0.0394 0.0122 0.85000002
-0.037900001 0.0122 0.85000002
-0.036499999 0.0122 0.852
-0.033399999 0.0122 0.84899998
-0.032000002 0.0122 0.84899998
-0.0305 0.0122 0.85000002
-0.029200001 0.0122 0.85500002
-0.3515 0.0141 0.87900001
-0.34959999 0.0141 0.87800002
-0.3484 0.0141 0.87900001
-0.3012 0.0141 0.87900001
-0.0955 0.0134 0.838
-0.093599997 0.0134 0.83399999
-0.091899998 0.0133 0.83200002
-0.090300001 0.0133 0.83099997
-0.089000002 0.0133 0.83200002
-0.087899998 0.0134 0.83499998
-0.086900003 0.0135 0.83999997
-0.085600004 0.0135 0.84100002
-0.084299996 0.0135 0.84299999
-0.082900003 0.0135 0.84299999
-0.081299998 0.0135 0.84200001
-0.079700001 0.0135 0.83999997
-0.078000002 0.0134 0.838
-0.076300003 0.0134 0.83499998
-0.0748 0.0134 0.83399999
-0.073299997 0.0134 0.83399999
-0.071900003 0.0134 0.83399999
-0.070500001 0.0134 0.83499998
-0.0691 0.0134 0.83499998
-0.067599997 0.0134 0.83499998
-0.066200003 0.0134 0.83499998
-0.0647 0.0134 0.83499998
-0.063299999 0.0134 0.83499998
-0.061799999 0.0134 0.83499998
-0.0603 0.0134 0.83399999
-0.058899999 0.0134 0.83399999
-0.057300001 0.0134 0.833
-0.055799998 0.0133 0.83200002
-0.054400001 0.0133 0.83200002
-0.052900001 0.0133 0.83099997
-0.0515 0.0133 0.83200002
-0.050099999 0.0133 0.83200002
-0.048599999 0.0133 0.83099997
-0.0471 0.0133 0.83099997
-0.0458 0.0134 0.833
-0.044500001 0.0134 0.83499998
-0.039299998 0.0136 0.84799999
-0.037799999 0.0136 0.84799999
-0.0363 0.0136 0.84799999
-0.034899998 0.0136 0.84799999
-0.033399999 0.0136 0.847
-0.0319 0.0136 0.84600002
-0.030300001 0.0136 0.84500003
-0.028899999 0.0136 0.84600002
-0.0275 0.0136 0.84799999
-0.0261 0.0136 0.85000002
-0.024599999 0.0136 0.85000002
-0.39629999 0.0156 0.87699997
-0.39390001 0.0156 0.875
-0.3908 0.0156 0.875
-0.095200002 0.0149 0.83600003
-0.0933 0.0148 0.83200002
-0.091799997 0.0148 0.83099997
-0.090300001 0.0148 0.83099997
-0.089000002 0.0148 0.83200002
-0.087899998 0.0148 0.83499998
-0.0867 0.0149 0.838
-0.0854 0.0149 0.83899999
-0.084100001 0.015 0.84100002
-0.082699999 0.015 0.84100002
-0.081200004 0.015 0.84100002
-0.079599999 0.0149 0.83899999
-0.0779 0.0149 0.83700001
-0.076300003 0.0148 0.83499998
-0.074900001 0.0148 0.83499998
-0.073299997 0.0148 0.83399999
-0.071900003 0.0148 0.83399999
-0.070500001 0.0148 0.83499998
-0.0691 0.0148 0.83499998
-0.067699999 0.0149 0.83600003
-0.066200003 0.0149 0.83600003
-0.064800002 0.0149 0.83600003
-0.063299999 0.0148 0.83499998
-0.061799999 0.0148 0.83399999
-0.0603 0.0148 0.83399999
-0.058800001 0.0148 0.833
-0.057300001 0.0148 0.833
-0.055799998 0.0148 0.83200002
-0.054400001 0.0148 0.83200002
-0.052999999 0.0148 0.83200002
-0.0515 0.0148 0.83200002
-0.050000001 0.0148 0.83099997
-0.048500001 0.0148 0.82999998
-0.0471 0.0148 0.83099997
-0.039299998 0.0151 0.84799999
-0.037799999 0.0151 0.84899998
-0.0363 0.0151 0.84799999
-0.0348 0.015 0.84600002
-0.033199999 0.015 0.84399998
-0.0317 0.015 0.84200001
-0.030200001 0.015 0.84100002
-0.0288 0.015 0.84200001
-0.0274 0.015 0.84299999
-0.026000001 0.015 0.84500003
-0.024499999 0.015 0.84600002
-0.0231 0.015 0.84600002
