ply
format ascii 1.0
comment PCL generated
element vertex 1715
property float x
property float y
property float z
element camera 0
property float view_px
property float view_py
property float view_pz
property float x_axisx
property float x_axisy
property float x_axisz
property float y_axisx
property float y_axisy
property float y_axisz
property float z_axisx
property float z_axisy
property float z_axisz
property float focal
property float scalex
property float scaley
property float centerx
property float centery
property int viewportx
property int viewporty
property float k1
property float k2
end_header
0.16760001 0.15970001 0.91000003
0.16940001 0.15989999 0.91100001
0.1708 0.15970001 0.91000003
0.1723 0.15970001 0.91000003
0.17389999 0.15970001 0.91000003
0.43880001 0.308 1.755
0.44310001 0.3089 1.76
0.4558 0.3071 1.75
0.44330001 0.29100001 1.658
0.44850001 0.2906 1.656
0.4578 0.2929 1.669
0.46430001 0.29519999 1.682
0.4763 0.29899999 1.704
0.4781 0.2983 1.7
0.4734 0.29359999 1.673
0.47400001 0.2922 1.665
-0.28740001 0.1583 0.89300001
-0.28650001 0.1586 0.89499998
-0.28400001 0.15809999 0.89200002
-0.28220001 0.15790001 0.89099997
-0.2429 0.1565 0.88300002
-0.24330001 0.1577 0.88999999
-0.2233 0.1556 0.87800002
-0.2245 0.1576 0.889
-0.2225 0.15719999 0.88700002
-0.2217 0.1577 0.88999999
-0.22040001 0.15790001 0.89099997
-0.21879999 0.15790001 0.89099997
-0.2173 0.15790001 0.89099997
-0.21619999 0.1583 0.89300001
-0.2149 0.1584 0.89399999
-0.21359999 0.1586 0.89499998
-0.2121 0.1586 0.89499998
-0.21170001 0.1595 0.89999998
-0.2104 0.15970001 0.90100002
-0.20810001 0.1591 0.898
-0.2066 0.1591 0.898
-0.205 0.1591 0.898
-0.2032 0.15899999 0.89700001
-0.20119999 0.1586 0.89499998
-0.1988 0.15790001 0.89099997
-0.1972 0.15790001 0.89099997
-0.19589999 0.15809999 0.89200002
-0.1939 0.1577 0.88999999
-0.1919 0.1574 0.88800001
-0.1814 0.1524 0.86000001
-0.17910001 0.1517 0.85600001
-0.1772 0.1514 0.85399997
-0.17649999 0.1521 0.85799998
-0.1595 0.1487 0.83899999
-0.1585 0.149 0.84100002
-0.15700001 0.149 0.84100002
-0.1556 0.149 0.84100002
-0.1541 0.149 0.84100002
-0.1525 0.1489 0.83999997
-0.1512 0.149 0.84100002
-0.1497 0.149 0.84100002
-0.1481 0.1489 0.83999997
-0.1463 0.1485 0.838
-0.14480001 0.1485 0.838
-0.1432 0.14830001 0.83700001
-0.1419 0.1485 0.838
-0.14049999 0.1485 0.838
-0.1389 0.14830001 0.83700001
-0.13609999 0.1485 0.838
-0.070299998 0.1476 0.833
-0.067599997 0.148 0.83499998
-0.055199999 0.15809999 0.89200002
-0.053599998 0.15790001 0.89099997
-0.052000001 0.1577 0.88999999
0.0207 0.1595 0.89999998
0.022299999 0.15989999 0.90200001
0.0239 0.15989999 0.90200001
0.0255 0.16 0.903
0.027100001 0.1602 0.90399998
0.0286 0.16 0.903
0.1256 0.16 0.903
0.1266 0.1593 0.89899999
0.12819999 0.1593 0.89899999
0.1648 0.16159999 0.912
0.16599999 0.1613 0.91000003
0.16760001 0.1613 0.91000003
0.16940001 0.16150001 0.91100001
0.1708 0.1613 0.91000003
0.1723 0.1613 0.91000003
0.17389999 0.1613 0.91000003
0.44620001 0.31189999 1.76
0.4479 0.3089 1.743
0.44670001 0.3039 1.715
0.44569999 0.30129999 1.7
0.4434 0.29769999 1.6799999
0.4434 0.2958 1.669
0.44389999 0.2942 1.66
0.44569999 0.29350001 1.656
0.44850001 0.29350001 1.656
0.4508 0.2931 1.654
0.45480001 0.2938 1.658
0.47319999 0.30000001 1.693
0.4736 0.29840001 1.684
0.47119999 0.2951 1.665
0.47260001 0.2942 1.66
0.47690001 0.2951 1.665
-0.28960001 0.1602 0.89499998
-0.28709999 0.1596 0.89200002
-0.2859 0.15979999 0.89300001
-0.28369999 0.1595 0.89099997
-0.2818 0.1593 0.88999999
-0.2429 0.15800001 0.88300002
-0.2422 0.1586 0.88599998
-0.2412 0.15889999 0.88800001
-0.22319999 0.1593 0.88999999
-0.22220001 0.1596 0.89200002
-0.2209 0.15979999 0.89300001
-0.2191 0.1596 0.89200002
-0.2175 0.1596 0.89200002
-0.21619999 0.15979999 0.89300001
-0.2147 0.15979999 0.89300001
-0.21359999 0.1602 0.89499998
-0.2121 0.1602 0.89499998
-0.21170001 0.1611 0.89999998
-0.2101 0.1611 0.89999998
-0.2084 0.1609 0.89899999
-0.207 0.1611 0.89999998
-0.2052 0.1609 0.89899999
-0.2034 0.16069999 0.898
-0.20119999 0.1602 0.89499998
-0.199 0.1596 0.89200002
-0.1972 0.1595 0.89099997
-0.1961 0.15979999 0.89300001
-0.19410001 0.1595 0.89099997
-0.19239999 0.1593 0.88999999
-0.19059999 0.1591 0.889
-0.18700001 0.1573 0.87900001
-0.1833 0.15549999 0.86900002
-0.1793 0.1534 0.85699999
-0.177 0.15270001 0.85299999
-0.1751 0.1523 0.85100001
-0.1742 0.15279999 0.85399997
-0.1745 0.1557 0.87
-0.17299999 0.1557 0.87
-0.17209999 0.15620001 0.87300003
-0.1654 0.15279999 0.85399997
-0.162 0.15099999 0.84399998
-0.1603 0.15090001 0.84299999
-0.15899999 0.15099999 0.84399998
-0.1574 0.15090001 0.84299999
-0.1559 0.15090001 0.84299999
-0.1543 0.1507 0.84200001
-0.1525 0.1503 0.83999997
-0.15099999 0.1503 0.83999997
-0.1497 0.1505 0.84100002
-0.1479 0.15009999 0.83899999
-0.1463 0.15000001 0.838
-0.14480001 0.15000001 0.838
-0.1434 0.15000001 0.838
-0.14229999 0.1503 0.83999997
-0.1408 0.1503 0.83999997
-0.1392 0.15009999 0.83899999
-0.1366 0.1505 0.84100002
-0.1321 0.1503 0.83999997
-0.1303 0.15000001 0.838
-0.1287 0.1498 0.83700001
-0.1269 0.1494 0.83499998
-0.1258 0.1498 0.83700001
-0.055199999 0.1595 0.89099997
-0.053599998 0.1593 0.88999999
-0.052000001 0.1591 0.889
-0.0473 0.1591 0.889
0.0239 0.16140001 0.90200001
0.0255 0.16159999 0.903
0.16249999 0.16249999 0.90799999
0.16500001 0.16339999 0.91299999
0.1662 0.163 0.91100001
0.16779999 0.163 0.91100001
0.16940001 0.163 0.91100001
0.171 0.163 0.91100001
0.1727 0.16320001 0.912
0.1743 0.16320001 0.912
0.44670001 0.3132 1.75
0.44729999 0.30939999 1.729
0.4438 0.30489999 1.704
0.44389999 0.303 1.693
0.4429 0.3003 1.678
0.4434 0.2987 1.669
0.44389999 0.29710001 1.66
0.44569999 0.29640001 1.656
0.44800001 0.296 1.654
0.4492 0.2949 1.648
0.4526 0.29530001 1.65
0.45660001 0.296 1.654
0.4646 0.2956 1.652
0.46799999 0.296 1.654
0.47400001 0.29800001 1.665
0.4781 0.2987 1.669
-0.28999999 0.1619 0.89600003
-0.28780001 0.16150001 0.89399999
-0.28619999 0.16150001 0.89399999
-0.28400001 0.1612 0.89200002
-0.2818 0.1608 0.88999999
-0.2432 0.15970001 0.884
-0.2419 0.15989999 0.88499999
-0.24070001 0.1601 0.88599998
-0.22400001 0.16140001 0.89300001
-0.22239999 0.16140001 0.89300001
-0.22040001 0.161 0.89099997
-0.21879999 0.161 0.89099997
-0.2173 0.161 0.89099997
-0.2155 0.1608 0.88999999
-0.214 0.1608 0.88999999
-0.21269999 0.161 0.89099997
-0.2114 0.1612 0.89200002
-0.2105 0.1617 0.89499998
-0.20919999 0.1619 0.89600003
-0.20739999 0.1617 0.89499998
-0.2066 0.16230001 0.898
-0.20550001 0.1626 0.89999998
-0.2034 0.16230001 0.898
-0.2017 0.1621 0.89700001
-0.1999 0.1619 0.89600003
-0.19859999 0.1621 0.89700001
-0.19679999 0.1619 0.89600003
-0.19499999 0.1617 0.89499998
-0.193 0.16140001 0.89300001
-0.1911 0.161 0.89099997
-0.1833 0.15700001 0.86900002
-0.1793 0.1549 0.85699999
-0.17659999 0.1538 0.85100001
-0.1749 0.15360001 0.85000002
-0.17399999 0.1541 0.85299999
-0.17649999 0.15899999 0.88
-0.17560001 0.1596 0.88300002
-0.1742 0.15970001 0.884
-0.1715 0.1586 0.87800002
-0.16069999 0.15270001 0.84500003
-0.1592 0.15270001 0.84500003
-0.1576 0.1525 0.84399998
-0.1559 0.1523 0.84299999
-0.1541 0.152 0.84100002
-0.1525 0.15180001 0.83999997
-0.1508 0.1516 0.83899999
-0.1495 0.15180001 0.83999997
-0.1479 0.1516 0.83899999
-0.1461 0.1512 0.83700001
-0.14470001 0.1512 0.83700001
-0.1434 0.1514 0.838
-0.14229999 0.15180001 0.83999997
-0.141 0.152 0.84100002
-0.13950001 0.152 0.84100002
-0.1382 0.1521 0.84200001
-0.13689999 0.1523 0.84299999
-0.13249999 0.1523 0.84299999
-0.1311 0.1523 0.84299999
-0.1293 0.152 0.84100002
-0.1276 0.1516 0.83899999
-0.1261 0.1516 0.83899999
-0.1246 0.1516 0.83899999
-0.058400001 0.16140001 0.89300001
-0.056699999 0.161 0.89099997
-0.055100001 0.1608 0.88999999
-0.053599998 0.1608 0.88999999
-0.052000001 0.1608 0.88999999
-0.0504 0.16060001 0.889
-0.048900001 0.16060001 0.889
-0.047400001 0.1608 0.88999999
0.1645 0.1644 0.91000003
0.16599999 0.1644 0.91000003
0.16760001 0.1644 0.91000003
0.1696 0.1648 0.912
0.17110001 0.1648 0.912
0.17290001 0.16500001 0.91299999
0.17470001 0.1652 0.91399997
0.4427 0.30919999 1.711
0.44209999 0.30270001 1.675
0.44229999 0.30090001 1.665
0.44330001 0.29960001 1.658
0.44400001 0.29809999 1.65
0.44499999 0.2969 1.643
0.44620001 0.2958 1.637
0.44960001 0.29620001 1.6390001
0.45809999 0.29620001 1.6390001
0.46149999 0.2965 1.641
0.46689999 0.29809999 1.65
0.4752 0.30160001 1.669
-0.29089999 0.1631 0.89399999
-0.28870001 0.1627 0.89200002
-0.28709999 0.1627 0.89200002
-0.28459999 0.1622 0.889
-0.2414 0.1611 0.88300002
-0.2396 0.1609 0.88200003
-0.2388 0.16140001 0.88499999
-0.2242 0.1631 0.89399999
-0.22220001 0.1627 0.89200002
-0.22040001 0.16249999 0.89099997
-0.2186 0.16240001 0.88999999
-0.21709999 0.16240001 0.88999999
-0.2155 0.16240001 0.88999999
-0.2137 0.1622 0.889
-0.2124 0.16240001 0.88999999
-0.21089999 0.16240001 0.88999999
-0.2096 0.16249999 0.89099997
-0.208 0.16249999 0.89099997
-0.20649999 0.16249999 0.89099997
-0.2061 0.1635 0.89600003
-0.205 0.1638 0.898
-0.2032 0.1636 0.89700001
-0.2014 0.1635 0.89600003
-0.1999 0.1635 0.89600003
-0.1983 0.1635 0.89600003
-0.19679999 0.1635 0.89600003
-0.1952 0.1635 0.89600003
-0.19320001 0.1631 0.89399999
-0.19149999 0.1629 0.89300001
-0.1833 0.1585 0.86900002
-0.1789 0.156 0.85500002
-0.1762 0.1549 0.84899998
-0.1745 0.1547 0.84799999
-0.17399999 0.1556 0.85299999
-0.1777 0.16159999 0.88599998
-0.1762 0.16159999 0.88599998
-0.1744 0.16140001 0.88499999
-0.1727 0.1613 0.884
-0.1706 0.16069999 0.88099998
-0.16599999 0.1578 0.86500001
-0.1622 0.1556 0.85299999
-0.15979999 0.1547 0.84799999
-0.15790001 0.1543 0.84600002
-0.15629999 0.1541 0.84500003
-0.15449999 0.1538 0.84299999
-0.1525 0.1532 0.83999997
-0.15099999 0.1532 0.83999997
-0.1495 0.1532 0.83999997
-0.1479 0.1531 0.83899999
-0.14569999 0.1538 0.84299999
-0.13950001 0.1534 0.84100002
-0.1311 0.1538 0.84299999
-0.1293 0.1534 0.84100002
-0.1277 0.1532 0.83999997
-0.12630001 0.1532 0.83999997
-0.1248 0.1532 0.83999997
-0.123 0.1529 0.838
-0.0601 0.1635 0.89600003
-0.058499999 0.16329999 0.89499998
-0.0568 0.1629 0.89300001
-0.055199999 0.16249999 0.89099997
-0.053599998 0.16249999 0.89099997
-0.052099999 0.16249999 0.89099997
-0.050500002 0.16249999 0.89099997
-0.048999999 0.16249999 0.89099997
-0.047499999 0.1627 0.89200002
-0.046100002 0.1631 0.89399999
0.1613 0.1644 0.90100002
0.16410001 0.1656 0.90799999
0.1657 0.1656 0.90799999
0.16760001 0.16599999 0.91000003
0.1696 0.1664 0.912
0.17129999 0.1666 0.91299999
0.17309999 0.16670001 0.91399997
0.1751 0.1671 0.91600001
0.4434 0.30649999 1.6799999
0.4434 0.30450001 1.669
0.44330001 0.30250001 1.658
0.44459999 0.30140001 1.652
0.44499999 0.29969999 1.643
0.44569999 0.2983 1.635
0.44800001 0.29789999 1.633
0.45249999 0.29719999 1.6289999
0.4576 0.29679999 1.627
0.46270001 0.2983 1.635
0.4709 0.3017 1.654
-0.2947 0.16590001 0.90100002
-0.2922 0.1654 0.898
-0.28999999 0.16500001 0.89600003
-0.28780001 0.1646 0.89399999
-0.28529999 0.16410001 0.89099997
-0.24079999 0.1622 0.88099998
-0.2396 0.16240001 0.88200003
-0.2388 0.163 0.88499999
-0.22400001 0.1645 0.89300001
-0.2219 0.16410001 0.89099997
-0.22040001 0.16410001 0.89099997
-0.21879999 0.16410001 0.89099997
-0.2173 0.16410001 0.89099997
-0.2155 0.1639 0.88999999
-0.214 0.1639 0.88999999
-0.2122 0.1637 0.889
-0.2104 0.1635 0.88800001
-0.20730001 0.1635 0.88800001
-0.20630001 0.1652 0.89700001
-0.2057 0.16590001 0.90100002
-0.20389999 0.1657 0.89999998
-0.20209999 0.1656 0.89899999
-0.20029999 0.1654 0.898
-0.199 0.1656 0.89899999
-0.19769999 0.1657 0.89999998
-0.1961 0.1657 0.89999998
-0.1943 0.1656 0.89899999
-0.1776 0.15629999 0.84899998
-0.1762 0.15629999 0.84899998
-0.1749 0.1565 0.85000002
-0.1744 0.1575 0.85500002
-0.17839999 0.16240001 0.88200003
-0.17749999 0.163 0.88499999
-0.176 0.163 0.88499999
-0.1744 0.163 0.88499999
-0.1727 0.1628 0.884
-0.17020001 0.1619 0.87900001
-0.16599999 0.1593 0.86500001
-0.16240001 0.1573 0.85399997
-0.1596 0.156 0.847
-0.1578 0.1556 0.84500003
-0.1561 0.15539999 0.84399998
-0.15449999 0.1552 0.84299999
-0.15260001 0.1549 0.84100002
-0.1512 0.1549 0.84100002
-0.15009999 0.1552 0.84299999
-0.14830001 0.1549 0.84100002
-0.13249999 0.1552 0.84299999
-0.1309 0.1551 0.84200001
-0.1293 0.1549 0.84100002
-0.1279 0.1549 0.84100002
-0.12639999 0.1549 0.84100002
-0.1249 0.1549 0.84100002
-0.123 0.1543 0.838
-0.058200002 0.1639 0.88999999
-0.056600001 0.1637 0.889
-0.055 0.1635 0.88800001
-0.053399999 0.1635 0.88800001
-0.052000001 0.1639 0.88999999
-0.050500002 0.16410001 0.89099997
-0.048999999 0.16410001 0.89099997
-0.047499999 0.1645 0.89300001
-0.046100002 0.1648 0.89499998
0.162 0.16670001 0.90499997
0.16429999 0.1674 0.90899998
0.1657 0.1672 0.90799999
0.16760001 0.16760001 0.91000003
0.1696 0.168 0.912
0.1715 0.1683 0.91399997
0.1735 0.16869999 0.91600001
0.44279999 0.30700001 1.6670001
0.44220001 0.3046 1.654
0.4427 0.30289999 1.645
0.44389999 0.30180001 1.6390001
0.44510001 0.30070001 1.633
0.4463 0.29960001 1.627
0.45140001 0.29929999 1.625
0.4531 0.2985 1.6210001
0.45590001 0.2985 1.6210001
0.461 0.30000001 1.6289999
0.4666 0.30180001 1.6390001
-0.29539999 0.1679 0.903
-0.29280001 0.1673 0.89999998
-0.28999999 0.1666 0.89600003
-0.28780001 0.1662 0.89399999
-0.2392 0.1627 0.875
-0.2385 0.16320001 0.87800002
-0.23800001 0.164 0.88200003
-0.22400001 0.16599999 0.89300001
-0.2219 0.1656 0.89099997
-0.22059999 0.16580001 0.89200002
-0.2191 0.16580001 0.89200002
-0.2173 0.1656 0.89099997
-0.2158 0.1656 0.89099997
-0.2142 0.1656 0.89099997
-0.2124 0.1654 0.88999999
-0.20730001 0.1688 0.90799999
-0.205 0.1682 0.90499997
-0.2026 0.1675 0.90100002
-0.2008 0.1673 0.89999998
-0.19939999 0.1675 0.90100002
-0.1979 0.1675 0.90100002
-0.1963 0.1675 0.90100002
-0.1945 0.1673 0.89999998
-0.1921 0.1666 0.89600003
-0.1874 0.1638 0.88099998
-0.176 0.1576 0.84799999
-0.1749 0.15800001 0.85000002
-0.1786 0.16410001 0.88300002
-0.1777 0.1647 0.88599998
-0.17640001 0.1649 0.88700002
-0.17460001 0.1647 0.88599998
-0.17309999 0.1647 0.88599998
-0.162 0.1584 0.852
-0.1592 0.15710001 0.84500003
-0.1576 0.1569 0.84399998
-0.1556 0.15629999 0.84100002
-0.1539 0.1561 0.83999997
-0.1525 0.1561 0.83999997
-0.15099999 0.1561 0.83999997
-0.12819999 0.1567 0.84299999
-0.0581 0.1653 0.889
-0.056499999 0.1649 0.88700002
-0.0548 0.1645 0.88499999
-0.053300001 0.1647 0.88599998
-0.051899999 0.16509999 0.88800001
-0.050500002 0.1654 0.88999999
-0.0491 0.16599999 0.89300001
-0.047600001 0.1662 0.89399999
-0.0462 0.1666 0.89600003
-0.045000002 0.1679 0.903
0.033300001 0.168 0.90399998
0.1646 0.1693 0.91100001
0.1657 0.1688 0.90799999
0.1674 0.169 0.90899998
0.1696 0.16949999 0.912
0.1715 0.1699 0.91399997
0.1737 0.1705 0.917
0.44119999 0.30669999 1.65
0.44220001 0.30540001 1.643
0.4434 0.30430001 1.637
0.44400001 0.3028 1.6289999
0.44580001 0.3021 1.625
0.4497 0.301 1.619
0.45140001 0.30019999 1.615
0.45480001 0.30059999 1.617
0.46149999 0.30320001 1.631
0.46779999 0.30540001 1.643
-0.2922 0.16850001 0.898
-0.28960001 0.1679 0.89499998
-0.28709999 0.1674 0.89200002
-0.2377 0.16419999 0.875
-0.23800001 0.1655 0.88200003
-0.22040001 0.1672 0.89099997
-0.2191 0.1674 0.89200002
-0.21780001 0.1675 0.89300001
-0.21619999 0.1675 0.89300001
-0.2147 0.1675 0.89300001
-0.2077 0.1707 0.91000003
-0.20550001 0.17020001 0.90700001
-0.2032 0.1696 0.90399998
-0.2015 0.16940001 0.903
-0.1997 0.1692 0.90200001
-0.1979 0.169 0.90100002
-0.1963 0.169 0.90100002
-0.1943 0.16869999 0.89899999
-0.17990001 0.16 0.85299999
-0.17659999 0.1584 0.84399998
-0.17569999 0.15889999 0.847
-0.1751 0.15970001 0.85100001
-0.1786 0.1657 0.88300002
-0.1779 0.1664 0.88700002
-0.17659999 0.1666 0.88800001
-0.175 0.1666 0.88800001
-0.1735 0.1666 0.88800001
-0.1587 0.15800001 0.84200001
-0.15700001 0.1578 0.84100002
-0.15539999 0.1576 0.83999997
-0.15449999 0.1582 0.84299999
-0.056200001 0.1657 0.88300002
-0.054499999 0.16509999 0.88
-0.052999999 0.1653 0.88099998
-0.0517 0.16590001 0.884
-0.050299998 0.1664 0.88700002
-0.048900001 0.16680001 0.889
-0.047499999 0.1674 0.89200002
-0.0462 0.1681 0.89600003
-0.0449 0.169 0.90100002
0.16500001 0.17129999 0.91299999
0.16599999 0.1707 0.91000003
0.16760001 0.1707 0.91000003
0.16940001 0.1709 0.91100001
0.17110001 0.17110001 0.912
0.1733 0.1717 0.91500002
0.43990001 0.3107 1.656
0.4393 0.30829999 1.643
0.4411 0.3075 1.6390001
0.44279999 0.30680001 1.635
0.44350001 0.3053 1.627
0.4447 0.30410001 1.6210001
0.45089999 0.3026 1.613
0.45480001 0.30340001 1.617
0.4621 0.3064 1.633
0.4684 0.30860001 1.645
-0.29089999 0.1693 0.89399999
-0.289 0.1691 0.89300001
-0.28740001 0.1691 0.89300001
-0.2388 0.1664 0.87900001
-0.2388 0.16760001 0.88499999
-0.23890001 0.16869999 0.89099997
-0.2183 0.16949999 0.89499998
-0.2089 0.1733 0.91500002
-0.2066 0.1727 0.912
-0.2041 0.1719 0.90799999
-0.20209999 0.1716 0.90600002
-0.20029999 0.1714 0.90499997
-0.1988 0.1714 0.90499997
-0.1974 0.1716 0.90600002
-0.1751 0.15979999 0.84399998
-0.1749 0.161 0.85000002
-0.17839999 0.167 0.88200003
-0.1777 0.16779999 0.88599998
-0.17640001 0.168 0.88700002
-0.175 0.1681 0.88800001
-0.17389999 0.16850001 0.88999999
-0.1723 0.16850001 0.88999999
-0.1708 0.16850001 0.88999999
-0.16329999 0.16869999 0.89099997
-0.1626 0.1697 0.89600003
-0.1612 0.1699 0.89700001
-0.063100003 0.1577 0.833
-0.059799999 0.16869999 0.89099997
-0.057999998 0.168 0.88700002
-0.0561 0.167 0.88200003
-0.054400001 0.1664 0.87900001
-0.050099999 0.1674 0.884
-0.048900001 0.1683 0.889
-0.0449 0.1708 0.90200001
0.16500001 0.17290001 0.91299999
0.16599999 0.1723 0.91000003
0.1674 0.17209999 0.90899998
0.1692 0.1723 0.91000003
0.17110001 0.1727 0.912
0.4404 0.31400001 1.658
0.44060001 0.31209999 1.648
0.44220001 0.31110001 1.643
0.44389999 0.31040001 1.6390001
0.44510001 0.30919999 1.633
0.44690001 0.30849999 1.6289999
0.44909999 0.30809999 1.627
0.4576 0.30809999 1.627
0.46439999 0.3107 1.641
0.46919999 0.31209999 1.648
0.47209999 0.31209999 1.648
-0.2899 0.17030001 0.89099997
-0.28830001 0.17030001 0.89099997
-0.28650001 0.1701 0.88999999
-0.2429 0.17309999 0.90600002
-0.20460001 0.17389999 0.91000003
-0.2026 0.1735 0.90799999
-0.20100001 0.1735 0.90799999
-0.1999 0.17389999 0.91000003
-0.1987 0.1743 0.912
-0.17749999 0.1691 0.88499999
-0.17640001 0.16949999 0.88700002
-0.1752 0.1699 0.889
-0.1743 0.1705 0.89200002
-0.17290001 0.1706 0.89300001
-0.1716 0.1708 0.89399999
-0.16419999 0.17120001 0.89600003
-0.16329999 0.17200001 0.89999998
-0.16249999 0.1727 0.90399998
-0.1611 0.17290001 0.90499997
-0.063299999 0.15979999 0.83600003
-0.063000001 0.1705 0.89200002
-0.061299998 0.1701 0.88999999
-0.059700001 0.1699 0.889
-0.057999998 0.16949999 0.88700002
-0.0561 0.1684 0.88099998
-0.048900001 0.1701 0.88999999
-0.045400001 0.1745 0.91299999
0.164 0.175 0.91600001
0.16500001 0.1745 0.91299999
0.16599999 0.17389999 0.91000003
0.1674 0.1737 0.90899998
0.1692 0.17389999 0.91000003
0.17110001 0.1743 0.912
0.44060001 0.31490001 1.648
0.44220001 0.31400001 1.643
0.4445 0.3136 1.641
0.44510001 0.31200001 1.633
0.4463 0.3109 1.627
0.44909999 0.3109 1.627
0.4587 0.31169999 1.631
0.46439999 0.3136 1.641
0.4684 0.3143 1.645
0.47119999 0.3143 1.645
0.47170001 0.31279999 1.637
-0.2868 0.1718 0.89099997
-0.244 0.1743 0.90399998
-0.2429 0.17470001 0.90600002
-0.24160001 0.1749 0.90700001
-0.47870001 0.38389999 1.9910001
-0.4752 0.38389999 1.9910001
-0.4718 0.38389999 1.9910001
-0.17749999 0.1706 0.88499999
-0.1645 0.1732 0.898
-0.1635 0.1737 0.90100002
-0.16249999 0.1743 0.90399998
-0.1613 0.17470001 0.90600002
-0.13779999 0.1728 0.89600003
-0.1358 0.17219999 0.89300001
-0.13410001 0.17200001 0.89200002
-0.063600004 0.1618 0.83899999
-0.064000003 0.1706 0.88499999
-0.062799998 0.1716 0.88999999
-0.0614 0.17200001 0.89200002
-0.059900001 0.17219999 0.89300001
-0.0581 0.1714 0.889
-0.0561 0.1701 0.88200003
-0.0513 0.1745 0.90499997
-0.049899999 0.1749 0.90700001
0.1636 0.1762 0.91399997
0.1648 0.1759 0.912
0.16599999 0.17550001 0.91000003
0.16760001 0.17550001 0.91000003
0.1692 0.17550001 0.91000003
0.171 0.17569999 0.91100001
0.1884 0.1772 0.91900003
0.4404 0.3197 1.658
0.44060001 0.31779999 1.648
0.44220001 0.3168 1.643
0.4445 0.31639999 1.641
0.44350001 0.31369999 1.627
0.44409999 0.31220001 1.619
0.44580001 0.3114 1.615
0.45699999 0.31330001 1.625
0.46270001 0.31529999 1.635
0.4666 0.31600001 1.6390001
0.46950001 0.31600001 1.6390001
0.47119999 0.31529999 1.635
0.47400001 0.31529999 1.635
0.71499997 0.33669999 1.7460001
0.71100003 0.33340001 1.729
0.70660001 0.32859999 1.704
0.70670003 0.3272 1.697
0.70959997 0.3272 1.697
0.71090001 0.32640001 1.693
0.70999998 0.3247 1.684
0.70829999 0.32260001 1.673
-0.28740001 0.1728 0.88800001
-0.2868 0.1733 0.89099997
-0.2843 0.1728 0.88800001
-0.244 0.1759 0.90399998
-0.2427 0.1761 0.90499997
-0.2414 0.1763 0.90600002
-0.47940001 0.38789999 1.994
-0.4752 0.3874 1.9910001
-0.4725 0.38789999 1.994
-0.17839999 0.1716 0.88200003
-0.17749999 0.17219999 0.88499999
-0.1635 0.1753 0.90100002
-0.16249999 0.1759 0.90399998
-0.1611 0.1761 0.90499997
-0.15899999 0.17550001 0.90200001
-0.14229999 0.1741 0.89499998
-0.1401 0.1733 0.89099997
-0.1389 0.1737 0.89300001
-0.13699999 0.1733 0.89099997
-0.1355 0.1733 0.89099997
-0.1339 0.1733 0.89099997
-0.13240001 0.1733 0.89099997
-0.064000003 0.16419999 0.84399998
-0.063600004 0.171 0.87900001
-0.0625 0.17219999 0.88499999
-0.061099999 0.1726 0.88700002
-0.059900001 0.1737 0.89300001
-0.051399998 0.1763 0.90600002
-0.049899999 0.17649999 0.90700001
0.164 0.17820001 0.91600001
0.1654 0.178 0.91500002
0.1666 0.1776 0.91299999
0.168 0.17739999 0.912
0.16940001 0.1772 0.91100001
0.17110001 0.17739999 0.912
0.17290001 0.1776 0.91299999
0.1884 0.1788 0.91900003
0.43979999 0.31999999 1.645
0.44220001 0.3197 1.643
0.4445 0.3193 1.641
0.44459999 0.31729999 1.631
0.4452 0.31580001 1.623
0.44749999 0.3154 1.6210001
0.45480001 0.31650001 1.627
0.46380001 0.31889999 1.6390001
0.46779999 0.3197 1.643
0.46950001 0.31889999 1.6390001
0.47119999 0.31810001 1.635
0.4734 0.3177 1.633
0.67079997 0.32839999 1.688
0.6785 0.33070001 1.7
0.69340003 0.3337 1.715
0.71280003 0.34009999 1.748
0.71210003 0.33829999 1.739
0.70730001 0.3346 1.72
0.70950001 0.33419999 1.7180001
0.70660001 0.33149999 1.704
0.70670003 0.33019999 1.697
0.70959997 0.33019999 1.697
0.71170002 0.32980001 1.6950001
0.71170002 0.32839999 1.688
-0.28549999 0.1741 0.88700002
-0.24529999 0.1772 0.903
-0.2448 0.178 0.90700001
-0.24349999 0.17820001 0.90799999
-0.47870001 0.3908 1.9910001
-0.4745 0.39019999 1.988
-0.4725 0.39140001 1.994
-0.17470001 0.1653 0.84200001
-0.18000001 0.17470001 0.88999999
-0.1785 0.17470001 0.88999999
-0.14300001 0.17470001 0.88999999
-0.14129999 0.1745 0.889
-0.13959999 0.1743 0.88800001
-0.13789999 0.1741 0.88700002
-0.1367 0.1745 0.889
-0.13500001 0.1743 0.88800001
-0.13330001 0.1741 0.88700002
-0.1319 0.1743 0.88800001
-0.116 0.1627 0.829
-0.064199999 0.1663 0.847
-0.064599998 0.17120001 0.87199998
-0.063299999 0.1718 0.875
-0.061799999 0.1718 0.875
-0.060899999 0.1735 0.884
-0.0515 0.17820001 0.90799999
-0.049899999 0.178 0.90700001
0.1627 0.17839999 0.90899998
0.1646 0.1788 0.91100001
0.1662 0.1788 0.91100001
0.168 0.17900001 0.912
0.1696 0.17900001 0.912
0.17110001 0.17900001 0.912
0.17309999 0.1794 0.91399997
0.18700001 0.1806 0.92000002
0.1886 0.1806 0.92000002
0.44119999 0.32390001 1.65
0.44350001 0.32350001 1.648
0.44639999 0.32350001 1.648
0.44620001 0.3213 1.637
0.44690001 0.31979999 1.6289999
0.46039999 0.3213 1.637
0.46380001 0.32170001 1.6390001
0.46779999 0.32249999 1.643
0.47119999 0.3229 1.645
0.4729 0.32210001 1.641
0.47459999 0.3213 1.637
0.47679999 0.32089999 1.635
0.66689998 0.33230001 1.693
0.6706 0.33270001 1.6950001
0.68010002 0.33450001 1.704
0.68379998 0.33489999 1.706
0.69340003 0.33660001 1.715
0.69760001 0.33719999 1.7180001
0.70910001 0.34130001 1.739
0.70929998 0.34 1.732
0.70529997 0.33660001 1.715
0.70740002 0.3362 1.7130001
0.7058 0.33410001 1.702
0.7058 0.33270001 1.6950001
0.70880002 0.33270001 1.6950001
0.71170002 0.33270001 1.6950001
0.71380001 0.33230001 1.693
-0.2938 0.1788 0.903
-0.2458 0.17919999 0.90499997
-0.2448 0.1796 0.90700001
-0.2432 0.1796 0.90700001
-0.1741 0.1661 0.83899999
-0.18000001 0.1762 0.88999999
-0.1785 0.1762 0.88999999
-0.1776 0.1768 0.89300001
-0.177 0.1778 0.898
-0.1645 0.1778 0.898
-0.1442 0.1758 0.88800001
-0.1429 0.176 0.889
-0.14120001 0.1758 0.88800001
-0.13950001 0.17560001 0.88700002
-0.1376 0.1752 0.88499999
-0.1364 0.17560001 0.88700002
-0.1347 0.1754 0.88599998
-0.1332 0.1754 0.88599998
-0.1301 0.1735 0.87599999
-0.1174 0.16419999 0.829
-0.1161 0.1644 0.82999998
-0.1147 0.1644 0.82999998
-0.065099999 0.1701 0.85900003
-0.064599998 0.17290001 0.87300003
-0.063199997 0.17309999 0.87400001
-0.061700001 0.17309999 0.87400001
-0.060899999 0.1751 0.884
-0.0513 0.17919999 0.90499997
-0.049899999 0.1796 0.90700001
0.1629 0.1802 0.91000003
0.1652 0.18099999 0.91399997
0.1666 0.18080001 0.91299999
0.1682 0.18080001 0.91299999
0.1696 0.1806 0.912
0.17110001 0.1806 0.912
0.17309999 0.18099999 0.91399997
0.17470001 0.18099999 0.91399997
0.18719999 0.1824 0.921
0.18880001 0.1824 0.921
0.44119999 0.32260001 1.6289999
0.44190001 0.32100001 1.6210001
0.44299999 0.31979999 1.615
0.44389999 0.3184 1.608
0.45030001 0.32100001 1.6210001
0.46270001 0.3238 1.635
0.46779999 0.32539999 1.643
0.47119999 0.32570001 1.645
0.47490001 0.3263 1.648
0.47569999 0.32499999 1.641
0.6649 0.33430001 1.688
0.66900003 0.33489999 1.691
0.67930001 0.33700001 1.702
0.68300003 0.33739999 1.704
0.69260001 0.33919999 1.7130001
0.69760001 0.34020001 1.7180001
0.70340002 0.3416 1.725
0.70520002 0.34099999 1.722
0.70529997 0.3396 1.715
0.70819998 0.3396 1.715
0.70660001 0.33739999 1.704
0.70880002 0.33700001 1.702
0.71259999 0.33739999 1.704
0.72060001 0.33840001 1.709
0.72229999 0.3378 1.706
-0.29409999 0.1806 0.90399998
-0.24680001 0.1804 0.903
-0.2458 0.18080001 0.90499997
-0.2448 0.1812 0.90700001
-0.24349999 0.1814 0.90799999
-0.2229 0.18000001 0.90100002
-0.1963 0.1814 0.90799999
-0.1956 0.1822 0.912
-0.1824 0.1786 0.89399999
-0.1804 0.17820001 0.89200002
-0.1787 0.178 0.89099997
-0.1776 0.17839999 0.89300001
-0.17640001 0.1788 0.89499998
-0.1752 0.17919999 0.89700001
-0.1735 0.17900001 0.89600003
-0.16769999 0.1794 0.898
-0.1661 0.1794 0.898
-0.1649 0.1798 0.89999998
-0.14470001 0.178 0.89099997
-0.1432 0.178 0.89099997
-0.1415 0.1778 0.88999999
-0.13959999 0.17739999 0.88800001
-0.13789999 0.1772 0.88700002
-0.1365 0.17739999 0.88800001
-0.1346 0.1768 0.88499999
-0.13259999 0.1762 0.88200003
-0.1303 0.1752 0.87699997
-0.127 0.1728 0.86500001
-0.1235 0.17 0.85100001
-0.1176 0.16580001 0.82999998
-0.1163 0.16599999 0.83099997
-0.1147 0.16580001 0.82999998
-0.065200001 0.1758 0.88
-0.063900001 0.17640001 0.88300002
-0.0625 0.1768 0.88499999
-0.0612 0.1776 0.889
-0.0601 0.17900001 0.89600003
-0.058899999 0.18000001 0.90100002
-0.052999999 0.18099999 0.90600002
-0.051399998 0.1812 0.90700001
-0.049800001 0.18080001 0.90499997
0.1631 0.182 0.91100001
0.1652 0.18260001 0.91399997
0.1666 0.1824 0.91299999
0.1684 0.18260001 0.91399997
0.1696 0.1822 0.912
0.1715 0.18260001 0.91399997
0.1749 0.18279999 0.91500002
0.18719999 0.184 0.921
0.18880001 0.184 0.921
0.44049999 0.32080001 1.6059999
0.44389999 0.32120001 1.608
0.4508 0.3242 1.623
0.46149999 0.3258 1.631
0.4655 0.32659999 1.635
0.46950001 0.3274 1.6390001
0.47060001 0.32620001 1.633
0.65880001 0.33860001 1.6950001
0.66610003 0.34079999 1.706
0.67259997 0.3396 1.7
0.68010002 0.34040001 1.704
0.68879998 0.3418 1.711
0.69260001 0.34220001 1.7130001
0.69550002 0.34220001 1.7130001
0.70139998 0.3436 1.72
0.70349997 0.3432 1.7180001
0.7044 0.34220001 1.7130001
0.70660001 0.3418 1.711
0.7058 0.34 1.702
0.7058 0.33860001 1.6950001
0.71090001 0.3396 1.7
-0.2509 0.1838 0.912
-0.2482 0.183 0.90799999
-0.2466 0.183 0.90799999
-0.24529999 0.1832 0.90899998
-0.22400001 0.17990001 0.89300001
-0.2229 0.1803 0.89499998
-0.2216 0.1805 0.89600003
-0.22059999 0.18089999 0.898
-0.20119999 0.1803 0.89499998
-0.2001 0.1807 0.89700001
-0.1988 0.18089999 0.898
-0.1974 0.1811 0.89899999
-0.1961 0.1813 0.89999998
-0.19499999 0.18170001 0.90200001
-0.1947 0.183 0.90799999
-0.1842 0.1803 0.89499998
-0.18260001 0.1803 0.89499998
-0.1811 0.1803 0.89499998
-0.1795 0.1803 0.89499998
-0.17820001 0.1805 0.89600003
-0.177 0.18089999 0.898
-0.17560001 0.1811 0.89899999
-0.1741 0.1811 0.89899999
-0.1723 0.18089999 0.898
-0.1708 0.18089999 0.898
-0.1657 0.1805 0.89600003
-0.1644 0.1807 0.89700001
-0.163 0.18089999 0.898
-0.1618 0.1813 0.89999998
-0.1602 0.1813 0.89999998
-0.1583 0.18089999 0.898
-0.1564 0.1805 0.89600003
-0.14560001 0.1787 0.88700002
-0.1446 0.1793 0.88999999
-0.14300001 0.1793 0.88999999
-0.14129999 0.17910001 0.889
-0.13959999 0.1789 0.88800001
-0.1381 0.1789 0.88800001
-0.1365 0.1789 0.88800001
-0.1346 0.17829999 0.88499999
-0.13259999 0.1777 0.88200003
-0.1304 0.1769 0.87800002
-0.12729999 0.17470001 0.86699998
-0.1244 0.1727 0.85699999
-0.067000002 0.1781 0.884
-0.065499999 0.17829999 0.88499999
-0.064099997 0.1787 0.88700002
-0.062700003 0.1789 0.88800001
-0.0614 0.1797 0.89200002
-0.060199998 0.1807 0.89700001
-0.0592 0.1823 0.90499997
-0.057799999 0.183 0.90799999
-0.056299999 0.1832 0.90899998
-0.0546 0.18279999 0.90700001
-0.052999999 0.1825 0.90600002
-0.0513 0.1823 0.90499997
-0.049600001 0.18189999 0.903
0.16320001 0.1838 0.912
0.1652 0.1842 0.91399997
0.1666 0.184 0.91299999
0.1684 0.1842 0.91399997
0.1697 0.184 0.91299999
0.17129999 0.184 0.91299999
0.17309999 0.1842 0.91399997
0.17470001 0.1842 0.91399997
0.1868 0.18520001 0.91900003
0.1884 0.18520001 0.91900003
0.43149999 0.32100001 1.5930001
0.43309999 0.3202 1.589
0.43700001 0.32100001 1.5930001
0.43970001 0.32100001 1.5930001
0.4456 0.32319999 1.604
0.45480001 0.32780001 1.627
0.4598 0.3274 1.625
0.46489999 0.329 1.633
0.47209999 0.3321 1.648
0.479 0.33489999 1.6619999
0.66430002 0.3443 1.709
0.66960001 0.34560001 1.715
0.67320001 0.3443 1.709
0.6749 0.34369999 1.706
0.67629999 0.34290001 1.702
0.68089998 0.34369999 1.706
0.68379998 0.34369999 1.706
0.68800002 0.3443 1.709
0.69090003 0.3443 1.709
0.69389999 0.3443 1.709
0.69770002 0.34470001 1.711
0.70069999 0.34470001 1.711
0.70279998 0.3443 1.709
0.7058 0.3443 1.709
0.7058 0.34290001 1.702
0.70880002 0.34290001 1.702
0.71340001 0.34369999 1.706
0.71759999 0.3443 1.709
0.72229999 0.3452 1.7130001
0.72649997 0.3443 1.709
0.72729999 0.34330001 1.704
0.73409998 0.34369999 1.706
0.73830003 0.3443 1.709
0.74000001 0.34369999 1.706
0.74430001 0.3443 1.709
-0.29699999 0.18449999 0.90799999
-0.29570001 0.1847 0.90899998
-0.2938 0.18449999 0.90799999
-0.29229999 0.18449999 0.90799999
-0.25029999 0.1849 0.91000003
-0.24770001 0.1841 0.90600002
-0.2464 0.18430001 0.90700001
-0.2448 0.18430001 0.90700001
-0.2263 0.18089999 0.88999999
-0.2245 0.1807 0.889
-0.2235 0.1811 0.89099997
-0.22239999 0.1815 0.89300001
-0.2211 0.18170001 0.89399999
-0.2198 0.18189999 0.89499998
-0.21879999 0.1823 0.89700001
-0.20100001 0.18170001 0.89399999
-0.1997 0.18189999 0.89499998
-0.1983 0.1821 0.89600003
-0.19679999 0.1821 0.89600003
-0.1957 0.1825 0.898
-0.1945 0.1829 0.89999998
-0.1938 0.1837 0.90399998
-0.1855 0.18170001 0.89399999
-0.1837 0.1815 0.89300001
-0.1824 0.18170001 0.89399999
-0.1811 0.18189999 0.89499998
-0.1797 0.1821 0.89600003
-0.17829999 0.1823 0.89700001
-0.1772 0.18269999 0.89899999
-0.1758 0.1829 0.89999998
-0.1745 0.1831 0.90100002
-0.17290001 0.1831 0.90100002
-0.17110001 0.1829 0.89999998
-0.1692 0.1825 0.898
-0.1673 0.1821 0.89600003
-0.1657 0.1821 0.89600003
-0.16419999 0.1821 0.89600003
-0.163 0.1825 0.898
-0.16159999 0.18269999 0.89899999
-0.16 0.18269999 0.89899999
-0.1583 0.1825 0.898
-0.1568 0.1825 0.898
-0.1451 0.1815 0.89300001
-0.1433 0.1813 0.89200002
-0.1416 0.1811 0.89099997
-0.1399 0.18089999 0.88999999
-0.1384 0.18089999 0.88999999
-0.13689999 0.18089999 0.88999999
-0.13500001 0.1805 0.88800001
-0.13330001 0.1803 0.88700002
-0.1309 0.17900001 0.88099998
-0.12800001 0.1772 0.87199998
-0.1252 0.1754 0.86299998
-0.1207 0.17990001 0.88499999
-0.1195 0.1803 0.88700002
-0.067400001 0.18089999 0.88999999
-0.065800004 0.1807 0.889
-0.064400002 0.1811 0.89099997
-0.063199997 0.18189999 0.89499998
-0.061799999 0.1825 0.898
-0.0605 0.1833 0.90200001
-0.059099998 0.1837 0.90399998
-0.057700001 0.18430001 0.90700001
-0.0561 0.1841 0.90600002
-0.054499999 0.1839 0.90499997
-0.0528 0.1837 0.90399998
-0.0513 0.1837 0.90399998
-0.049600001 0.18350001 0.903
-0.047800001 0.1825 0.898
-0.046300001 0.1825 0.898
-0.044599999 0.1821 0.89600003
0.16320001 0.18529999 0.912
0.16500001 0.1855 0.91299999
0.1664 0.18529999 0.912
0.1682 0.1855 0.91299999
0.1696 0.18529999 0.912
0.17110001 0.18529999 0.912
0.1727 0.18529999 0.912
0.1868 0.1868 0.91900003
0.1884 0.1868 0.91900003
0.42879999 0.32170001 1.5829999
0.43099999 0.3213 1.581
0.43419999 0.32170001 1.5829999
0.43700001 0.32170001 1.5829999
0.45809999 0.329 1.619
0.46380001 0.331 1.6289999
0.47209999 0.33489999 1.648
0.4772 0.33649999 1.656
0.66780001 0.34909999 1.7180001
0.67259997 0.34850001 1.715
0.67479998 0.34810001 1.7130001
0.67610002 0.34729999 1.709
0.6771 0.34630001 1.704
0.68089998 0.34670001 1.706
0.68379998 0.34670001 1.706
0.68879998 0.3477 1.711
0.69090003 0.34729999 1.709
0.69270003 0.34670001 1.706
0.69559997 0.34670001 1.706
0.69859999 0.34670001 1.706
0.70069999 0.34630001 1.704
0.70289999 0.3459 1.702
0.70370001 0.34490001 1.697
0.70789999 0.34549999 1.7
0.71259999 0.34630001 1.704
0.71759999 0.34729999 1.709
0.72060001 0.34729999 1.709
0.72140002 0.34630001 1.704
0.72649997 0.34729999 1.709
0.72729999 0.34630001 1.704
0.7324 0.34729999 1.709
0.73409998 0.34670001 1.706
0.74510002 0.3477 1.711
-0.2976 0.1865 0.91000003
-0.29609999 0.1865 0.91000003
-0.2942 0.18629999 0.90899998
-0.2929 0.1865 0.91000003
-0.24789999 0.1859 0.90700001
-0.2464 0.1859 0.90700001
-0.2445 0.1857 0.90600002
-0.2307 0.18340001 0.89499998
-0.2286 0.183 0.89300001
-0.2263 0.1824 0.88999999
-0.2243 0.182 0.88800001
-0.223 0.1822 0.889
-0.2217 0.1824 0.88999999
-0.22040001 0.18260001 0.89099997
-0.2193 0.183 0.89300001
-0.21799999 0.1832 0.89399999
-0.2016 0.1824 0.88999999
-0.2005 0.18279999 0.89200002
-0.1992 0.183 0.89300001
-0.1981 0.18340001 0.89499998
-0.19660001 0.18340001 0.89499998
-0.1952 0.18359999 0.89600003
-0.19410001 0.184 0.898
-0.1936 0.1851 0.903
-0.1927 0.1857 0.90600002
-0.1909 0.1855 0.90499997
-0.1877 0.1838 0.89700001
-0.1857 0.18340001 0.89499998
-0.1842 0.18340001 0.89499998
-0.18260001 0.18340001 0.89499998
-0.1811 0.18340001 0.89499998
-0.1797 0.18359999 0.89600003
-0.17820001 0.18359999 0.89600003
-0.17659999 0.18359999 0.89600003
-0.1752 0.1838 0.89700001
-0.1735 0.18359999 0.89600003
-0.1717 0.18340001 0.89499998
-0.1698 0.183 0.89300001
-0.16769999 0.1824 0.88999999
-0.1663 0.18260001 0.89099997
-0.1652 0.183 0.89300001
-0.164 0.18340001 0.89499998
-0.1626 0.18359999 0.89600003
-0.16140001 0.184 0.898
-0.15989999 0.184 0.898
-0.15800001 0.18359999 0.89600003
-0.1564 0.18359999 0.89600003
-0.33140001 0.39700001 1.937
-0.147 0.1816 0.88599998
-0.14659999 0.183 0.89300001
-0.1451 0.183 0.89300001
-0.1437 0.1832 0.89399999
-0.14229999 0.18340001 0.89499998
-0.1406 0.1832 0.89399999
-0.1389 0.183 0.89300001
-0.1373 0.183 0.89300001
-0.1358 0.183 0.89300001
-0.13420001 0.183 0.89300001
-0.1321 0.1822 0.889
-0.1241 0.18179999 0.88700002
-0.1224 0.1816 0.88599998
-0.121 0.18179999 0.88700002
-0.1196 0.182 0.88800001
-0.1182 0.1822 0.889
-0.071400002 0.1732 0.84500003
-0.067699999 0.1832 0.89399999
-0.066100001 0.183 0.89300001
-0.064800002 0.18359999 0.89600003
-0.0634 0.18430001 0.89899999
-0.061999999 0.18449999 0.89999998
-0.0605 0.1849 0.90200001
-0.059 0.1851 0.903
-0.057599999 0.1855 0.90499997
-0.056000002 0.18529999 0.90399998
-0.054200001 0.1847 0.90100002
-0.052700002 0.1847 0.90100002
-0.051199999 0.1851 0.903
-0.0495 0.18449999 0.89999998
-0.047699999 0.18359999 0.89600003
-0.0462 0.18359999 0.89600003
-0.044599999 0.18340001 0.89499998
0.1636 0.1873 0.91399997
0.1652 0.1873 0.91399997
0.1662 0.1867 0.91100001
0.168 0.1869 0.912
0.16940001 0.1867 0.91100001
0.171 0.1867 0.91100001
0.1725 0.1867 0.91100001
0.1846 0.1877 0.91600001
0.18619999 0.1877 0.91600001
0.4375 0.32690001 1.595
0.46610001 0.3355 1.637
0.4738 0.33899999 1.654
0.47780001 0.3398 1.658
0.66360003 0.3515 1.715
0.66860002 0.35249999 1.72
0.6735 0.35350001 1.725
0.67449999 0.35249999 1.72
0.6807 0.3511 1.7130001
0.68449998 0.3515 1.715
0.68739998 0.3515 1.715
0.6904 0.3515 1.715
0.69260001 0.3511 1.7130001
0.69389999 0.35030001 1.709
0.69559997 0.3497 1.706
0.69779998 0.34920001 1.704
0.69910002 0.3484 1.7
0.7008 0.34779999 1.697
0.70209998 0.347 1.693
0.70670003 0.34779999 1.697
0.71259999 0.34920001 1.704
0.71759999 0.35030001 1.709
0.71929997 0.3497 1.706
0.7184 0.34779999 1.697
0.72140002 0.34779999 1.697
0.72350001 0.34740001 1.6950001
0.72860003 0.3484 1.7
0.73150003 0.3484 1.7
0.73619998 0.34920001 1.704
0.73909998 0.34920001 1.704
-0.29929999 0.1891 0.91500002
-0.2967 0.1885 0.912
-0.2474 0.18709999 0.90499997
-0.2466 0.1877 0.90799999
-0.2289 0.1848 0.89399999
-0.2263 0.184 0.88999999
-0.2243 0.18350001 0.88800001
-0.2227 0.18350001 0.88800001
-0.2217 0.184 0.88999999
-0.2201 0.184 0.88999999
-0.2191 0.18440001 0.89200002
-0.21799999 0.1848 0.89399999
-0.2167 0.185 0.89499998
-0.20100001 0.1848 0.89399999
-0.1992 0.1846 0.89300001
-0.19769999 0.1846 0.89300001
-0.1961 0.1846 0.89300001
-0.19499999 0.185 0.89499998
-0.1937 0.18520001 0.89600003
-0.1917 0.1848 0.89399999
-0.18970001 0.18440001 0.89200002
-0.1873 0.18350001 0.88800001
-0.1858 0.18350001 0.88800001
-0.1849 0.1842 0.89099997
-0.18350001 0.18440001 0.89200002
-0.1824 0.1848 0.89399999
-0.1811 0.185 0.89499998
-0.1797 0.18520001 0.89600003
-0.178 0.185 0.89499998
-0.1762 0.1848 0.89399999
-0.1743 0.18440001 0.89200002
-0.17209999 0.1837 0.889
-0.17 0.1831 0.88599998
-0.1683 0.1829 0.88499999
-0.1664 0.1825 0.88300002
-0.16500001 0.18269999 0.884
-0.1639 0.1831 0.88599998
-0.1627 0.18350001 0.88800001
-0.1617 0.1842 0.89099997
-0.1605 0.1846 0.89300001
-0.1593 0.185 0.89499998
-0.1578 0.185 0.89499998
-0.1564 0.18520001 0.89600003
-0.329 0.39750001 1.923
-0.3247 0.3962 1.9170001
-0.14669999 0.18269999 0.884
-0.1463 0.1842 0.89099997
-0.14470001 0.1842 0.89099997
-0.1437 0.1848 0.89399999
-0.1424 0.18520001 0.89600003
-0.1409 0.18520001 0.89600003
-0.1393 0.18520001 0.89600003
-0.13779999 0.18520001 0.89600003
-0.13609999 0.185 0.89499998
-0.1347 0.18520001 0.89600003
-0.1242 0.18350001 0.88800001
-0.1226 0.1833 0.88700002
-0.1212 0.18350001 0.88800001
-0.1196 0.18350001 0.88800001
-0.1181 0.18350001 0.88800001
-0.071400002 0.17470001 0.84500003
-0.068000004 0.1856 0.898
-0.066500001 0.1856 0.898
-0.065099999 0.186 0.89999998
-0.063600004 0.18619999 0.90100002
-0.061999999 0.18619999 0.90100002
-0.060600001 0.1866 0.903
-0.0592 0.18709999 0.90499997
-0.057300001 0.18619999 0.90100002
-0.0537 0.1846 0.89300001
-0.0524 0.18520001 0.89600003
-0.050900001 0.18539999 0.89700001
-0.0493 0.18520001 0.89600003
-0.047699999 0.185 0.89499998
-0.046100002 0.185 0.89499998
-0.044599999 0.18520001 0.89600003
-0.043000001 0.185 0.89499998
0.1636 0.18889999 0.91399997
0.1648 0.1885 0.912
0.16590001 0.18790001 0.90899998
0.16760001 0.1881 0.91000003
0.169 0.18790001 0.90899998
0.1706 0.18790001 0.90899998
0.17200001 0.1877 0.90799999
0.4375 0.32969999 1.595
0.44080001 0.3301 1.597
0.46720001 0.33919999 1.641
0.47490001 0.3427 1.658
0.47979999 0.3441 1.665
0.6656 0.35550001 1.72
0.66930002 0.35589999 1.722
0.67830002 0.35589999 1.722
0.68049997 0.35550001 1.72
0.68269998 0.35510001 1.7180001
0.68449998 0.3545 1.715
0.68739998 0.3545 1.715
0.68959999 0.35409999 1.7130001
0.69090003 0.35319999 1.709
0.69190001 0.3522 1.704
0.69319999 0.35139999 1.7
0.69410002 0.35030001 1.6950001
0.6954 0.3495 1.691
0.69709998 0.34889999 1.688
0.69919997 0.34850001 1.686
0.70420003 0.3495 1.691
0.70959997 0.35069999 1.697
0.71469998 0.35179999 1.702
0.71679997 0.35139999 1.7
0.71460003 0.34889999 1.688
0.71880001 0.3495 1.691
0.72049999 0.34889999 1.688
0.72640002 0.35030001 1.6950001
0.73019999 0.35069999 1.697
0.73439997 0.35139999 1.7
0.73610002 0.35069999 1.697
-0.29480001 0.1899 0.91100001
-0.29359999 0.1901 0.912
-0.2466 0.18799999 0.90200001
-0.2464 0.189 0.90700001
-0.22939999 0.1867 0.89600003
-0.2271 0.18610001 0.89300001
-0.22480001 0.1855 0.88999999
-0.2227 0.1851 0.88800001
-0.2212 0.1851 0.88800001
-0.21969999 0.1851 0.88800001
-0.2186 0.1855 0.88999999
-0.2175 0.1859 0.89200002
-0.21619999 0.18610001 0.89300001
-0.2025 0.18629999 0.89399999
-0.20100001 0.18629999 0.89399999
-0.1992 0.18610001 0.89300001
-0.19750001 0.1859 0.89200002
-0.19589999 0.1859 0.89200002
-0.1948 0.18629999 0.89399999
-0.19320001 0.18629999 0.89399999
-0.1911 0.1857 0.89099997
-0.186 0.18529999 0.889
-0.18529999 0.18610001 0.89300001
-0.18350001 0.1859 0.89200002
-0.18260001 0.1865 0.89499998
-0.18170001 0.18719999 0.898
-0.18009999 0.18719999 0.898
-0.17829999 0.18700001 0.89700001
-0.17640001 0.1865 0.89499998
-0.1745 0.18610001 0.89300001
-0.1723 0.1855 0.88999999
-0.17020001 0.1849 0.88700002
-0.1683 0.18449999 0.88499999
-0.1666 0.1842 0.884
-0.1652 0.18449999 0.88499999
-0.16410001 0.1849 0.88700002
-0.1631 0.1855 0.88999999
-0.16240001 0.1865 0.89499998
-0.16140001 0.18719999 0.898
-0.15989999 0.18719999 0.898
-0.1587 0.1876 0.89999998
-0.15090001 0.1876 0.89999998
-0.1498 0.1882 0.903
-0.1479 0.18780001 0.90100002
-0.146 0.1874 0.89899999
-0.1443 0.18719999 0.898
-0.1426 0.18700001 0.89700001
-0.1409 0.1867 0.89600003
-0.1393 0.1867 0.89600003
-0.13779999 0.1867 0.89600003
-0.1362 0.1867 0.89600003
-0.1242 0.1851 0.88800001
-0.1227 0.1851 0.88800001
-0.1212 0.1851 0.88800001
-0.1196 0.1851 0.88800001
-0.1181 0.1851 0.88800001
-0.1165 0.1851 0.88800001
-0.067900002 0.1867 0.89600003
-0.066500001 0.18719999 0.898
-0.065099999 0.1876 0.89999998
-0.063600004 0.18780001 0.90100002
-0.062100001 0.18799999 0.90200001
-0.0605 0.18780001 0.90100002
-0.058499999 0.1865 0.89499998
-0.056499999 0.1849 0.88700002
-0.0546 0.1838 0.88200003
-0.053100001 0.1838 0.88200003
-0.052000001 0.1855 0.88999999
-0.0506 0.18610001 0.89300001
-0.0493 0.1867 0.89600003
-0.047699999 0.1867 0.89600003
-0.046100002 0.1865 0.89499998
-0.044599999 0.1867 0.89600003
0.1645 0.19149999 0.91900003
0.1652 0.19050001 0.91399997
0.16599999 0.18970001 0.91000003
0.1674 0.1895 0.90899998
0.1688 0.1892 0.90799999
0.17020001 0.189 0.90700001
0.1714 0.1886 0.90499997
0.4359 0.33329999 1.599
0.4375 0.33239999 1.595
0.44029999 0.33239999 1.595
0.44420001 0.33329999 1.599
0.461 0.33950001 1.6289999
0.46720001 0.34200001 1.641
0.4738 0.34470001 1.654
0.47780001 0.34560001 1.658
0.66339999 0.35890001 1.722
0.66909999 0.36039999 1.729
0.6803 0.3599 1.727
0.68129998 0.35890001 1.722
0.68349999 0.3585 1.72
0.68449998 0.3574 1.715
0.68739998 0.3574 1.715
0.68959999 0.35699999 1.7130001
0.69090003 0.35620001 1.709
0.69190001 0.35510001 1.704
0.69400001 0.3547 1.702
0.69410002 0.35330001 1.6950001
0.69620001 0.3529 1.693
0.6983 0.3524 1.691
0.70130002 0.3524 1.691
0.70670003 0.35370001 1.697
0.71259999 0.35510001 1.704
0.71630001 0.3556 1.706
0.71850002 0.35510001 1.704
0.71679997 0.3529 1.693
0.71759999 0.35179999 1.688
0.71880001 0.35100001 1.684
0.72259998 0.35139999 1.686
0.72759998 0.3524 1.691
0.73229998 0.35330001 1.6950001
0.73439997 0.3529 1.693
-0.29350001 0.19059999 0.90700001
-0.2913 0.1902 0.90499997
-0.2463 0.1893 0.90100002
-0.2464 0.19059999 0.90700001
-0.2273 0.18790001 0.89399999
-0.22499999 0.18719999 0.89099997
-0.2227 0.1866 0.88800001
-0.22139999 0.1868 0.889
-0.2199 0.1868 0.889
-0.2186 0.18700001 0.88999999
-0.21780001 0.1877 0.89300001
-0.21619999 0.1877 0.89300001
-0.2023 0.1877 0.89300001
-0.2008 0.1877 0.89300001
-0.1992 0.1877 0.89300001
-0.19750001 0.1875 0.89200002
-0.1957 0.18719999 0.89099997
-0.19410001 0.18719999 0.89099997
-0.1926 0.18719999 0.89099997
-0.1849 0.18719999 0.89099997
-0.1833 0.18719999 0.89099997
-0.18260001 0.1881 0.89499998
-0.18189999 0.18889999 0.89899999
-0.1803 0.18889999 0.89899999
-0.17820001 0.1883 0.89600003
-0.176 0.1877 0.89300001
-0.1741 0.18719999 0.89099997
-0.1717 0.1864 0.88700002
-0.1698 0.186 0.88499999
-0.1679 0.1856 0.88300002
-0.16599999 0.1851 0.88099998
-0.1647 0.18539999 0.88200003
-0.1637 0.186 0.88499999
-0.1629 0.1868 0.889
-0.16240001 0.1881 0.89499998
-0.1612 0.1885 0.89700001
-0.15989999 0.18870001 0.898
-0.1479 0.1893 0.90100002
-0.1462 0.1891 0.89999998
-0.1445 0.18889999 0.89899999
-0.1428 0.18870001 0.898
-0.1407 0.1881 0.89499998
-0.1393 0.1883 0.89600003
-0.13779999 0.1883 0.89600003
-0.13609999 0.1881 0.89499998
-0.1076 0.182 0.866
-0.1061 0.182 0.866
-0.1054 0.1833 0.87199998
-0.1046 0.18449999 0.87800002
-0.0726 0.1769 0.84200001
-0.068800002 0.1866 0.88800001
-0.067699999 0.1877 0.89300001
-0.066299997 0.1881 0.89499998
-0.064900003 0.18870001 0.898
-0.063500002 0.1891 0.89999998
-0.061999999 0.1891 0.89999998
-0.060400002 0.1891 0.89999998
-0.058200002 0.18700001 0.88999999
-0.0561 0.18539999 0.88200003
-0.054499999 0.1851 0.88099998
-0.052999999 0.1849 0.88
-0.0517 0.1858 0.884
-0.050299998 0.1864 0.88700002
-0.0491 0.1877 0.89300001
-0.047600001 0.18790001 0.89399999
0.1648 0.1917 0.912
0.16590001 0.191 0.90899998
0.1672 0.1908 0.90799999
0.1684 0.1904 0.90600002
0.1698 0.1902 0.90499997
0.171 0.18979999 0.903
0.1726 0.18979999 0.903
0.44 0.3371 1.604
0.4621 0.3432 1.633
0.4666 0.34439999 1.6390001
0.47119999 0.3457 1.645
0.47549999 0.3468 1.65
0.66530001 0.36289999 1.727
0.66909999 0.36340001 1.729
0.67210001 0.36340001 1.729
0.67699999 0.3644 1.734
0.67809999 0.36340001 1.729
0.6803 0.36289999 1.727
0.6825 0.36250001 1.725
0.68349999 0.36149999 1.72
0.6857 0.361 1.7180001
0.68940002 0.36149999 1.72
0.69160002 0.361 1.7180001
0.69260001 0.36000001 1.7130001
0.69389999 0.3592 1.709
0.69480002 0.3581 1.704
0.6961 0.35730001 1.7
0.69700003 0.35620001 1.6950001
0.69910002 0.3558 1.693
0.69999999 0.3547 1.688
0.70289999 0.3547 1.688
0.70590001 0.3547 1.688
0.70709997 0.35389999 1.684
0.70829999 0.3531 1.6799999
0.70910001 0.352 1.675
0.7112 0.35159999 1.673
0.7141 0.35159999 1.673
0.72000003 0.3531 1.6799999
0.72549999 0.35429999 1.686
0.72930002 0.3547 1.688
0.7335 0.3554 1.691
-0.29249999 0.19149999 0.90399998
-0.29069999 0.1913 0.903
-0.2897 0.1918 0.90499997
-0.22480001 0.1886 0.88999999
-0.2225 0.18790001 0.88700002
-0.2212 0.1882 0.88800001
-0.21969999 0.1882 0.88800001
-0.2184 0.1884 0.889
-0.21709999 0.1886 0.88999999
-0.2158 0.18880001 0.89099997
-0.2008 0.1892 0.89300001
-0.1992 0.1892 0.89300001
-0.1972 0.18880001 0.89099997
-0.1849 0.18880001 0.89099997
-0.1837 0.1892 0.89300001
-0.18279999 0.1899 0.89600003
-0.1821 0.19069999 0.89999998
-0.1805 0.19069999 0.89999998
-0.17820001 0.1899 0.89600003
-0.17640001 0.18960001 0.89499998
-0.1743 0.189 0.89200002
-0.1696 0.1873 0.884
-0.1675 0.1867 0.88099998
-0.16599999 0.1867 0.88099998
-0.1645 0.1867 0.88099998
-0.16150001 0.1886 0.88999999
-0.1464 0.1909 0.90100002
-0.1446 0.19069999 0.89999998
-0.1428 0.1903 0.898
-0.1407 0.18960001 0.89499998
-0.1389 0.1892 0.89300001
-0.1373 0.1892 0.89300001
-0.1358 0.1892 0.89300001
-0.107 0.1824 0.861
-0.1055 0.1824 0.861
-0.1043 0.1829 0.86299998
-0.1034 0.1839 0.86799997
-0.073700003 0.1776 0.838
-0.069499999 0.18179999 0.85799998
-0.068599999 0.18350001 0.866
-0.068800002 0.18790001 0.88700002
-0.067500003 0.18880001 0.89099997
-0.066100001 0.1892 0.89300001
-0.064800002 0.1899 0.89600003
-0.0634 0.19050001 0.89899999
-0.061900001 0.19050001 0.89899999
-0.0601 0.1899 0.89600003
-0.058200002 0.1886 0.88999999
-0.056299999 0.1873 0.884
-0.054699998 0.18709999 0.88300002
-0.053199999 0.1873 0.884
-0.0517 0.1875 0.88499999
-0.0502 0.1875 0.88499999
-0.048900001 0.1884 0.889
0.16410001 0.1943 0.917
0.16500001 0.1935 0.91299999
0.1657 0.19239999 0.90799999
0.1671 0.19220001 0.90700001
0.1684 0.192 0.90600002
0.1698 0.1918 0.90499997
0.1708 0.1911 0.90200001
0.1724 0.1911 0.90200001
0.44220001 0.33939999 1.602
0.46779999 0.34810001 1.643
0.66579998 0.3678 1.7359999
0.67320001 0.36700001 1.732
0.67510003 0.3664 1.729
0.67750001 0.3644 1.72
