ply
format ascii 1.0
comment PCL generated
element vertex 1508
property float x
property float y
property float z
element camera 0
property float view_px
property float view_py
property float view_pz
property float x_axisx
property float x_axisy
property float x_axisz
property float y_axisx
property float y_axisy
property float y_axisz
property float z_axisx
property float z_axisy
property float z_axisz
property float focal
property float scalex
property float scaley
property float centerx
property float centery
property int viewportx
property int viewporty
property float k1
property float k2
end_header
-0.048999999 0.041099999 0.83899999
-0.047600001 0.041099999 0.83899999
-0.0462 0.041099999 0.83999997
-0.044799998 0.041200001 0.84100002
-0.043400001 0.041200001 0.84200001
-0.041900001 0.041200001 0.84200001
-0.040399998 0.041200001 0.84100002
-0.038899999 0.041200001 0.84100002
-0.037500001 0.041200001 0.84200001
-0.0361 0.041299999 0.84299999
-0.034600001 0.041200001 0.84100002
-0.033 0.041099999 0.83899999
-0.031599998 0.041099999 0.83899999
-0.030099999 0.041099999 0.83899999
-0.0287 0.041099999 0.83899999
-0.0272 0.041099999 0.83899999
-0.025699999 0.041000001 0.838
-0.0243 0.041099999 0.83899999
-0.0229 0.041099999 0.83999997
-0.021400001 0.041099999 0.83999997
-0.02 0.041200001 0.84100002
-0.0185 0.041200001 0.84100002
-0.017100001 0.041299999 0.84299999
-0.0156 0.041200001 0.84200001
-0.0141 0.041099999 0.83899999
-0.0082 0.0407 0.83099997
-0.0068000001 0.0407 0.83099997
-0.0054000001 0.0407 0.83200002
-0.0038999999 0.040800001 0.833
-0.0024999999 0.040899999 0.83499998
-0.001 0.041000001 0.83700001
0.00039999999 0.041000001 0.83700001
0.0019 0.041099999 0.83899999
0.0033 0.041099999 0.83999997
0.0048000002 0.041099999 0.83999997
0.0062000002 0.041200001 0.84100002
0.0077 0.041200001 0.84100002
0.0091000004 0.041200001 0.84100002
0.0106 0.041099999 0.83999997
0.012 0.041099999 0.83899999
0.0135 0.041000001 0.838
0.0149 0.041000001 0.838
0.0164 0.041000001 0.83700001
0.0178 0.040899999 0.83600003
0.019300001 0.041000001 0.838
0.0207 0.041000001 0.83700001
0.0222 0.041000001 0.83700001
0.023600001 0.040899999 0.83600003
0.025 0.040899999 0.83499998
0.0264 0.040800001 0.83399999
0.027899999 0.040800001 0.83399999
0.029300001 0.040800001 0.83399999
0.0307 0.040800001 0.833
0.032200001 0.040899999 0.83499998
0.034000002 0.041200001 0.84200001
0.035599999 0.0414 0.84600002
0.0372 0.0416 0.85000002
0.039000001 0.041900001 0.85600001
-0.39669999 0.044500001 0.87800002
-0.39520001 0.044500001 0.87800002
-0.39320001 0.044500001 0.87699997
-0.1027 0.0425 0.838
-0.1013 0.0425 0.838
-0.099699996 0.042399999 0.83700001
-0.097999997 0.042300001 0.83499998
-0.096600004 0.042300001 0.83499998
-0.094999999 0.042300001 0.83399999
-0.093400002 0.042199999 0.833
-0.091799997 0.042100001 0.83099997
-0.090300001 0.042100001 0.83099997
-0.088799998 0.042100001 0.82999998
-0.087300003 0.042100001 0.82999998
-0.086000003 0.042100001 0.83099997
-0.084600002 0.042100001 0.83099997
-0.0832 0.042199999 0.83200002
-0.081799999 0.042199999 0.83200002
-0.080300003 0.042199999 0.83200002
-0.078900002 0.042199999 0.83200002
-0.077500001 0.042199999 0.83200002
-0.075900003 0.042100001 0.83099997
-0.074500002 0.042100001 0.83099997
-0.073100001 0.042100001 0.83099997
-0.071599998 0.042100001 0.83099997
-0.070299998 0.042199999 0.83200002
-0.068700001 0.042100001 0.83099997
-0.067400001 0.042199999 0.83200002
-0.065899998 0.042199999 0.83200002
-0.064499997 0.042199999 0.83200002
-0.063100003 0.042199999 0.833
-0.061799999 0.042300001 0.83399999
-0.0603 0.042300001 0.83399999
-0.059 0.042399999 0.83600003
-0.057599999 0.042399999 0.83700001
-0.056200001 0.042399999 0.83700001
-0.054699998 0.042399999 0.83700001
-0.053300001 0.0425 0.838
-0.051899999 0.0425 0.83899999
-0.050500002 0.0425 0.83899999
-0.048999999 0.0425 0.838
-0.047499999 0.0425 0.838
-0.046100002 0.0425 0.83899999
-0.044799998 0.042599998 0.84100002
-0.043400001 0.0427 0.84299999
-0.041900001 0.0427 0.84200001
-0.040399998 0.042599998 0.84100002
-0.038899999 0.042599998 0.84100002
-0.037500001 0.0427 0.84200001
-0.0361 0.0427 0.84200001
-0.034600001 0.042599998 0.84100002
-0.033100002 0.042599998 0.83999997
-0.031599998 0.042599998 0.83999997
-0.030200001 0.042599998 0.83999997
-0.0287 0.042599998 0.83999997
-0.0273 0.042599998 0.83999997
-0.025800001 0.0425 0.83899999
-0.0243 0.0425 0.83899999
-0.0229 0.042599998 0.83999997
-0.021400001 0.042599998 0.83999997
-0.02 0.042599998 0.84100002
-0.0186 0.0427 0.84200001
-0.017100001 0.042800002 0.84399998
-0.015699999 0.042800002 0.84399998
-0.0142 0.042599998 0.83999997
-0.0126 0.042399999 0.83600003
-0.0111 0.042199999 0.833
-0.0097000003 0.042199999 0.83200002
-0.0082999999 0.042199999 0.83200002
-0.0068000001 0.042199999 0.83200002
-0.0054000001 0.042199999 0.83200002
-0.0038999999 0.042300001 0.83399999
-0.0024999999 0.042399999 0.83700001
-0.001 0.0425 0.838
0.00039999999 0.0425 0.838
0.0019 0.042599998 0.83999997
0.0033 0.042599998 0.83999997
0.0048000002 0.042599998 0.84100002
0.0062000002 0.042599998 0.84100002
0.0077 0.042599998 0.84100002
0.0091000004 0.042599998 0.83999997
0.0121 0.042599998 0.83999997
0.0135 0.042399999 0.83700001
0.0149 0.042399999 0.83700001
0.0163 0.042300001 0.83499998
0.0177 0.042300001 0.83399999
0.019200001 0.042300001 0.83399999
0.0206 0.042300001 0.83399999
0.0221 0.042199999 0.833
0.023499999 0.042199999 0.833
0.024900001 0.042199999 0.833
0.0264 0.042199999 0.833
0.027799999 0.042199999 0.833
0.029300001 0.042199999 0.833
0.0307 0.042199999 0.833
0.032200001 0.042300001 0.83399999
0.034000002 0.0427 0.84200001
0.035599999 0.0429 0.84600002
0.0372 0.043099999 0.85000002
0.038899999 0.043299999 0.85399997
0.0405 0.043400001 0.85600001
0.042100001 0.0436 0.85900003
-0.40020001 0.046100002 0.87900001
-0.39829999 0.046 0.87800002
-0.39629999 0.046 0.87699997
-0.101 0.0438 0.83600003
-0.099600002 0.0438 0.83600003
-0.097999997 0.0438 0.83499998
-0.0964 0.043699998 0.83399999
-0.094899997 0.043699998 0.833
-0.0933 0.0436 0.83200002
-0.091799997 0.0436 0.83099997
-0.0902 0.043499999 0.82999998
-0.088799998 0.043499999 0.82999998
-0.087300003 0.043499999 0.82999998
-0.085900001 0.043499999 0.82999998
-0.084600002 0.0436 0.83099997
-0.0832 0.0436 0.83200002
-0.081799999 0.0436 0.83200002
-0.080300003 0.0436 0.83200002
-0.078900002 0.0436 0.83200002
-0.077500001 0.0436 0.83200002
-0.075999998 0.0436 0.83200002
-0.074600004 0.0436 0.83200002
-0.073100001 0.0436 0.83200002
-0.071599998 0.0436 0.83099997
-0.070299998 0.0436 0.83200002
-0.068800002 0.0436 0.83200002
-0.067299999 0.0436 0.83099997
-0.065899998 0.0436 0.83200002
-0.064499997 0.0436 0.83200002
-0.063000001 0.0436 0.83200002
-0.061700001 0.043699998 0.833
-0.060199998 0.043699998 0.833
-0.058899999 0.043699998 0.83399999
-0.057500001 0.0438 0.83499998
-0.056000002 0.0438 0.83499998
-0.0546 0.0438 0.83499998
-0.053300001 0.043900002 0.83700001
-0.051800001 0.043900002 0.83700001
-0.0504 0.043900002 0.83700001
-0.048900001 0.043900002 0.83700001
-0.047499999 0.043900002 0.838
-0.046100002 0.044 0.83899999
-0.0447 0.044 0.83999997
-0.043299999 0.044100001 0.84100002
-0.041900001 0.044100001 0.84100002
-0.040399998 0.044 0.83999997
-0.038899999 0.044100001 0.84100002
-0.037500001 0.044100001 0.84100002
-0.035999998 0.044100001 0.84100002
-0.034600001 0.044100001 0.84100002
-0.033100002 0.044 0.83999997
-0.0317 0.044100001 0.84100002
-0.030200001 0.044100001 0.84100002
-0.0287 0.044100001 0.84100002
-0.0273 0.044 0.83999997
-0.025800001 0.044 0.83899999
-0.0243 0.044 0.83899999
-0.0229 0.044 0.83999997
-0.021400001 0.044 0.83999997
-0.02 0.044100001 0.84100002
-0.0186 0.044199999 0.84299999
-0.017200001 0.044300001 0.84500003
-0.015699999 0.044300001 0.84500003
-0.0142 0.044199999 0.84200001
-0.0127 0.043900002 0.838
-0.0112 0.0438 0.83499998
-0.0097000003 0.043699998 0.833
-0.0082999999 0.0436 0.83200002
-0.0068000001 0.0436 0.83200002
-0.0054000001 0.043699998 0.833
-0.0038999999 0.043699998 0.83399999
-0.0024999999 0.0438 0.83600003
-0.001 0.043900002 0.83700001
0.00039999999 0.043900002 0.838
0.0019 0.044 0.83899999
0.0033 0.044 0.83899999
0.0048000002 0.044 0.83899999
0.0062000002 0.044 0.83899999
0.0077 0.044 0.83899999
0.0149 0.043900002 0.83700001
0.0163 0.0438 0.83499998
0.0177 0.043699998 0.83399999
0.019200001 0.043699998 0.83399999
0.0206 0.043699998 0.833
0.0221 0.043699998 0.833
0.023499999 0.0436 0.83200002
0.024900001 0.0436 0.83099997
0.0264 0.0436 0.83200002
0.027799999 0.043699998 0.833
0.029300001 0.043699998 0.83399999
0.0308 0.043699998 0.83399999
0.032200001 0.0438 0.83499998
0.034000002 0.044300001 0.84399998
0.035599999 0.044399999 0.847
0.0372 0.044500001 0.84899998
0.038800001 0.044599999 0.85100001
0.0403 0.0447 0.852
0.041900001 0.044799998 0.85399997
-0.39629999 0.047499999 0.87699997
-0.2388 0.047600001 0.87900001
-0.1026 0.045299999 0.83700001
-0.1011 0.045299999 0.83700001
-0.099699996 0.045299999 0.83700001
-0.098200001 0.045299999 0.83700001
-0.096600004 0.045200001 0.83499998
-0.095100001 0.045200001 0.83499998
-0.093400002 0.0451 0.833
-0.091799997 0.045000002 0.83099997
-0.090300001 0.045000002 0.83099997
-0.088799998 0.045000002 0.82999998
-0.087300003 0.045000002 0.82999998
-0.086000003 0.045000002 0.83099997
-0.084600002 0.045000002 0.83099997
-0.0832 0.0451 0.83200002
-0.081799999 0.0451 0.83200002
-0.080300003 0.0451 0.83200002
-0.078900002 0.0451 0.83200002
-0.077500001 0.0451 0.83200002
-0.075999998 0.0451 0.83200002
-0.074600004 0.0451 0.83200002
-0.071699999 0.0451 0.83200002
-0.070299998 0.0451 0.83200002
-0.068800002 0.0451 0.83200002
-0.067400001 0.0451 0.83200002
-0.065899998 0.0451 0.83200002
-0.064499997 0.0451 0.83200002
-0.063100003 0.0451 0.833
-0.0616 0.0451 0.83200002
-0.060199998 0.0451 0.833
-0.058800001 0.0451 0.833
-0.057399999 0.045200001 0.83399999
-0.056000002 0.045200001 0.83399999
-0.054499999 0.045200001 0.83399999
-0.053100001 0.045200001 0.83499998
-0.051800001 0.045299999 0.83600003
-0.050299998 0.045299999 0.83600003
-0.048900001 0.045299999 0.83600003
-0.047499999 0.045299999 0.83700001
-0.046 0.045299999 0.83700001
-0.0447 0.045499999 0.83899999
-0.043299999 0.045499999 0.83999997
-0.0418 0.045499999 0.83999997
-0.040399998 0.045499999 0.83999997
-0.038899999 0.045499999 0.83999997
-0.037500001 0.045600001 0.84100002
-0.035999998 0.045600001 0.84100002
-0.034499999 0.045499999 0.83999997
-0.033100002 0.045499999 0.83999997
-0.0317 0.045600001 0.84100002
-0.030200001 0.045600001 0.84100002
-0.0287 0.045600001 0.84100002
-0.0273 0.045600001 0.84100002
-0.025800001 0.045499999 0.83999997
-0.0243 0.045499999 0.83999997
-0.0229 0.045600001 0.84100002
-0.021500001 0.045600001 0.84100002
-0.02 0.045699999 0.84299999
-0.0186 0.0458 0.84500003
-0.017200001 0.0458 0.84600002
-0.015699999 0.0458 0.84600002
-0.0142 0.045699999 0.84399998
-0.0127 0.045499999 0.83999997
-0.0112 0.045299999 0.83700001
-0.0068000001 0.0451 0.83200002
-0.0054000001 0.0451 0.83200002
-0.0038999999 0.045200001 0.83399999
-0.0024999999 0.045200001 0.83399999
-0.001 0.045200001 0.83499998
0.00039999999 0.045299999 0.83600003
0.0019 0.045400001 0.838
0.0033 0.045400001 0.838
0.0048000002 0.045299999 0.83700001
0.0062000002 0.045299999 0.83700001
0.0077 0.045299999 0.83700001
0.0149 0.045200001 0.83499998
0.0163 0.045200001 0.83399999
0.0177 0.0451 0.833
0.019200001 0.0451 0.833
0.0206 0.0451 0.83200002
0.022 0.0451 0.83200002
0.023399999 0.045000002 0.83099997
0.024900001 0.045000002 0.82999998
0.0264 0.0451 0.83200002
0.027799999 0.0451 0.833
0.029300001 0.045200001 0.83399999
0.0308 0.045200001 0.83399999
0.032299999 0.045299999 0.83700001
0.0339 0.045600001 0.84100002
0.035500001 0.045699999 0.84399998
0.037099998 0.0458 0.84600002
0.038600001 0.045899998 0.84799999
0.040199999 0.046 0.85000002
0.041700002 0.046100002 0.85100001
0.043400001 0.046399999 0.85600001
-0.1165 0.0471 0.84299999
-0.1143 0.046799999 0.838
-0.1079 0.046599999 0.833
-0.104 0.046799999 0.83700001
-0.1026 0.046799999 0.83700001
-0.1011 0.046799999 0.83700001
-0.099699996 0.046799999 0.83700001
-0.098200001 0.046799999 0.83700001
-0.096600004 0.046700001 0.83499998
-0.094999999 0.046599999 0.83399999
-0.093400002 0.046599999 0.833
-0.091799997 0.046500001 0.83099997
-0.0902 0.046399999 0.82999998
-0.088799998 0.046399999 0.82999998
-0.087300003 0.046399999 0.82999998
-0.085900001 0.046399999 0.82999998
-0.084600002 0.046500001 0.83099997
-0.083099999 0.046500001 0.83099997
-0.081799999 0.046500001 0.83200002
-0.080300003 0.046500001 0.83200002
-0.078900002 0.046500001 0.83200002
-0.077500001 0.046500001 0.83200002
-0.075999998 0.046500001 0.83200002
-0.074699998 0.046599999 0.833
-0.073100001 0.046500001 0.83200002
-0.071699999 0.046500001 0.83200002
-0.070299998 0.046500001 0.83200002
-0.068800002 0.046500001 0.83200002
-0.067400001 0.046500001 0.83200002
-0.065899998 0.046500001 0.83200002
-0.064599998 0.046599999 0.833
-0.063100003 0.046599999 0.833
-0.061700001 0.046599999 0.833
-0.060199998 0.046599999 0.833
-0.058899999 0.046599999 0.83399999
-0.057399999 0.046599999 0.83399999
-0.056000002 0.046599999 0.83399999
-0.054499999 0.046599999 0.83399999
-0.053100001 0.046599999 0.83399999
-0.0517 0.046700001 0.83499998
-0.050299998 0.046700001 0.83600003
-0.048799999 0.046700001 0.83499998
-0.047400001 0.046700001 0.83499998
-0.046 0.046799999 0.83700001
-0.044599999 0.046799999 0.838
-0.043200001 0.046799999 0.838
-0.041700002 0.046799999 0.838
-0.0403 0.046799999 0.838
-0.038899999 0.0469 0.83899999
-0.0374 0.0469 0.83899999
-0.035999998 0.046999998 0.83999997
-0.034499999 0.0469 0.83899999
-0.033100002 0.046999998 0.83999997
-0.0317 0.046999998 0.84100002
-0.030200001 0.046999998 0.84100002
-0.0287 0.046999998 0.84100002
-0.0273 0.046999998 0.83999997
-0.025800001 0.046999998 0.83999997
-0.0243 0.046999998 0.83999997
-0.0229 0.046999998 0.84100002
-0.021500001 0.0471 0.84200001
-0.020099999 0.047200002 0.84399998
-0.0186 0.047200002 0.84500003
-0.017200001 0.047400001 0.847
-0.015699999 0.047400001 0.847
-0.0142 0.047200002 0.84500003
-0.0127 0.046999998 0.84100002
-0.0112 0.046799999 0.838
-0.0097000003 0.046599999 0.83399999
-0.0082999999 0.046500001 0.83200002
-0.0068000001 0.046500001 0.83200002
-0.0054000001 0.046500001 0.83200002
-0.0038999999 0.046599999 0.833
-0.0024999999 0.046599999 0.83399999
-0.001 0.046700001 0.83600003
0.00039999999 0.046799999 0.83700001
0.0019 0.0469 0.83899999
0.0033 0.046799999 0.838
0.0048000002 0.046799999 0.838
0.0062000002 0.046799999 0.83700001
0.0263 0.046500001 0.83099997
0.027799999 0.046500001 0.83200002
0.029300001 0.046599999 0.833
0.0308 0.046599999 0.83399999
0.032200001 0.046700001 0.83499998
0.033799998 0.0469 0.83899999
0.035399999 0.046999998 0.84100002
0.037 0.047200002 0.84500003
0.0385 0.0473 0.84600002
0.039999999 0.047400001 0.847
0.041700002 0.047499999 0.85000002
0.043299999 0.047699999 0.85399997
-0.3928 0.050500002 0.87599999
-0.1184 0.048799999 0.84600002
-0.1165 0.048599999 0.84299999
-0.1145 0.0484 0.83899999
-0.1129 0.048300002 0.838
-0.1113 0.0482 0.83700001
-0.1095 0.048099998 0.83399999
-0.108 0.048099998 0.83399999
-0.1066 0.048099998 0.83399999
-0.1052 0.048099998 0.83499998
-0.1026 0.0482 0.83700001
-0.1013 0.048300002 0.838
-0.099799998 0.048300002 0.838
-0.098399997 0.048300002 0.838
-0.096699998 0.0482 0.83600003
-0.095100001 0.048099998 0.83499998
-0.093599997 0.048099998 0.83399999
-0.091899998 0.048 0.83200002
-0.090300001 0.047899999 0.83099997
-0.088799998 0.047800001 0.82999998
-0.087300003 0.047800001 0.82999998
-0.085900001 0.047800001 0.82999998
-0.084600002 0.047899999 0.83099997
-0.083099999 0.047899999 0.83099997
-0.081799999 0.048 0.83200002
-0.080300003 0.048 0.83200002
-0.079000004 0.048 0.833
-0.077600002 0.048 0.833
-0.076099999 0.048 0.833
-0.074699998 0.048 0.833
-0.073200002 0.048 0.833
-0.071800001 0.048 0.833
-0.070299998 0.048 0.833
-0.068800002 0.048 0.83200002
-0.067500003 0.048 0.833
-0.065899998 0.048 0.83200002
-0.064599998 0.048 0.833
-0.063100003 0.048 0.833
-0.061700001 0.048 0.833
-0.060199998 0.048 0.833
-0.058899999 0.048099998 0.83399999
-0.057399999 0.048099998 0.83399999
-0.056000002 0.048099998 0.83399999
-0.054499999 0.048099998 0.83399999
-0.053100001 0.048099998 0.83399999
-0.051600002 0.048099998 0.83399999
-0.0502 0.048099998 0.83499998
-0.048700001 0.048099998 0.83399999
-0.0473 0.048099998 0.83399999
-0.045899998 0.048099998 0.83499998
-0.044599999 0.0482 0.83700001
-0.043099999 0.0482 0.83700001
-0.041700002 0.048300002 0.838
-0.0403 0.048300002 0.838
-0.038899999 0.0484 0.83899999
-0.0374 0.0484 0.83899999
-0.0359 0.0484 0.83899999
-0.034499999 0.048300002 0.838
-0.033 0.048300002 0.838
-0.031599998 0.0484 0.83899999
-0.030200001 0.0484 0.83999997
-0.0287 0.0484 0.83899999
-0.0272 0.048300002 0.838
-0.025699999 0.048300002 0.838
-0.0243 0.0484 0.83899999
-0.0229 0.0484 0.83999997
-0.021500001 0.048500001 0.84100002
-0.02 0.048599999 0.84299999
-0.0186 0.048599999 0.84399998
-0.017200001 0.048700001 0.84500003
-0.015699999 0.048700001 0.84500003
-0.0142 0.048599999 0.84399998
-0.0127 0.048500001 0.84100002
-0.0112 0.0482 0.83700001
-0.0097000003 0.048099998 0.83399999
-0.0082999999 0.048 0.83200002
-0.0068000001 0.048 0.83200002
-0.0054000001 0.048 0.83200002
-0.0038999999 0.048 0.833
-0.0024999999 0.048099998 0.83399999
-0.001 0.048099998 0.83499998
0.00039999999 0.0482 0.83700001
0.0019 0.0484 0.83899999
0.0033 0.048300002 0.838
0.029300001 0.048099998 0.83399999
0.0308 0.048099998 0.83399999
0.032299999 0.0482 0.83600003
0.033799998 0.0482 0.83700001
0.035300002 0.0484 0.83899999
0.036899999 0.048599999 0.84299999
0.038400002 0.048599999 0.84399998
0.039900001 0.048700001 0.84500003
0.041499998 0.048799999 0.847
0.043099999 0.048900001 0.84899998
0.044599999 0.048999999 0.85000002
-0.23720001 0.052200001 0.87900001
-0.12909999 0.052200001 0.87900001
-0.1261 0.051600002 0.86900002
-0.1227 0.050799999 0.85600001
-0.1201 0.050299998 0.84799999
-0.1184 0.0502 0.84600002
-0.1165 0.050099999 0.84299999
-0.1145 0.049800001 0.83899999
-0.1129 0.049800001 0.838
-0.1113 0.049699999 0.83700001
-0.1097 0.049600001 0.83600003
-0.1081 0.049600001 0.83499998
-0.1067 0.049600001 0.83499998
-0.1054 0.049600001 0.83600003
-0.104 0.049699999 0.83700001
-0.1026 0.049699999 0.83700001
-0.1011 0.049699999 0.83700001
-0.099799998 0.049800001 0.838
-0.098399997 0.049800001 0.838
-0.096799999 0.049699999 0.83700001
-0.095200002 0.049600001 0.83600003
-0.093699999 0.049600001 0.83499998
-0.092 0.0495 0.833
-0.090599999 0.0495 0.833
-0.089000002 0.049400002 0.83200002
-0.0876 0.049400002 0.83200002
-0.086099997 0.049400002 0.83200002
-0.084600002 0.0493 0.83099997
-0.0832 0.049400002 0.83200002
-0.081799999 0.049400002 0.83200002
-0.080399998 0.0495 0.833
-0.079000004 0.0495 0.833
-0.077600002 0.0495 0.833
-0.076099999 0.0495 0.833
-0.074699998 0.0495 0.833
-0.073200002 0.0495 0.833
-0.071800001 0.0495 0.833
-0.070299998 0.0495 0.833
-0.068899997 0.0495 0.833
-0.067500003 0.0495 0.833
-0.066 0.0495 0.833
-0.064599998 0.0495 0.83399999
-0.063199997 0.0495 0.83399999
-0.061799999 0.0495 0.83399999
-0.060199998 0.0495 0.833
-0.058800001 0.0495 0.833
-0.057300001 0.0495 0.833
-0.0559 0.0495 0.833
-0.054499999 0.0495 0.833
-0.052999999 0.049400002 0.83200002
-0.051600002 0.0495 0.833
-0.050099999 0.0495 0.833
-0.048700001 0.0495 0.833
-0.0473 0.0495 0.83399999
-0.045899998 0.049600001 0.83499998
-0.044599999 0.049699999 0.83700001
-0.043200001 0.049800001 0.838
-0.041700002 0.049800001 0.838
-0.0403 0.049800001 0.838
-0.038899999 0.049800001 0.83899999
-0.0374 0.049800001 0.83899999
-0.0359 0.049800001 0.838
-0.034499999 0.049800001 0.838
-0.033 0.049800001 0.838
-0.031599998 0.049800001 0.83899999
-0.030200001 0.049899999 0.83999997
-0.0287 0.049800001 0.83899999
-0.0272 0.049800001 0.838
-0.025699999 0.049800001 0.838
-0.0243 0.049800001 0.838
-0.0229 0.049800001 0.83899999
-0.021500001 0.049899999 0.84100002
-0.02 0.050000001 0.84200001
-0.0186 0.050099999 0.84399998
-0.017200001 0.0502 0.84500003
-0.015699999 0.0502 0.84500003
-0.0142 0.050099999 0.84299999
-0.0127 0.049899999 0.83999997
-0.0112 0.049699999 0.83700001
-0.0097000003 0.049600001 0.83499998
-0.0082999999 0.0495 0.833
-0.0068000001 0.0495 0.833
-0.0054000001 0.0495 0.833
-0.0038999999 0.0495 0.833
-0.0024999999 0.0495 0.83399999
-0.001 0.049600001 0.83499998
0.00039999999 0.049699999 0.83700001
0.0019 0.049800001 0.83899999
0.0308 0.049600001 0.83499998
0.032299999 0.049600001 0.83600003
0.033799998 0.049800001 0.838
0.035300002 0.049800001 0.83899999
0.036899999 0.050000001 0.84200001
0.038400002 0.050099999 0.84299999
0.039799999 0.050000001 0.84200001
0.0414 0.050099999 0.84399998
0.0429 0.0502 0.84600002
0.044399999 0.0502 0.84600002
-0.4181 0.0535 0.875
-0.23720001 0.0537 0.87900001
-0.1261 0.053100001 0.86900002
-0.1229 0.0524 0.85699999
-0.12 0.051800001 0.847
-0.1184 0.0517 0.84600002
-0.1165 0.0515 0.84299999
-0.1145 0.0513 0.83899999
-0.1127 0.051100001 0.83700001
-0.1113 0.051100001 0.83700001
-0.1097 0.051100001 0.83600003
-0.1081 0.050999999 0.83499998
-0.1067 0.050999999 0.83499998
-0.1054 0.051100001 0.83600003
-0.104 0.051100001 0.83700001
-0.1026 0.051100001 0.83700001
-0.1011 0.051100001 0.83700001
-0.099699996 0.051100001 0.83700001
-0.098200001 0.051100001 0.83700001
-0.096600004 0.050999999 0.83499998
-0.095100001 0.050999999 0.83499998
-0.093599997 0.050999999 0.83399999
-0.092 0.050900001 0.833
-0.090599999 0.050900001 0.833
-0.089000002 0.050799999 0.83200002
-0.0876 0.050799999 0.83200002
-0.086099997 0.050799999 0.83200002
-0.084700003 0.050799999 0.83200002
-0.083300002 0.050900001 0.833
-0.081900001 0.050900001 0.833
-0.080399998 0.050900001 0.833
-0.079099998 0.050999999 0.83399999
-0.077699997 0.050999999 0.83399999
-0.076200001 0.050999999 0.83399999
-0.0748 0.050999999 0.83399999
-0.073299997 0.050999999 0.83399999
-0.071900003 0.050999999 0.83399999
-0.0704 0.050999999 0.83399999
-0.068999998 0.050999999 0.83399999
-0.067500003 0.050999999 0.83399999
-0.066200003 0.050999999 0.83499998
-0.0647 0.050999999 0.83499998
-0.063299999 0.050999999 0.83499998
-0.061799999 0.050999999 0.83499998
-0.0603 0.050999999 0.83399999
-0.058899999 0.050999999 0.83399999
-0.057300001 0.050900001 0.833
-0.0559 0.050900001 0.833
-0.054400001 0.050799999 0.83200002
-0.052999999 0.050799999 0.83200002
-0.051600002 0.050900001 0.833
-0.050099999 0.050900001 0.833
-0.048700001 0.050900001 0.833
-0.0473 0.050999999 0.83399999
-0.045899998 0.050999999 0.83499998
-0.044500001 0.051100001 0.83600003
-0.043099999 0.051100001 0.83700001
-0.041700002 0.051100001 0.83700001
-0.040199999 0.051100001 0.83700001
-0.038800001 0.051100001 0.83700001
-0.037300002 0.051100001 0.83700001
-0.0359 0.051100001 0.83700001
-0.034400001 0.051100001 0.83700001
-0.033 0.051199999 0.838
-0.031599998 0.0513 0.83899999
-0.030200001 0.0513 0.83999997
-0.0287 0.0513 0.83899999
-0.0272 0.051199999 0.838
-0.025699999 0.051199999 0.838
-0.0243 0.0513 0.83899999
-0.0229 0.0513 0.83899999
-0.021500001 0.051399998 0.84100002
-0.02 0.0515 0.84200001
-0.0186 0.0515 0.84299999
-0.017200001 0.051600002 0.84500003
-0.015699999 0.051600002 0.84399998
-0.0142 0.0515 0.84299999
-0.0127 0.0513 0.83999997
-0.0112 0.051199999 0.838
-0.0097000003 0.050999999 0.83499998
-0.0082999999 0.050999999 0.83399999
-0.0068000001 0.050900001 0.833
-0.0054000001 0.050900001 0.833
-0.0038999999 0.050900001 0.833
-0.0024999999 0.050999999 0.83399999
-0.001 0.050999999 0.83499998
0.00039999999 0.051100001 0.83600003
0.0019 0.051199999 0.838
0.019200001 0.050999999 0.83499998
0.023600001 0.050999999 0.83499998
0.027899999 0.051100001 0.83600003
0.0294 0.051100001 0.83600003
0.0308 0.050999999 0.83499998
0.032299999 0.051100001 0.83600003
0.033799998 0.051199999 0.838
0.035300002 0.0513 0.83899999
0.036800001 0.0513 0.83999997
0.0383 0.051399998 0.84100002
0.039700001 0.0513 0.83999997
0.041200001 0.051399998 0.84100002
0.042800002 0.0515 0.84299999
0.044199999 0.0515 0.84299999
0.045699999 0.0515 0.84299999
0.0469 0.0513 0.83899999
0.0482 0.050999999 0.83499998
0.0495 0.050999999 0.83399999
-0.41999999 0.055199999 0.87900001
-0.1251 0.054200001 0.86199999
-0.1223 0.053599998 0.85299999
-0.1198 0.053199999 0.84600002
-0.1182 0.053100001 0.84500003
-0.1162 0.0528 0.84100002
-0.1142 0.0526 0.83700001
-0.1125 0.052499998 0.83499998
-0.111 0.052499998 0.83499998
-0.1095 0.0524 0.83399999
-0.108 0.0524 0.83399999
-0.1066 0.0524 0.83399999
-0.1051 0.0524 0.83399999
-0.1038 0.052499998 0.83499998
-0.1023 0.052499998 0.83499998
-0.101 0.052499998 0.83600003
-0.099600002 0.052499998 0.83600003
-0.098099999 0.052499998 0.83600003
-0.096600004 0.052499998 0.83499998
-0.095100001 0.052499998 0.83499998
-0.093599997 0.0524 0.83399999
-0.092 0.052299999 0.833
-0.090599999 0.052299999 0.833
-0.089000002 0.052299999 0.83200002
-0.087700002 0.052299999 0.833
-0.086199999 0.052299999 0.833
-0.084799998 0.052299999 0.833
-0.083300002 0.052299999 0.833
-0.081900001 0.052299999 0.833
-0.080499999 0.0524 0.83399999
-0.0792 0.052499998 0.83499998
-0.077699997 0.0524 0.83399999
-0.076200001 0.0524 0.83399999
-0.074900001 0.052499998 0.83499998
-0.073399998 0.052499998 0.83499998
-0.071900003 0.0524 0.83399999
-0.0704 0.0524 0.83399999
-0.068999998 0.0524 0.83399999
-0.067599997 0.052499998 0.83499998
-0.066200003 0.052499998 0.83499998
-0.0647 0.052499998 0.83499998
-0.063299999 0.052499998 0.83499998
-0.061799999 0.0524 0.83399999
-0.0603 0.0524 0.83399999
-0.058800001 0.052299999 0.833
-0.057300001 0.052299999 0.833
-0.0559 0.052299999 0.833
-0.054400001 0.052299999 0.83200002
-0.052999999 0.052299999 0.83200002
-0.0515 0.052299999 0.83200002
-0.050099999 0.052299999 0.833
-0.048700001 0.052299999 0.833
-0.0473 0.0524 0.83399999
-0.045899998 0.0524 0.83399999
-0.044500001 0.052499998 0.83499998
-0.043099999 0.052499998 0.83600003
-0.0416 0.052499998 0.83600003
-0.040199999 0.0526 0.83700001
-0.038800001 0.0526 0.83700001
-0.037300002 0.0526 0.83700001
-0.0359 0.0526 0.83700001
-0.034400001 0.0526 0.83700001
-0.033 0.052700002 0.838
-0.031599998 0.052700002 0.83899999
-0.030099999 0.052700002 0.83899999
-0.0286 0.052700002 0.838
-0.0272 0.052700002 0.838
-0.025699999 0.052700002 0.838
-0.0243 0.052700002 0.83899999
-0.0229 0.052700002 0.83899999
-0.021400001 0.0528 0.83999997
-0.0186 0.052999999 0.84299999
-0.017100001 0.052999999 0.84399998
-0.015699999 0.052999999 0.84399998
-0.0142 0.052900001 0.84200001
-0.0127 0.0528 0.83999997
-0.0112 0.052700002 0.838
-0.0097000003 0.052499998 0.83600003
-0.0082999999 0.0524 0.83399999
-0.0068000001 0.0524 0.83399999
-0.0054000001 0.0524 0.83399999
-0.0038999999 0.052299999 0.833
-0.0024999999 0.052299999 0.833
-0.001 0.052499998 0.83499998
0.00039999999 0.052499998 0.83499998
0.0018 0.052499998 0.83499998
0.0134 0.052299999 0.833
0.0149 0.0524 0.83399999
0.0163 0.0524 0.83399999
0.0178 0.052499998 0.83499998
0.019300001 0.052700002 0.838
0.0208 0.0528 0.83999997
0.022299999 0.0528 0.84100002
0.023700001 0.052700002 0.83899999
0.0251 0.052700002 0.838
0.0265 0.052700002 0.838
0.028000001 0.0526 0.83700001
0.0294 0.0526 0.83700001
0.0308 0.052499998 0.83499998
0.032299999 0.052499998 0.83600003
0.033799998 0.052700002 0.838
0.035300002 0.052700002 0.83899999
0.036800001 0.0528 0.83999997
0.0383 0.0528 0.83999997
0.039700001 0.052700002 0.83899999
0.041200001 0.0528 0.83999997
0.042599998 0.0528 0.83999997
0.044100001 0.0528 0.83999997
0.045400001 0.052700002 0.838
0.046700001 0.052499998 0.83499998
0.0482 0.052499998 0.83499998
0.049600001 0.052499998 0.83499998
0.051100001 0.052499998 0.83499998
0.0524 0.052299999 0.833
-0.1158 0.054099999 0.838
-0.1139 0.0539 0.83499998
-0.1123 0.0539 0.83399999
-0.1109 0.0539 0.83399999
-0.1095 0.0539 0.83399999
-0.108 0.0539 0.83399999
-0.1067 0.0539 0.83499998
-0.1052 0.0539 0.83499998
-0.1038 0.0539 0.83499998
-0.1025 0.054000001 0.83600003
-0.1009 0.0539 0.83499998
-0.0995 0.0539 0.83499998
-0.097999997 0.0539 0.83499998
-0.0964 0.0539 0.83399999
-0.094999999 0.0539 0.83399999
-0.093400002 0.053800002 0.833
-0.092 0.053800002 0.833
-0.090599999 0.053800002 0.833
-0.089000002 0.0537 0.83200002
-0.0876 0.0537 0.83200002
-0.086199999 0.053800002 0.833
-0.084799998 0.053800002 0.833
-0.083300002 0.053800002 0.833
-0.082000002 0.0539 0.83399999
-0.0792 0.0539 0.83499998
-0.077699997 0.0539 0.83499998
-0.076300003 0.0539 0.83499998
-0.074900001 0.0539 0.83499998
-0.073399998 0.0539 0.83499998
-0.071999997 0.0539 0.83499998
-0.070500001 0.0539 0.83499998
-0.0691 0.0539 0.83499998
-0.067599997 0.0539 0.83499998
-0.066200003 0.0539 0.83499998
-0.0647 0.0539 0.83499998
-0.063299999 0.0539 0.83499998
-0.061799999 0.0539 0.83499998
-0.0603 0.0539 0.83399999
-0.058800001 0.053800002 0.833
-0.057300001 0.053800002 0.833
-0.0559 0.053800002 0.833
-0.054400001 0.0537 0.83200002
-0.052999999 0.0537 0.83200002
-0.0515 0.0537 0.83200002
-0.050099999 0.0537 0.83200002
-0.048599999 0.0537 0.83200002
-0.047200002 0.053800002 0.833
-0.045899998 0.0539 0.83399999
-0.044500001 0.0539 0.83499998
-0.043099999 0.054000001 0.83600003
-0.0416 0.054000001 0.83600003
-0.040199999 0.054000001 0.83700001
-0.038800001 0.054000001 0.83700001
-0.037300002 0.054000001 0.83700001
-0.0359 0.054000001 0.83700001
-0.034400001 0.054000001 0.83700001
-0.033 0.054099999 0.838
-0.031599998 0.054200001 0.83899999
-0.030200001 0.054200001 0.83999997
-0.0287 0.054200001 0.83899999
-0.0272 0.054200001 0.83899999
-0.025800001 0.054200001 0.83899999
-0.0243 0.054200001 0.83999997
-0.0229 0.054200001 0.83999997
-0.021400001 0.054200001 0.83999997
-0.0185 0.054200001 0.83999997
-0.017100001 0.054299999 0.84100002
-0.0156 0.054299999 0.84100002
-0.0142 0.054200001 0.83999997
-0.0127 0.054099999 0.838
-0.0112 0.054000001 0.83700001
-0.0097000003 0.054000001 0.83600003
-0.0082999999 0.0539 0.83499998
-0.0068000001 0.0539 0.83499998
-0.0054000001 0.0539 0.83399999
-0.0038999999 0.0539 0.83399999
-0.0024999999 0.0539 0.83399999
-0.001 0.0539 0.83399999
0.00039999999 0.053800002 0.833
0.0018 0.053800002 0.833
0.0105 0.0537 0.83200002
0.0119 0.053800002 0.833
0.0134 0.053800002 0.833
0.0149 0.0539 0.83399999
0.0163 0.0539 0.83499998
0.0178 0.054000001 0.83700001
0.019400001 0.054299999 0.84100002
0.0209 0.054400001 0.84299999
0.022299999 0.054499999 0.84399998
0.023800001 0.054400001 0.84299999
0.0252 0.054299999 0.84100002
0.0266 0.054299999 0.84100002
0.028100001 0.054200001 0.83999997
0.0295 0.054200001 0.83899999
0.0309 0.054000001 0.83700001
0.032299999 0.054000001 0.83700001
0.033799998 0.054099999 0.838
0.035300002 0.054200001 0.83899999
0.036800001 0.054200001 0.83899999
0.038199998 0.054200001 0.83899999
0.0396 0.054099999 0.838
0.041099999 0.054099999 0.838
0.0425 0.054099999 0.838
0.044 0.054099999 0.838
0.045400001 0.054000001 0.83700001
0.046799999 0.054000001 0.83600003
0.0482 0.054000001 0.83600003
0.049699999 0.054000001 0.83700001
0.051199999 0.054000001 0.83700001
0.0526 0.054000001 0.83600003
-0.33320001 0.0583 0.87900001
-0.132 0.058200002 0.87800002
-0.1152 0.055300001 0.83399999
-0.1137 0.055199999 0.833
-0.1122 0.055199999 0.833
-0.1108 0.055199999 0.833
-0.1093 0.055199999 0.833
-0.108 0.055300001 0.83399999
-0.1067 0.055399999 0.83499998
-0.1051 0.055300001 0.83399999
-0.1038 0.055399999 0.83499998
-0.1023 0.055399999 0.83499998
-0.1009 0.055399999 0.83499998
-0.099299997 0.055300001 0.83399999
-0.097900003 0.055300001 0.83399999
-0.096299998 0.055199999 0.833
-0.094899997 0.055199999 0.833
-0.0933 0.055199999 0.83200002
-0.091799997 0.055100001 0.83099997
-0.090300001 0.055100001 0.83099997
-0.0889 0.055100001 0.83099997
-0.087499999 0.055100001 0.83099997
-0.086099997 0.055199999 0.83200002
-0.084700003 0.055199999 0.83200002
-0.0832 0.055199999 0.83200002
-0.081900001 0.055199999 0.833
-0.080399998 0.055199999 0.833
-0.0792 0.055399999 0.83499998
-0.077699997 0.055399999 0.83499998
-0.076399997 0.055399999 0.83600003
-0.075000003 0.055500001 0.83700001
-0.0735 0.055399999 0.83600003
-0.071999997 0.055399999 0.83499998
-0.070500001 0.055399999 0.83499998
-0.0691 0.055399999 0.83499998
-0.067599997 0.055399999 0.83499998
-0.066200003 0.055399999 0.83499998
-0.0647 0.055399999 0.83499998
-0.063299999 0.055399999 0.83499998
-0.061799999 0.055399999 0.83499998
-0.0603 0.055300001 0.83399999
-0.058800001 0.055199999 0.833
-0.057300001 0.055199999 0.833
-0.055799998 0.055199999 0.83200002
-0.054400001 0.055199999 0.83200002
-0.052999999 0.055199999 0.83200002
-0.0515 0.055199999 0.83200002
-0.050099999 0.055199999 0.83200002
-0.048599999 0.055199999 0.83200002
-0.047200002 0.055199999 0.833
-0.0458 0.055199999 0.833
-0.044399999 0.055300001 0.83399999
-0.043000001 0.055399999 0.83499998
-0.041499998 0.055300001 0.83399999
-0.040100001 0.055399999 0.83499998
-0.037300002 0.055399999 0.83600003
-0.035799999 0.055399999 0.83600003
-0.034400001 0.055500001 0.83700001
-0.033 0.055599999 0.838
-0.031599998 0.055599999 0.83899999
-0.030200001 0.0557 0.83999997
-0.0287 0.055599999 0.83899999
-0.0272 0.055599999 0.838
-0.025699999 0.055599999 0.838
-0.0243 0.055599999 0.83899999
-0.0229 0.055599999 0.83899999
-0.021400001 0.055599999 0.838
-0.0199 0.055599999 0.838
-0.0185 0.055599999 0.838
-0.017000001 0.055599999 0.83899999
-0.0156 0.055599999 0.83899999
-0.0141 0.055599999 0.83899999
-0.0127 0.055599999 0.838
-0.0112 0.055500001 0.83700001
-0.0098000001 0.055500001 0.83700001
-0.0082999999 0.055399999 0.83600003
-0.0068000001 0.055399999 0.83600003
-0.0054000001 0.055399999 0.83499998
-0.0038999999 0.055399999 0.83499998
-0.0024999999 0.055399999 0.83499998
-0.001 0.055399999 0.83499998
0.00039999999 0.055300001 0.83399999
0.0018 0.055300001 0.83399999
0.0105 0.055300001 0.83399999
0.012 0.055300001 0.83399999
0.0134 0.055399999 0.83499998
0.0149 0.055399999 0.83600003
0.0164 0.055500001 0.83700001
0.017899999 0.055599999 0.83899999
0.019400001 0.055799998 0.84200001
0.0209 0.056000002 0.84399998
0.022299999 0.056000002 0.84399998
0.023800001 0.056000002 0.84399998
0.0253 0.056000002 0.84399998
0.026699999 0.0559 0.84299999
0.028200001 0.0559 0.84299999
0.0296 0.055799998 0.84100002
0.0309 0.055599999 0.83899999
0.032400001 0.055599999 0.838
0.033799998 0.055599999 0.838
0.035300002 0.055599999 0.838
0.036699999 0.055599999 0.838
0.0381 0.055500001 0.83700001
0.0396 0.055500001 0.83700001
0.041000001 0.055500001 0.83700001
0.0425 0.055500001 0.83700001
0.043900002 0.055500001 0.83700001
0.045400001 0.055500001 0.83700001
0.046799999 0.055399999 0.83600003
0.048300002 0.055500001 0.83700001
0.049800001 0.055599999 0.838
0.0513 0.055599999 0.83899999
0.052700002 0.055599999 0.838
-0.1311 0.059300002 0.87199998
-0.1241 0.058200002 0.85500002
-0.1151 0.056699999 0.833
-0.1135 0.056600001 0.83200002
-0.1121 0.056600001 0.83200002
-0.1108 0.056699999 0.833
-0.1093 0.056699999 0.833
-0.108 0.056699999 0.83399999
-0.1066 0.056699999 0.83399999
-0.1051 0.056699999 0.83399999
-0.1038 0.0568 0.83499998
-0.1022 0.056699999 0.83399999
-0.1008 0.056699999 0.83399999
-0.099299997 0.056699999 0.83399999
-0.097800002 0.056699999 0.833
-0.096299998 0.056699999 0.833
-0.094800003 0.056600001 0.83200002
-0.0933 0.056600001 0.83200002
-0.091799997 0.056499999 0.83099997
-0.090300001 0.056499999 0.83099997
-0.0889 0.056499999 0.83099997
-0.087499999 0.056499999 0.83099997
-0.086000003 0.056499999 0.83099997
-0.084600002 0.056499999 0.83099997
-0.083099999 0.056499999 0.83099997
-0.081799999 0.056600001 0.83200002
-0.080399998 0.056699999 0.833
-0.0792 0.0568 0.83499998
-0.077699997 0.0568 0.83499998
-0.076300003 0.0568 0.83499998
-0.074900001 0.056899998 0.83600003
-0.0735 0.056899998 0.83600003
-0.071999997 0.0568 0.83499998
-0.070500001 0.0568 0.83499998
-0.068999998 0.056699999 0.83399999
-0.067599997 0.0568 0.83499998
-0.066200003 0.0568 0.83499998
-0.0647 0.0568 0.83499998
-0.063299999 0.0568 0.83499998
-0.060199998 0.056699999 0.833
-0.058800001 0.056699999 0.833
-0.057300001 0.056600001 0.83200002
-0.055799998 0.056600001 0.83200002
-0.054400001 0.056600001 0.83200002
-0.052999999 0.056600001 0.83200002
-0.0515 0.056600001 0.83200002
-0.050099999 0.056600001 0.83200002
-0.048599999 0.056600001 0.83200002
-0.047200002 0.056699999 0.833
-0.0458 0.056699999 0.833
-0.044399999 0.056699999 0.83399999
-0.043000001 0.056699999 0.83399999
-0.041499998 0.056699999 0.83399999
-0.040100001 0.0568 0.83499998
-0.035799999 0.056899998 0.83600003
-0.034400001 0.056899998 0.83700001
-0.033 0.057 0.838
-0.031500001 0.057 0.838
-0.030099999 0.057100002 0.83899999
-0.0287 0.057100002 0.83899999
-0.0272 0.057 0.838
-0.025800001 0.057100002 0.83899999
-0.0243 0.057100002 0.83899999
-0.0228 0.057 0.838
-0.021400001 0.056899998 0.83700001
-0.0199 0.056899998 0.83700001
-0.0185 0.056899998 0.83700001
-0.017000001 0.057 0.838
-0.0156 0.057 0.838
-0.0141 0.056899998 0.83700001
-0.0127 0.056899998 0.83700001
-0.0112 0.056899998 0.83600003
-0.0097000003 0.056899998 0.83600003
-0.0082999999 0.056899998 0.83600003
-0.0068000001 0.0568 0.83499998
-0.0054000001 0.0568 0.83499998
-0.0038999999 0.0568 0.83499998
-0.0024999999 0.0568 0.83499998
-0.001 0.0568 0.83499998
0.00039999999 0.056699999 0.83399999
0.0076000001 0.056600001 0.83200002
0.0105 0.056699999 0.833
0.012 0.0568 0.83499998
0.0134 0.056899998 0.83600003
0.0149 0.056899998 0.83700001
0.0164 0.057 0.838
0.017899999 0.0572 0.83999997
0.019400001 0.057399999 0.84299999
0.0209 0.057500001 0.84500003
0.022399999 0.057500001 0.84500003
0.023800001 0.057500001 0.84500003
0.0253 0.057500001 0.84500003
0.026699999 0.057399999 0.84399998
0.028200001 0.057399999 0.84399998
0.0297 0.057399999 0.84399998
0.030999999 0.057300001 0.84200001
0.032400001 0.0572 0.83999997
0.0339 0.0572 0.83999997
0.035300002 0.057100002 0.83899999
0.036699999 0.057 0.838
0.038199998 0.057 0.838
0.0396 0.056899998 0.83700001
0.041000001 0.056899998 0.83700001
0.0425 0.057 0.838
0.044 0.057 0.838
0.045400001 0.056899998 0.83700001
0.046799999 0.056899998 0.83700001
0.0484 0.057100002 0.83899999
0.050000001 0.057300001 0.84200001
0.0515 0.057399999 0.84299999
0.053100001 0.057399999 0.84399998
-0.1312 0.060899999 0.87300003
-0.12899999 0.060600001 0.86799997
-0.127 0.060400002 0.86500001
-0.115 0.057999998 0.83200002
-0.1134 0.057999998 0.83099997
-0.1119 0.057999998 0.83099997
-0.1106 0.057999998 0.83200002
-0.1093 0.0581 0.833
-0.108 0.058200002 0.83399999
-0.1066 0.058200002 0.83399999
-0.1051 0.058200002 0.83399999
-0.1037 0.058200002 0.83399999
-0.1022 0.058200002 0.83399999
-0.1008 0.058200002 0.83399999
-0.099299997 0.058200002 0.83399999
-0.097800002 0.0581 0.833
-0.096199997 0.057999998 0.83200002
-0.094800003 0.057999998 0.83200002
-0.093199998 0.057999998 0.83099997
-0.091799997 0.057999998 0.83099997
-0.090300001 0.057999998 0.83099997
-0.088799998 0.0579 0.82999998
-0.087300003 0.0579 0.82999998
-0.085900001 0.0579 0.82999998
-0.0845 0.0579 0.82999998
-0.081600003 0.0579 0.82999998
-0.080300003 0.057999998 0.83099997
-0.079000004 0.0581 0.833
-0.076200001 0.058200002 0.83399999
-0.074900001 0.0583 0.83499998
-0.0735 0.0583 0.83600003
-0.071999997 0.0583 0.83600003
-0.070500001 0.0583 0.83499998
-0.0691 0.0583 0.83499998
-0.067599997 0.0583 0.83499998
-0.066200003 0.0583 0.83600003
-0.0647 0.0583 0.83499998
-0.063199997 0.058200002 0.83399999
-0.061799999 0.058200002 0.83399999
-0.060199998 0.0581 0.833
-0.058699999 0.057999998 0.83200002
-0.057300001 0.057999998 0.83200002
-0.055799998 0.057999998 0.83200002
-0.054400001 0.057999998 0.83200002
-0.052999999 0.0581 0.833
-0.0515 0.057999998 0.83200002
-0.050099999 0.0581 0.833
-0.048700001 0.0581 0.833
-0.047200002 0.0581 0.833
-0.045899998 0.058200002 0.83399999
-0.044399999 0.058200002 0.83399999
-0.043000001 0.058200002 0.83399999
-0.041499998 0.058200002 0.83399999
-0.040100001 0.058200002 0.83399999
-0.038699999 0.0583 0.83499998
-0.0372 0.0583 0.83499998
-0.035799999 0.0583 0.83600003
-0.034400001 0.058400001 0.83700001
-0.033 0.058499999 0.838
-0.031599998 0.058499999 0.83899999
-0.030200001 0.058600001 0.83999997
-0.0287 0.058600001 0.83999997
-0.0273 0.058600001 0.83999997
-0.025800001 0.058600001 0.83999997
-0.0243 0.058600001 0.83999997
-0.0228 0.058499999 0.838
-0.021400001 0.058499999 0.838
-0.0199 0.058400001 0.83700001
-0.0185 0.058400001 0.83700001
-0.017000001 0.058400001 0.83700001
-0.0156 0.058400001 0.83700001
-0.0141 0.058400001 0.83700001
-0.0127 0.058400001 0.83700001
-0.0112 0.0583 0.83600003
-0.0098000001 0.058400001 0.83700001
-0.0082999999 0.058400001 0.83700001
-0.0068999999 0.058499999 0.838
-0.0054000001 0.058499999 0.838
-0.0038999999 0.058400001 0.83700001
-0.0024999999 0.058499999 0.838
-0.001 0.058499999 0.838
0.00039999999 0.058400001 0.83700001
0.0018 0.0583 0.83499998
0.0033 0.058200002 0.83399999
0.0076000001 0.0581 0.833
0.0091000004 0.0581 0.833
0.0105 0.058200002 0.83399999
0.012 0.0583 0.83600003
0.0135 0.058400001 0.83700001
0.0149 0.058499999 0.83899999
0.0164 0.058600001 0.83999997
0.017899999 0.058699999 0.84100002
0.019400001 0.058800001 0.84299999
0.0209 0.059 0.84500003
0.022399999 0.059 0.84500003
0.023800001 0.059 0.84500003
0.0253 0.059 0.84500003
0.026799999 0.059 0.84500003
0.028200001 0.058899999 0.84399998
0.0297 0.058899999 0.84399998
0.030999999 0.058699999 0.84200001
0.032400001 0.058600001 0.83999997
0.0339 0.058600001 0.83999997
0.035300002 0.058499999 0.83899999
0.036699999 0.058499999 0.838
0.038199998 0.058499999 0.838
0.0396 0.058400001 0.83700001
0.041000001 0.058400001 0.83700001
0.042599998 0.058499999 0.83899999
0.044 0.058499999 0.83899999
0.045499999 0.058499999 0.83899999
0.046999998 0.058699999 0.84100002
0.048700001 0.058899999 0.84399998
0.050299998 0.059 0.84600002
0.051800001 0.059099998 0.847
0.053300001 0.0592 0.84799999
-0.1314 0.0625 0.87400001
-0.12909999 0.062100001 0.86900002
-0.12720001 0.061900001 0.866
-0.115 0.059500001 0.83200002
-0.1135 0.059500001 0.83200002
-0.1121 0.059500001 0.83200002
-0.1106 0.059500001 0.83200002
-0.1093 0.059599999 0.833
-0.108 0.059599999 0.83399999
-0.1066 0.059599999 0.83399999
-0.1051 0.059599999 0.83399999
-0.1037 0.059599999 0.83399999
-0.1022 0.059599999 0.83399999
-0.1007 0.059599999 0.833
-0.099200003 0.059599999 0.833
-0.097800002 0.059599999 0.833
-0.096100003 0.0594 0.83099997
-0.094700001 0.0594 0.83099997
-0.093199998 0.0594 0.83099997
-0.091700003 0.059300002 0.82999998
-0.090099998 0.059300002 0.829
-0.088600002 0.0592 0.82800001
-0.087099999 0.0592 0.82800001
-0.085699998 0.0592 0.82800001
-0.084200002 0.059099998 0.82700002
-0.082699999 0.059099998 0.82700002
-0.0814 0.0592 0.82800001
-0.0801 0.059300002 0.829
-0.0788 0.0594 0.83099997
-0.077399999 0.0594 0.83099997
-0.076099999 0.059599999 0.833
-0.074900001 0.059700001 0.83499998
-0.0735 0.059799999 0.83600003
-0.071999997 0.059799999 0.83600003
-0.070600003 0.059799999 0.83600003
-0.0691 0.059700001 0.83499998
-0.067599997 0.059700001 0.83499998
-0.066200003 0.059700001 0.83499998
-0.064599998 0.059599999 0.83399999
-0.063100003 0.059599999 0.833
-0.061700001 0.059599999 0.833
-0.058699999 0.059500001 0.83200002
-0.057300001 0.059599999 0.833
-0.0559 0.059599999 0.833
-0.054499999 0.059599999 0.833
-0.053100001 0.059599999 0.83399999
-0.051600002 0.059599999 0.83399999
-0.0502 0.059599999 0.83399999
-0.048700001 0.059599999 0.83399999
-0.0473 0.059599999 0.83399999
-0.045899998 0.059599999 0.83399999
-0.044399999 0.059599999 0.83399999
-0.043000001 0.059599999 0.83399999
-0.0416 0.059700001 0.83499998
-0.040100001 0.059700001 0.83499998
-0.038699999 0.059700001 0.83499998
-0.0372 0.059700001 0.83499998
-0.035799999 0.059700001 0.83499998
-0.034400001 0.059799999 0.83700001
-0.033 0.059900001 0.838
-0.031599998 0.059999999 0.83899999
-0.030200001 0.0601 0.83999997
-0.0287 0.0601 0.84100002
-0.0273 0.0601 0.84100002
-0.025800001 0.0601 0.84100002
-0.0244 0.0601 0.84100002
-0.0229 0.059999999 0.83899999
-0.021400001 0.059900001 0.838
-0.0199 0.059900001 0.838
-0.0185 0.059799999 0.83700001
-0.017000001 0.059900001 0.838
-0.0156 0.059900001 0.838
-0.0141 0.059799999 0.83700001
-0.0127 0.059799999 0.83700001
-0.0112 0.059799999 0.83700001
-0.0098000001 0.059799999 0.83700001
-0.0082999999 0.059900001 0.838
-0.0068999999 0.059999999 0.83899999
-0.0054000001 0.059999999 0.83899999
-0.0040000002 0.059999999 0.83899999
-0.0024999999 0.0601 0.83999997
-0.0011 0.0601 0.84100002
0.00039999999 0.0601 0.83999997
0.0019 0.059900001 0.838
0.0033 0.059700001 0.83499998
0.0046999999 0.059599999 0.83399999
0.0062000002 0.059599999 0.833
0.0076000001 0.059599999 0.833
0.0091000004 0.059500001 0.83200002
0.0105 0.059599999 0.83399999
0.012 0.059700001 0.83499998
0.0135 0.059799999 0.83700001
0.0149 0.059900001 0.838
0.0164 0.0601 0.83999997
0.017899999 0.0601 0.84100002
0.019400001 0.0603 0.84399998
0.0209 0.060400002 0.84500003
0.022399999 0.060400002 0.84500003
0.023800001 0.060400002 0.84500003
0.0253 0.0603 0.84399998
0.026699999 0.0603 0.84399998
0.028200001 0.0603 0.84299999
0.0296 0.0603 0.84299999
0.030999999 0.0601 0.84100002
0.032400001 0.0601 0.83999997
0.033799998 0.059999999 0.83899999
0.035300002 0.059900001 0.838
0.036699999 0.059900001 0.838
0.0381 0.059799999 0.83700001
0.0396 0.059799999 0.83700001
0.041000001 0.059799999 0.83700001
0.042599998 0.059999999 0.83899999
0.044100001 0.0601 0.83999997
0.045600001 0.060199998 0.84200001
0.047200002 0.0603 0.84399998
0.048700001 0.060400002 0.84500003
0.050299998 0.060600001 0.847
0.051800001 0.060600001 0.84799999
0.053399999 0.060800001 0.85000002
-0.13150001 0.064099997 0.875
-0.1293 0.063699998 0.87
-0.1151 0.061000001 0.833
-0.1135 0.060899999 0.83200002
-0.1121 0.060899999 0.83200002
-0.1108 0.061000001 0.833
-0.1093 0.061000001 0.833
-0.108 0.061099999 0.83399999
-0.1066 0.061099999 0.83399999
-0.1051 0.061099999 0.83399999
-0.1037 0.061099999 0.83399999
-0.1021 0.061000001 0.833
-0.1007 0.061000001 0.833
-0.099200003 0.061000001 0.833
-0.0977 0.060899999 0.83200002
-0.096100003 0.060899999 0.83099997
-0.094700001 0.060899999 0.83099997
-0.093199998 0.060899999 0.83099997
-0.091600001 0.060699999 0.829
-0.090000004 0.060600001 0.82800001
-0.088500001 0.060600001 0.82700002
-0.086900003 0.0605 0.82599998
-0.085500002 0.0605 0.82599998
-0.083999999 0.060400002 0.82499999
-0.082500003 0.060400002 0.82499999
-0.081200004 0.0605 0.82599998
-0.079899997 0.060600001 0.82700002
-0.078699999 0.060800001 0.82999998
-0.077299997 0.060800001 0.82999998
-0.075999998 0.060899999 0.83200002
-0.0748 0.061099999 0.83399999
-0.073399998 0.0612 0.83499998
-0.071900003 0.061099999 0.83399999
-0.070500001 0.0612 0.83499998
-0.068999998 0.061099999 0.83399999
-0.067500003 0.061099999 0.83399999
-0.066100001 0.061099999 0.83399999
-0.064599998 0.061099999 0.83399999
-0.063100003 0.061000001 0.833
-0.0616 0.060899999 0.83200002
-0.060199998 0.060899999 0.83200002
-0.058699999 0.060899999 0.83200002
-0.057300001 0.061000001 0.833
-0.0559 0.061000001 0.833
-0.054499999 0.061099999 0.83399999
-0.053100001 0.061099999 0.83399999
-0.051600002 0.061099999 0.83399999
-0.0502 0.0612 0.83499998
-0.048700001 0.061099999 0.83399999
-0.0473 0.061099999 0.83399999
-0.045899998 0.061099999 0.83399999
-0.044399999 0.061099999 0.83399999
-0.043000001 0.0612 0.83499998
-0.0416 0.0612 0.83499998
-0.040100001 0.0612 0.83499998
-0.038699999 0.0612 0.83600003
-0.037300002 0.061299998 0.83700001
-0.0359 0.0614 0.838
-0.034499999 0.0614 0.83899999
-0.033100002 0.061500002 0.83999997
-0.031599998 0.061500002 0.83999997
-0.030200001 0.0616 0.84100002
-0.0287 0.0616 0.84100002
-0.0273 0.0616 0.84100002
-0.025800001 0.0616 0.84100002
-0.0244 0.0616 0.84100002
-0.0229 0.061500002 0.83999997
-0.021400001 0.0614 0.838
-0.0199 0.0614 0.838
-0.0185 0.0614 0.838
-0.017000001 0.0614 0.838
-0.0156 0.0614 0.838
-0.0141 0.0614 0.838
-0.0127 0.0614 0.838
-0.0112 0.0614 0.838
-0.0098000001 0.0614 0.83899999
-0.0082999999 0.0616 0.84100002
-0.0068999999 0.061700001 0.84299999
-0.0054000001 0.061700001 0.84299999
-0.0040000002 0.061700001 0.84299999
