ply
format ascii 1.0
comment PCL generated
element vertex 1741
property float x
property float y
property float z
element camera 0
property float view_px
property float view_py
property float view_pz
property float x_axisx
property float x_axisy
property float x_axisz
property float y_axisx
property float y_axisy
property float y_axisz
property float z_axisx
property float z_axisy
property float z_axisz
property float focal
property float scalex
property float scaley
property float centerx
property float centery
property int viewportx
property int viewporty
property float k1
property float k2
end_header
-0.30599999 0.1056 0.89300001
-0.30410001 0.1055 0.89200002
-0.30219999 0.1054 0.89099997
-0.29879999 0.1053 0.88999999
-0.2969 0.1052 0.889
-0.29570001 0.1053 0.88999999
-0.29390001 0.1052 0.889
-0.29260001 0.1053 0.88999999
-0.29139999 0.1054 0.89099997
-0.2899 0.1054 0.89099997
-0.28929999 0.1058 0.89399999
-0.28839999 0.106 0.89600003
-0.2872 0.1061 0.89700001
-0.2859 0.1062 0.898
-0.28369999 0.106 0.89600003
-0.28189999 0.1059 0.89499998
-0.28029999 0.1059 0.89499998
-0.27880001 0.1059 0.89499998
-0.2775 0.106 0.89600003
-0.2726 0.1059 0.89499998
-0.26859999 0.1055 0.89200002
-0.26640001 0.1053 0.88999999
-0.26429999 0.105 0.88800001
-0.2606 0.1048 0.88599998
-0.25940001 0.1049 0.88700002
-0.25780001 0.1049 0.88700002
-0.25479999 0.1049 0.88700002
-0.25319999 0.1049 0.88700002
-0.24860001 0.1049 0.88700002
-0.2471 0.1049 0.88700002
-0.244 0.1049 0.88700002
-0.24250001 0.1049 0.88700002
-0.24089999 0.1049 0.88700002
-0.2397 0.105 0.88800001
-0.2379 0.1049 0.88700002
-0.23630001 0.1049 0.88700002
-0.23450001 0.1048 0.88599998
-0.23270001 0.1047 0.88499999
-0.2304 0.1043 0.88200003
-0.22759999 0.1037 0.87699997
-0.21340001 0.1 0.84500003
-0.2104 0.099299997 0.83899999
-0.2077 0.098700002 0.83399999
-0.2058 0.098399997 0.83200002
-0.2044 0.098399997 0.83200002
-0.2027 0.098300003 0.83099997
-0.20119999 0.098300003 0.83099997
-0.1998 0.098300003 0.83099997
-0.19840001 0.098300003 0.83099997
-0.1969 0.098300003 0.83099997
-0.19400001 0.098300003 0.83099997
-0.1928 0.098399997 0.83200002
-0.1885 0.098399997 0.83200002
-0.18709999 0.098399997 0.83200002
-0.18440001 0.098499998 0.833
-0.1829 0.098499998 0.833
-0.18170001 0.098700002 0.83399999
-0.1805 0.098800004 0.83499998
-0.1776 0.098800004 0.83499998
-0.1759 0.098700002 0.83399999
-0.1743 0.098499998 0.833
-0.1728 0.098499998 0.833
-0.17120001 0.098399997 0.83200002
-0.1698 0.098399997 0.83200002
-0.1681 0.098300003 0.83099997
-0.16689999 0.098399997 0.83200002
-0.1654 0.098399997 0.83200002
-0.164 0.098399997 0.83200002
-0.14489999 0.098200001 0.82999998
-0.13680001 0.098499998 0.833
-0.1355 0.098700002 0.83399999
-0.13240001 0.098499998 0.833
-0.131 0.098499998 0.833
-0.12970001 0.098700002 0.83399999
-0.12819999 0.098700002 0.83399999
-0.1251 0.098399997 0.83200002
-0.1236 0.098399997 0.83200002
-0.1222 0.098399997 0.83200002
-0.1207 0.098399997 0.83200002
-0.1191 0.098300003 0.83099997
-0.1177 0.098300003 0.83099997
-0.1163 0.098300003 0.83099997
-0.1147 0.098200001 0.82999998
-0.1132 0.098200001 0.82999998
-0.1118 0.098200001 0.82999998
-0.1075 0.098200001 0.82999998
-0.1062 0.098300003 0.83099997
-0.1049 0.098399997 0.83200002
-0.1034 0.098399997 0.83200002
-0.102 0.098399997 0.83200002
-0.1005 0.098399997 0.83200002
-0.099100001 0.098399997 0.83200002
-0.0977 0.098399997 0.83200002
-0.096199997 0.098399997 0.83200002
-0.094899997 0.098499998 0.833
-0.092100002 0.098700002 0.83399999
-0.090700001 0.098700002 0.83399999
-0.089299999 0.098800004 0.83499998
-0.087899998 0.098800004 0.83499998
-0.086300001 0.098700002 0.83399999
-0.084899999 0.098700002 0.83399999
-0.083400004 0.098700002 0.83399999
-0.082099997 0.098800004 0.83499998
-0.080799997 0.098999999 0.83700001
-0.079599999 0.099299997 0.83899999
-0.078199998 0.099399999 0.83999997
-0.076800004 0.0995 0.84100002
-0.075400002 0.0995 0.84100002
-0.073799998 0.099399999 0.83999997
-0.072400004 0.099399999 0.83999997
-0.070900001 0.099399999 0.83999997
-0.069399998 0.099299997 0.83899999
-0.067900002 0.099299997 0.83899999
-0.066600002 0.0995 0.84100002
-0.065399997 0.099799998 0.84399998
-0.064000003 0.099799998 0.84399998
-0.062399998 0.099699996 0.84299999
-0.060800001 0.0995 0.84100002
-0.059099998 0.099100001 0.838
-0.057500001 0.098800004 0.83499998
-0.056000002 0.098700002 0.83399999
-0.054499999 0.098499998 0.833
-0.053100001 0.098700002 0.83399999
-0.0517 0.098800004 0.83499998
-0.0504 0.098999999 0.83700001
-0.048999999 0.099299997 0.83899999
-0.047600001 0.099399999 0.83999997
-0.0462 0.0995 0.84100002
-0.044799998 0.0995 0.84100002
-0.043299999 0.0995 0.84100002
-0.043099999 0.1062 0.898
-0.0416 0.1062 0.898
-0.039999999 0.1062 0.898
-0.0385 0.1062 0.898
-0.036899999 0.1062 0.898
-0.035399999 0.1064 0.89899999
-0.033799998 0.1064 0.89899999
-0.032299999 0.1065 0.89999998
-0.0308 0.1065 0.89999998
-0.029200001 0.1064 0.89899999
-0.0276 0.1065 0.89999998
-0.0261 0.1065 0.89999998
-0.024499999 0.1065 0.89999998
-0.0229 0.1062 0.898
-0.021400001 0.1062 0.898
-0.0198 0.1061 0.89700001
-0.018200001 0.1061 0.89700001
-0.0167 0.1062 0.898
-0.0151 0.1062 0.898
-0.0136 0.1062 0.898
-0.012 0.1065 0.89999998
-0.0105 0.1064 0.89899999
-0.0088999998 0.1065 0.89999998
-0.0074 0.1065 0.89999998
-0.0057999999 0.1062 0.898
-0.0041999999 0.1062 0.898
-0.0027000001 0.1064 0.89899999
-0.0011 0.1064 0.89899999
0.00039999999 0.1065 0.89999998
0.0020000001 0.1066 0.90100002
0.0035999999 0.1066 0.90100002
0.0051000002 0.1068 0.903
0.0066999998 0.1067 0.90200001
0.0082999999 0.1068 0.903
0.0098000001 0.1068 0.903
0.0114 0.1068 0.903
0.0129 0.1067 0.90200001
0.0145 0.1066 0.90100002
0.016000001 0.1066 0.90100002
0.0176 0.1066 0.90100002
0.019200001 0.1066 0.90100002
0.0207 0.1065 0.89999998
0.022299999 0.1066 0.90100002
0.0239 0.1067 0.90200001
0.027100001 0.1069 0.90399998
0.0287 0.1071 0.90499997
0.030200001 0.1071 0.90499997
0.0319 0.1073 0.90700001
0.033500001 0.1074 0.90799999
0.035 0.1073 0.90700001
0.036600001 0.1072 0.90600002
0.0381 0.1071 0.90499997
0.0396 0.1069 0.90399998
0.041200001 0.1069 0.90399998
0.0427 0.1068 0.903
0.044199999 0.1066 0.90100002
0.045699999 0.1065 0.89999998
0.047200002 0.1065 0.89999998
0.048799999 0.1065 0.89999998
0.0504 0.1066 0.90100002
0.052000001 0.1066 0.90100002
0.053599998 0.1067 0.90200001
0.055199999 0.1068 0.903
0.0568 0.1068 0.903
0.0583 0.1068 0.903
0.059799999 0.1067 0.90200001
0.061299998 0.1066 0.90100002
0.062899999 0.1066 0.90100002
0.064499997 0.1067 0.90200001
0.066200003 0.1068 0.903
0.067699999 0.1067 0.90200001
0.069200002 0.1067 0.90200001
0.070799999 0.1067 0.90200001
0.072400004 0.1068 0.903
0.074199997 0.1071 0.90499997
0.0757 0.1071 0.90499997
0.077399999 0.1072 0.90600002
0.079099998 0.1074 0.90799999
0.080700003 0.1074 0.90799999
0.082199998 0.1073 0.90700001
0.083700001 0.1072 0.90600002
0.085100003 0.1071 0.90499997
0.086499996 0.1068 0.903
0.088 0.1067 0.90200001
0.089400001 0.1066 0.90100002
0.090999998 0.1066 0.90100002
0.092600003 0.1066 0.90100002
0.094300002 0.1068 0.903
0.096000001 0.1069 0.90399998
0.0977 0.1071 0.90499997
0.099200003 0.1071 0.90499997
0.1008 0.1071 0.90499997
0.1026 0.1073 0.90700001
0.1042 0.1073 0.90700001
0.1058 0.1073 0.90700001
0.1074 0.1074 0.90799999
0.109 0.1074 0.90799999
0.1105 0.1073 0.90700001
0.1162 0.1068 0.903
0.1175 0.1066 0.90100002
0.119 0.1065 0.89999998
0.1204 0.1064 0.89899999
0.122 0.1064 0.89899999
0.1234 0.1062 0.898
0.1249 0.1062 0.898
0.1266 0.1064 0.89899999
0.1283 0.1065 0.89999998
0.1303 0.1068 0.903
0.132 0.1069 0.90399998
0.1339 0.1072 0.90600002
0.1355 0.1072 0.90600002
0.1372 0.1073 0.90700001
0.13860001 0.1072 0.90600002
0.14 0.1071 0.90499997
0.14139999 0.1069 0.90399998
0.1443 0.1067 0.90200001
0.1471 0.1065 0.89999998
0.1498 0.1062 0.898
0.1516 0.1064 0.89899999
0.1549 0.1065 0.89999998
0.1566 0.1066 0.90100002
0.15809999 0.1066 0.90100002
0.15989999 0.1067 0.90200001
0.1613 0.1066 0.90100002
0.1628 0.1066 0.90100002
0.1648 0.1068 0.903
0.1665 0.1069 0.90399998
0.1683 0.1071 0.90499997
0.17 0.1072 0.90600002
0.1718 0.1073 0.90700001
0.1733 0.1073 0.90700001
0.1763 0.1072 0.90600002
0.17749999 0.1069 0.90399998
0.1798 0.1065 0.89999998
0.1814 0.1065 0.89999998
0.1851 0.1068 0.903
-0.41 0.1065 0.88700002
-0.40700001 0.1065 0.88700002
-0.3378 0.106 0.88300002
-0.33590001 0.1059 0.88200003
-0.3301 0.1065 0.88700002
-0.32890001 0.1066 0.88800001
-0.3258 0.1066 0.88800001
-0.32390001 0.1065 0.88700002
-0.322 0.1063 0.88599998
-0.3186 0.1062 0.88499999
-0.31670001 0.1061 0.884
-0.3152 0.1061 0.884
-0.31400001 0.1062 0.88499999
-0.31349999 0.1066 0.88800001
-0.31299999 0.1069 0.89099997
-0.31220001 0.1072 0.89300001
-0.3114 0.1074 0.89499998
-0.3098 0.1074 0.89499998
-0.30790001 0.1073 0.89399999
-0.30599999 0.1072 0.89300001
-0.30450001 0.1072 0.89300001
-0.30219999 0.1069 0.89099997
-0.30070001 0.1069 0.89099997
-0.29879999 0.1068 0.88999999
-0.2969 0.1067 0.889
-0.29539999 0.1067 0.889
-0.29350001 0.1066 0.88800001
-0.292 0.1066 0.88800001
-0.2911 0.1068 0.88999999
-0.28960001 0.1068 0.88999999
-0.28870001 0.1071 0.89200002
-0.2881 0.1074 0.89499998
-0.28690001 0.1075 0.89600003
-0.2859 0.1078 0.898
-0.28220001 0.1075 0.89600003
-0.28060001 0.1075 0.89600003
-0.2791 0.1075 0.89600003
-0.27599999 0.1075 0.89600003
-0.27410001 0.1074 0.89499998
-0.2658 0.1066 0.88800001
-0.2588 0.1062 0.88499999
-0.25729999 0.1062 0.88499999
-0.2563 0.1065 0.88700002
-0.25479999 0.1065 0.88700002
-0.25319999 0.1065 0.88700002
-0.2507 0.1067 0.889
-0.2489 0.1066 0.88800001
-0.2474 0.1066 0.88800001
-0.2458 0.1066 0.88800001
-0.24429999 0.1066 0.88800001
-0.2427 0.1066 0.88800001
-0.2412 0.1066 0.88800001
-0.2397 0.1066 0.88800001
-0.23810001 0.1066 0.88800001
-0.2366 0.1066 0.88800001
-0.235 0.1066 0.88800001
-0.2332 0.1065 0.88700002
-0.2309 0.1061 0.884
-0.2281 0.1055 0.87900001
-0.2149 0.1014 0.84500003
-0.2119 0.1007 0.83899999
-0.20919999 0.1001 0.83399999
-0.207 0.099699996 0.83099997
-0.20559999 0.099699996 0.83099997
-0.2024 0.099600002 0.82999998
-0.20100001 0.099600002 0.82999998
-0.1998 0.099699996 0.83099997
-0.19840001 0.099699996 0.83099997
-0.1971 0.0999 0.83200002
-0.1957 0.0999 0.83200002
-0.1928 0.0999 0.83200002
-0.1899 0.0999 0.83200002
-0.18870001 0.1 0.833
-0.18709999 0.0999 0.83200002
-0.1858 0.1 0.833
-0.18440001 0.1 0.833
-0.1829 0.1 0.833
-0.1803 0.1001 0.83399999
-0.1788 0.1001 0.83399999
-0.1724 0.099699996 0.83099997
-0.16949999 0.099699996 0.83099997
-0.1681 0.099699996 0.83099997
-0.16670001 0.099699996 0.83099997
-0.1656 0.1 0.833
-0.16419999 0.1 0.833
-0.1629 0.1001 0.83399999
-0.1508 0.099699996 0.83099997
-0.1496 0.0999 0.83200002
-0.1479 0.099699996 0.83099997
-0.14650001 0.099699996 0.83099997
-0.1451 0.099699996 0.83099997
-0.1364 0.099699996 0.83099997
-0.13510001 0.0999 0.83200002
-0.1339 0.1 0.833
-0.1323 0.0999 0.83200002
-0.131 0.1 0.833
-0.1295 0.1 0.833
-0.12819999 0.1001 0.83399999
-0.1268 0.1001 0.83399999
-0.1252 0.1 0.833
-0.1236 0.0999 0.83200002
-0.1223 0.1 0.833
-0.1209 0.1 0.833
-0.1193 0.0999 0.83200002
-0.1178 0.0999 0.83200002
-0.1163 0.099699996 0.83099997
-0.1148 0.099699996 0.83099997
-0.1132 0.099600002 0.82999998
-0.1118 0.099600002 0.82999998
-0.1102 0.0995 0.829
-0.106 0.099600002 0.82999998
-0.1049 0.0999 0.83200002
-0.1034 0.0999 0.83200002
-0.1021 0.1 0.833
-0.1007 0.1 0.833
-0.099200003 0.1 0.833
-0.097900003 0.1001 0.83399999
-0.0964 0.1001 0.83399999
-0.095100001 0.1002 0.83499998
-0.093699999 0.1002 0.83499998
-0.092100002 0.1001 0.83399999
-0.090700001 0.1001 0.83399999
-0.089199997 0.1001 0.83399999
-0.087800004 0.1001 0.83399999
-0.086199999 0.1 0.833
-0.084799998 0.1 0.833
-0.083300002 0.1 0.833
-0.082000002 0.1001 0.83399999
-0.080600001 0.1002 0.83499998
-0.079400003 0.1005 0.83700001
-0.078000002 0.1006 0.838
-0.0766 0.1006 0.838
-0.075099997 0.1006 0.838
-0.073700003 0.1006 0.838
-0.072300002 0.1007 0.83899999
-0.070799999 0.1007 0.83899999
-0.069300003 0.1006 0.838
-0.067900002 0.1007 0.83899999
-0.066600002 0.1009 0.84100002
-0.065499999 0.1014 0.84500003
-0.064099997 0.1015 0.84600002
-0.061000001 0.1013 0.84399998
-0.059500001 0.1012 0.84299999
-0.057799999 0.1008 0.83999997
-0.056200001 0.1005 0.83700001
-0.054499999 0.1001 0.83399999
-0.053100001 0.1001 0.83399999
-0.051800001 0.1003 0.83600003
-0.0504 0.1005 0.83700001
-0.048999999 0.1007 0.83899999
-0.047600001 0.1008 0.83999997
-0.0462 0.1008 0.83999997
-0.0447 0.1008 0.83999997
-0.043299999 0.1008 0.83999997
-0.043099999 0.1078 0.898
-0.0416 0.1078 0.898
-0.039999999 0.1078 0.898
-0.0385 0.1078 0.898
-0.036899999 0.1078 0.898
-0.035399999 0.1078 0.898
-0.033799998 0.1078 0.898
-0.032299999 0.1079 0.89899999
-0.0307 0.1079 0.89899999
-0.029100001 0.1078 0.898
-0.0276 0.1079 0.89899999
-0.0261 0.108 0.89999998
-0.024499999 0.1079 0.89899999
-0.0229 0.1078 0.898
-0.021299999 0.1075 0.89600003
-0.0198 0.1075 0.89600003
-0.018200001 0.1077 0.89700001
-0.0167 0.1075 0.89600003
-0.0151 0.1075 0.89600003
-0.0136 0.1077 0.89700001
-0.012 0.1079 0.89899999
-0.0105 0.1079 0.89899999
-0.0088999998 0.108 0.89999998
-0.0074 0.108 0.89999998
-0.0057999999 0.1079 0.89899999
-0.0041999999 0.108 0.89999998
-0.0027000001 0.108 0.89999998
-0.0011 0.108 0.89999998
0.00039999999 0.108 0.89999998
0.0020000001 0.1081 0.90100002
0.0035999999 0.1083 0.90200001
0.0051000002 0.1084 0.903
0.0066999998 0.1083 0.90200001
0.0082999999 0.1084 0.903
0.0098000001 0.1084 0.903
0.0114 0.1084 0.903
0.0129 0.1081 0.90100002
0.0145 0.108 0.89999998
0.016000001 0.108 0.89999998
0.0176 0.1081 0.90100002
0.019200001 0.1081 0.90100002
0.0207 0.1081 0.90100002
0.022299999 0.1084 0.903
0.0239 0.1085 0.90399998
0.027100001 0.1086 0.90499997
0.0287 0.1086 0.90499997
0.030300001 0.1089 0.90700001
0.0319 0.109 0.90799999
0.033500001 0.1091 0.90899998
0.035100002 0.109 0.90799999
0.036600001 0.1089 0.90700001
0.038199998 0.1089 0.90700001
0.0396 0.1086 0.90499997
0.041200001 0.1086 0.90499997
0.044199999 0.1083 0.90200001
0.0473 0.1081 0.90100002
0.048799999 0.108 0.89999998
0.0504 0.1081 0.90100002
0.052000001 0.1083 0.90200001
0.053599998 0.1084 0.903
0.055199999 0.1084 0.903
0.0568 0.1084 0.903
0.0583 0.1084 0.903
0.059799999 0.1083 0.90200001
0.061299998 0.1081 0.90100002
0.062899999 0.1081 0.90100002
0.064499997 0.1081 0.90100002
0.067599997 0.1081 0.90100002
0.0691 0.1081 0.90100002
0.072300002 0.1083 0.90200001
0.074000001 0.1084 0.903
0.075599998 0.1085 0.90399998
0.077299997 0.1086 0.90499997
0.079099998 0.109 0.90799999
0.080700003 0.109 0.90799999
0.0823 0.109 0.90799999
0.083700001 0.1089 0.90700001
0.085100003 0.1086 0.90499997
0.086599998 0.1085 0.90399998
0.088100001 0.1084 0.903
0.089500003 0.1083 0.90200001
0.090999998 0.1081 0.90100002
0.092600003 0.1081 0.90100002
0.094300002 0.1084 0.903
0.095899999 0.1084 0.903
0.097499996 0.1084 0.903
0.099200003 0.1086 0.90499997
0.1008 0.1086 0.90499997
0.1025 0.1087 0.90600002
0.1042 0.1089 0.90700001
0.1058 0.1089 0.90700001
0.1073 0.1089 0.90700001
0.1177 0.1083 0.90200001
0.119 0.108 0.89999998
0.1205 0.108 0.89999998
0.122 0.1079 0.89899999
0.1235 0.1079 0.89899999
0.1251 0.1079 0.89899999
0.1268 0.108 0.89999998
0.1285 0.1081 0.90100002
0.1305 0.1085 0.90399998
0.1322 0.1086 0.90499997
0.13410001 0.1089 0.90700001
0.1356 0.1089 0.90700001
0.1372 0.1089 0.90700001
0.13860001 0.1087 0.90600002
0.14 0.1086 0.90499997
0.14139999 0.1085 0.90399998
0.1428 0.1084 0.903
0.1441 0.1081 0.90100002
0.1455 0.108 0.89999998
0.14669999 0.1078 0.898
0.1481 0.1077 0.89700001
0.1498 0.1078 0.898
0.1531 0.1079 0.89899999
0.1566 0.1081 0.90100002
0.16150001 0.1083 0.90200001
0.16320001 0.1084 0.903
0.16509999 0.1086 0.90499997
0.16670001 0.1086 0.90499997
0.1684 0.1087 0.90600002
0.17020001 0.1089 0.90700001
0.17200001 0.109 0.90799999
0.1735 0.109 0.90799999
0.17649999 0.1089 0.90700001
0.1777 0.1086 0.90499997
0.1814 0.108 0.89999998
0.1831 0.1081 0.90100002
0.1849 0.1083 0.90200001
0.18629999 0.1081 0.90100002
-0.4136 0.1081 0.88800001
-0.412 0.1081 0.88800001
-0.41049999 0.1081 0.88800001
-0.40900001 0.1081 0.88800001
-0.3312 0.1084 0.88999999
-0.32969999 0.1084 0.88999999
-0.3281 0.1084 0.88999999
-0.3258 0.1081 0.88800001
-0.32429999 0.1081 0.88800001
-0.322 0.1079 0.88599998
-0.32010001 0.1078 0.88499999
-0.31819999 0.1076 0.884
-0.31670001 0.1076 0.884
-0.3152 0.1076 0.884
-0.31400001 0.1078 0.88499999
-0.3132 0.108 0.88700002
-0.31299999 0.1085 0.89099997
-0.31330001 0.1091 0.89600003
-0.31200001 0.1092 0.89700001
-0.3105 0.1092 0.89700001
-0.3082 0.109 0.89499998
-0.3064 0.1089 0.89399999
-0.30450001 0.1087 0.89300001
-0.30070001 0.1085 0.89099997
-0.29879999 0.1084 0.88999999
-0.29539999 0.1082 0.889
-0.29350001 0.1081 0.88800001
-0.292 0.1081 0.88800001
-0.2911 0.1084 0.88999999
-0.28920001 0.1082 0.889
-0.28799999 0.1084 0.88999999
-0.2868 0.1085 0.89099997
-0.2859 0.1087 0.89300001
-0.28470001 0.1089 0.89399999
-0.2834 0.109 0.89499998
-0.28189999 0.109 0.89499998
-0.28060001 0.1091 0.89600003
-0.2775 0.1091 0.89600003
-0.2714 0.1085 0.89099997
-0.2597 0.1075 0.88300002
-0.25850001 0.1076 0.884
-0.25729999 0.1078 0.88499999
-0.2563 0.108 0.88700002
-0.255 0.1081 0.88800001
-0.2538 0.1082 0.889
-0.2525 0.1084 0.88999999
-0.25099999 0.1084 0.88999999
-0.24950001 0.1084 0.88999999
-0.24609999 0.1082 0.889
-0.2446 0.1082 0.889
-0.24330001 0.1084 0.88999999
-0.24150001 0.1082 0.889
-0.2402 0.1084 0.88999999
-0.2387 0.1084 0.88999999
-0.23710001 0.1084 0.88999999
-0.2353 0.1082 0.889
-0.2335 0.1081 0.88800001
-0.2317 0.108 0.88700002
-0.22830001 0.1072 0.88
-0.2121 0.1023 0.83999997
-0.2094 0.1017 0.83499998
-0.20720001 0.1013 0.83200002
-0.20559999 0.1012 0.83099997
-0.2041 0.1012 0.83099997
-0.2024 0.1011 0.82999998
-0.19840001 0.1012 0.83099997
-0.1957 0.1013 0.83200002
-0.1943 0.1013 0.83200002
-0.1928 0.1013 0.83200002
-0.19140001 0.1013 0.83200002
-0.1902 0.1014 0.833
-0.18870001 0.1014 0.833
-0.1873 0.1014 0.833
-0.1805 0.1017 0.83499998
-0.1788 0.1016 0.83399999
-0.1772 0.1014 0.833
-0.1741 0.1013 0.83200002
-0.1726 0.1013 0.83200002
-0.171 0.1012 0.83099997
-0.16949999 0.1012 0.83099997
-0.1681 0.1012 0.83099997
-0.1627 0.1014 0.833
-0.1584 0.1014 0.833
-0.15700001 0.1014 0.833
-0.15530001 0.1013 0.83200002
-0.1539 0.1013 0.83200002
-0.1524 0.1013 0.83200002
-0.15099999 0.1013 0.83200002
-0.1496 0.1013 0.83200002
-0.1481 0.1013 0.83200002
-0.14650001 0.1012 0.83099997
-0.1451 0.1012 0.83099997
-0.1435 0.1011 0.82999998
-0.1418 0.1009 0.829
-0.14040001 0.1009 0.829
-0.1364 0.1012 0.83099997
-0.1337 0.1013 0.83200002
-0.13240001 0.1014 0.833
-0.12970001 0.1016 0.83399999
-0.12819999 0.1016 0.83399999
-0.1252 0.1014 0.833
-0.1238 0.1014 0.833
-0.1223 0.1014 0.833
-0.1209 0.1014 0.833
-0.1193 0.1013 0.83200002
-0.1178 0.1013 0.83200002
-0.1163 0.1012 0.83099997
-0.1147 0.1011 0.82999998
-0.1132 0.1011 0.82999998
-0.1117 0.1009 0.829
-0.106 0.1011 0.82999998
-0.1047 0.1012 0.83099997
-0.1034 0.1013 0.83200002
-0.1021 0.1014 0.833
-0.1008 0.1016 0.83399999
-0.099299997 0.1016 0.83399999
-0.098099999 0.1018 0.83600003
-0.097000003 0.1022 0.83899999
-0.095700003 0.1023 0.83999997
-0.094099998 0.1022 0.83899999
-0.092399999 0.1019 0.83700001
-0.090800002 0.1017 0.83499998
-0.089299999 0.1017 0.83499998
-0.087800004 0.1016 0.83399999
-0.086199999 0.1014 0.833
-0.084700003 0.1013 0.83200002
-0.0832 0.1013 0.83200002
-0.081900001 0.1014 0.833
-0.080499999 0.1016 0.83399999
-0.079099998 0.1016 0.83399999
-0.077699997 0.1017 0.83499998
-0.076300003 0.1017 0.83499998
-0.075000003 0.1019 0.83700001
-0.073600002 0.1019 0.83700001
-0.072099999 0.1019 0.83700001
-0.070799999 0.102 0.838
-0.069399998 0.1022 0.83899999
-0.068000004 0.1023 0.83999997
-0.065499999 0.1029 0.84500003
-0.064099997 0.103 0.84600002
-0.062600002 0.103 0.84600002
-0.061099999 0.1029 0.84500003
-0.059599999 0.1028 0.84399998
-0.057999998 0.1025 0.84200001
-0.056299999 0.1022 0.83899999
-0.0546 0.1017 0.83499998
-0.053100001 0.1017 0.83499998
-0.051800001 0.1019 0.83700001
-0.0504 0.102 0.838
-0.0491 0.1023 0.83999997
-0.047699999 0.1024 0.84100002
-0.0462 0.1023 0.83999997
-0.0447 0.1023 0.83999997
-0.043299999 0.1024 0.84100002
-0.043099999 0.1093 0.898
-0.0416 0.1095 0.89899999
-0.039999999 0.1093 0.898
-0.0385 0.1093 0.898
-0.036899999 0.1093 0.898
-0.035399999 0.1093 0.898
-0.033799998 0.1095 0.89899999
-0.032299999 0.1096 0.89999998
-0.0308 0.1096 0.89999998
-0.029200001 0.1096 0.89999998
-0.0276 0.1096 0.89999998
-0.0261 0.1096 0.89999998
-0.024499999 0.1096 0.89999998
-0.0229 0.1093 0.898
-0.021299999 0.1091 0.89600003
-0.0198 0.1091 0.89600003
-0.018200001 0.1091 0.89600003
-0.0166 0.109 0.89499998
-0.0151 0.109 0.89499998
-0.0135 0.1091 0.89600003
-0.012 0.1093 0.898
-0.0105 0.1095 0.89899999
-0.0088999998 0.1096 0.89999998
-0.0074 0.1097 0.90100002
-0.0057999999 0.1096 0.89999998
-0.0043000001 0.1097 0.90100002
-0.0027000001 0.1097 0.90100002
-0.0011 0.1097 0.90100002
0.00039999999 0.1097 0.90100002
0.0020000001 0.1098 0.90200001
0.0035999999 0.11 0.903
0.0051000002 0.11 0.903
0.0066999998 0.11 0.903
0.0082999999 0.11 0.903
0.0098000001 0.1101 0.90399998
0.0114 0.11 0.903
0.0129 0.1098 0.90200001
0.0145 0.1097 0.90100002
0.016000001 0.1097 0.90100002
0.0176 0.1097 0.90100002
0.019200001 0.1098 0.90200001
0.0208 0.1098 0.90200001
0.0239 0.1101 0.90399998
0.027100001 0.1102 0.90499997
0.0287 0.1103 0.90600002
0.030300001 0.1104 0.90700001
0.0319 0.1106 0.90799999
0.033500001 0.1106 0.90799999
0.035100002 0.1106 0.90799999
0.036600001 0.1104 0.90700001
0.038199998 0.1104 0.90700001
0.039700001 0.1103 0.90600002
0.041200001 0.1102 0.90499997
0.048799999 0.1096 0.89999998
0.050299998 0.1096 0.89999998
0.052000001 0.1097 0.90100002
0.053599998 0.11 0.903
0.055199999 0.11 0.903
0.0568 0.11 0.903
0.0583 0.11 0.903
0.059799999 0.1098 0.90200001
0.061299998 0.1097 0.90100002
0.064400002 0.1096 0.89999998
0.066 0.1097 0.90100002
0.067599997 0.1097 0.90100002
0.0691 0.1097 0.90100002
0.070699997 0.1097 0.90100002
0.072300002 0.1097 0.90100002
0.074000001 0.11 0.903
0.0757 0.1102 0.90499997
0.077399999 0.1103 0.90600002
0.079099998 0.1106 0.90799999
0.080700003 0.1106 0.90799999
0.0823 0.1106 0.90799999
0.083700001 0.1104 0.90700001
0.085100003 0.1102 0.90499997
0.086599998 0.1101 0.90399998
0.088100001 0.11 0.903
0.089400001 0.1097 0.90100002
0.090899996 0.1096 0.89999998
0.092500001 0.1096 0.89999998
0.094099998 0.1097 0.90100002
0.095799997 0.1098 0.90200001
0.097400002 0.1098 0.90200001
0.098999999 0.11 0.903
0.1006 0.11 0.903
0.1023 0.1101 0.90399998
0.1205 0.1096 0.89999998
0.1218 0.1093 0.898
0.1235 0.1095 0.89899999
0.1251 0.1095 0.89899999
0.1268 0.1096 0.89999998
0.1286 0.1098 0.90200001
0.13060001 0.1102 0.90499997
0.13249999 0.1104 0.90700001
0.1358 0.1106 0.90799999
0.1373 0.1106 0.90799999
0.1388 0.1104 0.90700001
0.1402 0.1103 0.90600002
0.1416 0.1102 0.90499997
0.1428 0.11 0.903
0.1441 0.1097 0.90100002
0.1455 0.1096 0.89999998
0.1469 0.1095 0.89899999
0.14830001 0.1093 0.898
0.1498 0.1093 0.898
0.1516 0.1095 0.89899999
0.1531 0.1095 0.89899999
0.1549 0.1096 0.89999998
0.1566 0.1097 0.90100002
0.16339999 0.1101 0.90399998
0.16509999 0.1102 0.90499997
0.16689999 0.1103 0.90600002
0.16859999 0.1104 0.90700001
0.17039999 0.1106 0.90799999
0.17219999 0.1107 0.90899998
0.1737 0.1107 0.90899998
0.1751 0.1106 0.90799999
0.1779 0.1103 0.90600002
0.1802 0.1098 0.90200001
0.1816 0.1097 0.90100002
0.1833 0.1098 0.90200001
0.1851 0.11 0.903
0.1865 0.1098 0.90200001
-0.414 0.1098 0.889
-0.41299999 0.1099 0.88999999
-0.41049999 0.1097 0.88800001
-0.40900001 0.1097 0.88800001
-0.3281 0.1099 0.88999999
-0.32620001 0.1098 0.889
-0.32429999 0.1097 0.88800001
-0.3224 0.1095 0.88700002
-0.32010001 0.1093 0.88499999
-0.3186 0.1093 0.88499999
-0.31709999 0.1093 0.88499999
-0.3152 0.1092 0.884
-0.31400001 0.1093 0.88499999
-0.3132 0.1095 0.88700002
-0.31299999 0.11 0.89099997
-0.3136 0.1108 0.89700001
-0.3127 0.111 0.89899999
-0.31119999 0.111 0.89899999
-0.3089 0.1108 0.89700001
-0.30700001 0.1107 0.89600003
-0.30509999 0.1105 0.89499998
-0.301 0.1102 0.89200002
-0.29910001 0.11 0.89099997
-0.29730001 0.1099 0.88999999
-0.29539999 0.1098 0.889
-0.29350001 0.1097 0.88800001
-0.292 0.1097 0.88800001
-0.2904 0.1097 0.88800001
-0.28920001 0.1098 0.889
-0.2877 0.1098 0.889
-0.28650001 0.1099 0.88999999
-0.28490001 0.1099 0.88999999
-0.28400001 0.1102 0.89200002
-0.28279999 0.1103 0.89300001
-0.28119999 0.1103 0.89300001
-0.28 0.1104 0.89399999
-0.27880001 0.1105 0.89499998
-0.2775 0.1107 0.89600003
-0.2757 0.1105 0.89499998
-0.27289999 0.11 0.89099997
-0.26100001 0.1089 0.88200003
-0.25999999 0.1092 0.884
-0.2588 0.1093 0.88499999
-0.25780001 0.1095 0.88700002
-0.25659999 0.1097 0.88800001
-0.25560001 0.1099 0.88999999
-0.25440001 0.11 0.89099997
-0.2534 0.1103 0.89300001
-0.2516 0.1102 0.89200002
-0.24969999 0.11 0.89099997
-0.24789999 0.1099 0.88999999
-0.24609999 0.1098 0.889
-0.24429999 0.1097 0.88800001
-0.24330001 0.1099 0.88999999
-0.24150001 0.1098 0.889
-0.2402 0.1099 0.88999999
-0.2384 0.1098 0.889
-0.2366 0.1097 0.88800001
-0.235 0.1097 0.88800001
-0.2332 0.1095 0.88700002
-0.23119999 0.1093 0.88499999
-0.22830001 0.1087 0.88
-0.21510001 0.1045 0.84600002
-0.2124 0.1039 0.84100002
-0.2094 0.1031 0.83499998
-0.2041 0.1026 0.83099997
-0.2024 0.1025 0.82999998
-0.1996 0.1025 0.82999998
-0.1981 0.1025 0.82999998
-0.1957 0.1028 0.83200002
-0.1943 0.1028 0.83200002
-0.1928 0.1028 0.83200002
-0.19140001 0.1028 0.83200002
-0.1902 0.1029 0.833
-0.18870001 0.1029 0.833
-0.1873 0.1029 0.833
-0.18610001 0.103 0.83399999
-0.1846 0.103 0.83399999
-0.177 0.1028 0.83200002
-0.17389999 0.1026 0.83099997
-0.1724 0.1026 0.83099997
-0.171 0.1026 0.83099997
-0.16949999 0.1026 0.83099997
-0.1681 0.1026 0.83099997
-0.16689999 0.1028 0.83200002
-0.1627 0.1029 0.833
-0.1582 0.1028 0.83200002
-0.1568 0.1028 0.83200002
-0.15530001 0.1028 0.83200002
-0.1539 0.1028 0.83200002
-0.15260001 0.1029 0.833
-0.15099999 0.1028 0.83200002
-0.1496 0.1028 0.83200002
-0.1481 0.1028 0.83200002
-0.14650001 0.1026 0.83099997
-0.1451 0.1026 0.83099997
-0.1436 0.1026 0.83099997
-0.142 0.1025 0.82999998
-0.1391 0.1025 0.82999998
-0.1364 0.1026 0.83099997
-0.1339 0.1029 0.833
-0.13240001 0.1029 0.833
-0.1311 0.103 0.83399999
-0.12980001 0.1031 0.83499998
-0.1284 0.1031 0.83499998
-0.1269 0.1031 0.83499998
-0.12540001 0.103 0.83399999
-0.1239 0.103 0.83399999
-0.1223 0.1029 0.833
-0.1209 0.1029 0.833
-0.1193 0.1028 0.83200002
-0.1178 0.1028 0.83200002
-0.1163 0.1026 0.83099997
-0.1147 0.1025 0.82999998
-0.1132 0.1025 0.82999998
-0.1101 0.1023 0.82800001
-0.1088 0.1024 0.829
-0.106 0.1025 0.82999998
-0.1047 0.1026 0.83099997
-0.1034 0.1028 0.83200002
-0.1021 0.1029 0.833
-0.1008 0.103 0.83399999
-0.0995 0.1031 0.83499998
-0.098200001 0.1034 0.83700001
-0.097099997 0.1037 0.83999997
-0.095700003 0.1037 0.83999997
-0.0942 0.1037 0.83999997
-0.092500001 0.1035 0.838
-0.090899996 0.1032 0.83600003
-0.089299999 0.1031 0.83499998
-0.087800004 0.103 0.83399999
-0.086099997 0.1028 0.83200002
-0.084700003 0.1028 0.83200002
-0.0832 0.1028 0.83200002
-0.081799999 0.1028 0.83200002
-0.080399998 0.1029 0.833
-0.079000004 0.1029 0.833
-0.077699997 0.103 0.83399999
-0.076300003 0.1031 0.83499998
-0.074900001 0.1031 0.83499998
-0.073399998 0.1031 0.83499998
-0.071999997 0.1032 0.83600003
-0.070699997 0.1034 0.83700001
-0.069300003 0.1035 0.838
-0.067900002 0.1036 0.83899999
-0.066600002 0.1037 0.83999997
-0.065300003 0.1041 0.84299999
-0.064000003 0.1044 0.84500003
-0.062600002 0.1044 0.84500003
-0.061000001 0.1042 0.84399998
-0.059599999 0.1042 0.84399998
-0.057999998 0.1041 0.84299999
-0.056499999 0.104 0.84200001
-0.054900002 0.1036 0.83899999
-0.053300001 0.1035 0.838
-0.051899999 0.1035 0.838
-0.050500002 0.1036 0.83899999
-0.0491 0.1037 0.83999997
-0.047699999 0.1039 0.84100002
-0.0462 0.1039 0.84100002
-0.044799998 0.1039 0.84100002
-0.043400001 0.1041 0.84299999
-0.043099999 0.1108 0.89700001
-0.039999999 0.1109 0.898
-0.0385 0.1109 0.898
-0.036899999 0.1109 0.898
-0.035399999 0.1109 0.898
-0.033799998 0.111 0.89899999
-0.032299999 0.1111 0.89999998
-0.0308 0.1111 0.89999998
-0.029200001 0.1111 0.89999998
-0.0276 0.1111 0.89999998
-0.0261 0.1111 0.89999998
-0.024499999 0.1111 0.89999998
-0.0229 0.111 0.89899999
-0.021299999 0.1108 0.89700001
-0.0198 0.1107 0.89600003
-0.018200001 0.1107 0.89600003
-0.0167 0.1107 0.89600003
-0.0151 0.1108 0.89700001
-0.0136 0.1109 0.898
-0.012 0.1111 0.89999998
-0.0105 0.1111 0.89999998
-0.0088999998 0.1113 0.90100002
-0.0074 0.1114 0.90200001
-0.0057999999 0.1113 0.90100002
-0.0043000001 0.1115 0.903
-0.0027000001 0.1115 0.903
-0.0011 0.1113 0.90100002
0.00039999999 0.1115 0.903
0.0020000001 0.1115 0.903
0.0035999999 0.1116 0.90399998
0.0051000002 0.1116 0.90399998
0.0066999998 0.1115 0.903
0.0082999999 0.1115 0.903
0.0098000001 0.1118 0.90499997
0.0114 0.1116 0.90399998
0.013 0.1115 0.903
0.0145 0.1113 0.90100002
0.016000001 0.1113 0.90100002
0.0176 0.1113 0.90100002
0.019200001 0.1115 0.903
0.0208 0.1114 0.90200001
0.022299999 0.1115 0.903
0.024 0.1118 0.90499997
0.0255 0.1118 0.90499997
0.027100001 0.1118 0.90499997
0.0287 0.1119 0.90600002
0.030300001 0.112 0.90700001
0.0319 0.1121 0.90799999
0.033500001 0.1121 0.90799999
0.035100002 0.1121 0.90799999
0.036600001 0.112 0.90700001
0.038199998 0.112 0.90700001
0.0396 0.1118 0.90499997
0.041200001 0.1118 0.90499997
0.0427 0.1115 0.903
0.044199999 0.1113 0.90100002
0.048700001 0.111 0.89899999
0.050299998 0.1111 0.89999998
0.052000001 0.1113 0.90100002
0.053599998 0.1115 0.903
0.055199999 0.1115 0.903
0.0583 0.1114 0.90200001
0.059700001 0.1111 0.89999998
0.061299998 0.1111 0.89999998
0.062899999 0.1113 0.90100002
0.066 0.1113 0.90100002
0.067599997 0.1113 0.90100002
0.0691 0.1113 0.90100002
0.070699997 0.1113 0.90100002
0.072300002 0.1113 0.90100002
0.074000001 0.1115 0.903
0.0757 0.1118 0.90499997
0.077399999 0.1119 0.90600002
0.079000004 0.112 0.90700001
0.080700003 0.1121 0.90799999
0.0823 0.1121 0.90799999
0.083700001 0.112 0.90700001
0.085100003 0.1118 0.90499997
0.086599998 0.1116 0.90399998
0.088100001 0.1115 0.903
0.089400001 0.1113 0.90100002
0.090899996 0.1111 0.89999998
0.092500001 0.1111 0.89999998
0.094099998 0.1113 0.90100002
0.095700003 0.1113 0.90100002
0.097199999 0.1113 0.90100002
0.098999999 0.1115 0.903
0.1006 0.1115 0.903
0.1022 0.1115 0.903
0.1204 0.111 0.89899999
0.1218 0.1109 0.898
0.1234 0.1109 0.898
0.1249 0.1109 0.898
0.1268 0.1111 0.89999998
0.1286 0.1114 0.90200001
0.13060001 0.1118 0.90499997
0.13249999 0.112 0.90700001
0.13420001 0.1121 0.90799999
0.1358 0.1121 0.90799999
0.1373 0.1121 0.90799999
0.1388 0.112 0.90700001
0.1402 0.1119 0.90600002
0.1416 0.1118 0.90499997
0.1443 0.1114 0.90200001
0.1455 0.1111 0.89999998
0.1469 0.111 0.89899999
0.1498 0.1109 0.898
0.1516 0.111 0.89899999
0.1531 0.111 0.89899999
0.1549 0.1111 0.89999998
0.1566 0.1113 0.90100002
0.1583 0.1114 0.90200001
0.1601 0.1115 0.903
0.16159999 0.1115 0.903
0.1653 0.1119 0.90600002
0.1671 0.112 0.90700001
0.1688 0.1121 0.90799999
0.17039999 0.1121 0.90799999
0.17219999 0.1123 0.90899998
0.17389999 0.1124 0.91000003
0.1751 0.1121 0.90799999
0.17649999 0.112 0.90700001
0.1779 0.1119 0.90600002
0.17900001 0.1116 0.90399998
0.1804 0.1115 0.903
0.18179999 0.1114 0.90200001
0.18350001 0.1115 0.903
0.1851 0.1115 0.903
0.1865 0.1114 0.90200001
-0.33039999 0.1117 0.89200002
-0.3285 0.1116 0.89099997
-0.32659999 0.1115 0.88999999
-0.3247 0.1113 0.889
-0.3224 0.1111 0.88700002
-0.32049999 0.111 0.88599998
-0.3186 0.1108 0.88499999
-0.31709999 0.1108 0.88499999
-0.31439999 0.111 0.88599998
-0.3132 0.1111 0.88700002
-0.31310001 0.1127 0.89999998
-0.30930001 0.1125 0.898
-0.30770001 0.1125 0.898
-0.2942 0.1115 0.88999999
-0.2911 0.1115 0.88999999
-0.28960001 0.1115 0.88999999
-0.2877 0.1113 0.889
-0.28619999 0.1113 0.889
-0.28490001 0.1115 0.88999999
-0.28369999 0.1116 0.89099997
-0.28220001 0.1116 0.89099997
-0.28119999 0.1118 0.89300001
-0.27970001 0.1118 0.89300001
-0.27849999 0.112 0.89399999
-0.27720001 0.1121 0.89499998
-0.27509999 0.1118 0.89300001
-0.2726 0.1115 0.88999999
-0.2665 0.1108 0.88499999
-0.2649 0.1108 0.88499999
-0.2631 0.1107 0.884
-0.25940001 0.1111 0.88700002
-0.25780001 0.1111 0.88700002
-0.25690001 0.1113 0.889
-0.2559 0.1116 0.89099997
-0.25490001 0.1118 0.89300001
-0.2534 0.1118 0.89300001
-0.2516 0.1117 0.89200002
-0.24969999 0.1116 0.89099997
-0.24789999 0.1115 0.88999999
-0.2458 0.1112 0.88800001
-0.24429999 0.1112 0.88800001
-0.243 0.1113 0.889
-0.24150001 0.1113 0.889
-0.2402 0.1115 0.88999999
-0.2384 0.1113 0.889
-0.2366 0.1112 0.88800001
-0.235 0.1112 0.88800001
-0.2332 0.1111 0.88700002
-0.2219 0.1078 0.861
-0.21510001 0.1059 0.84600002
-0.2124 0.1053 0.84100002
-0.2094 0.1046 0.83499998
-0.2022 0.1038 0.829
-0.1955 0.1041 0.83099997
-0.19400001 0.1041 0.83099997
-0.1926 0.1041 0.83099997
-0.1912 0.1041 0.83099997
-0.1899 0.1042 0.83200002
-0.18870001 0.1043 0.833
-0.1873 0.1043 0.833
-0.1858 0.1043 0.833
-0.1822 0.1047 0.83600003
-0.1803 0.1044 0.83399999
-0.177 0.1042 0.83200002
-0.1753 0.1041 0.83099997
-0.17389999 0.1041 0.83099997
-0.1724 0.1041 0.83099997
-0.171 0.1041 0.83099997
-0.1698 0.1042 0.83200002
-0.1683 0.1042 0.83200002
-0.1671 0.1043 0.833
-0.1582 0.1042 0.83200002
-0.15530001 0.1042 0.83200002
-0.15369999 0.1041 0.83099997
-0.1524 0.1042 0.83200002
-0.1508 0.1041 0.83099997
-0.1494 0.1041 0.83099997
-0.1479 0.1041 0.83099997
-0.14650001 0.1041 0.83099997
-0.1451 0.1041 0.83099997
-0.1435 0.1039 0.82999998
-0.1418 0.1038 0.829
-0.14040001 0.1038 0.829
-0.1391 0.1039 0.82999998
-0.1364 0.1041 0.83099997
-0.1339 0.1043 0.833
-0.1313 0.1046 0.83499998
-0.13 0.1047 0.83600003
-0.1287 0.1048 0.83700001
-0.12729999 0.1048 0.83700001
-0.12549999 0.1046 0.83499998
-0.1239 0.1044 0.83399999
-0.1223 0.1043 0.833
-0.1209 0.1043 0.833
-0.1193 0.1042 0.83200002
-0.1178 0.1042 0.83200002
-0.1163 0.1041 0.83099997
-0.1147 0.1039 0.82999998
-0.1131 0.1038 0.829
-0.1115 0.1037 0.82800001
-0.11 0.1036 0.82700002
-0.1088 0.1038 0.829
-0.106 0.1039 0.82999998
-0.1047 0.1041 0.83099997
-0.1034 0.1042 0.83200002
-0.1022 0.1044 0.83399999
-0.1009 0.1046 0.83499998
-0.0995 0.1046 0.83499998
-0.096799999 0.1048 0.83700001
-0.0955 0.1049 0.838
-0.093999997 0.1049 0.838
-0.092200004 0.1046 0.83499998
-0.090700001 0.1044 0.83399999
-0.089199997 0.1044 0.83399999
-0.087700002 0.1043 0.833
-0.086199999 0.1043 0.833
-0.084700003 0.1042 0.83200002
-0.083099999 0.1041 0.83099997
-0.081799999 0.1042 0.83200002
-0.080399998 0.1043 0.833
-0.079000004 0.1043 0.833
-0.077600002 0.1043 0.833
-0.076200001 0.1044 0.83399999
-0.0748 0.1044 0.83399999
-0.073299997 0.1044 0.83399999
-0.071999997 0.1046 0.83499998
-0.070500001 0.1046 0.83499998
-0.069200002 0.1048 0.83700001
-0.0678 0.1048 0.83700001
-0.066500001 0.1051 0.83899999
-0.065200001 0.1053 0.84100002
-0.063900001 0.1056 0.84299999
-0.0625 0.1057 0.84399998
-0.061000001 0.1056 0.84299999
-0.059599999 0.1057 0.84399998
-0.0581 0.1057 0.84399998
-0.056600001 0.1056 0.84299999
-0.055 0.1053 0.84100002
-0.0535 0.1052 0.83999997
-0.052000001 0.1052 0.83999997
-0.0506 0.1052 0.83999997
-0.049199998 0.1053 0.84100002
-0.047699999 0.1053 0.84100002
-0.046300001 0.1054 0.84200001
-0.044799998 0.1054 0.84200001
-0.043400001 0.1056 0.84299999
-0.0429 0.1118 0.89300001
-0.041499998 0.1122 0.89600003
-0.039900001 0.1122 0.89600003
-0.038400002 0.1122 0.89600003
-0.036800001 0.1122 0.89600003
-0.035300002 0.1123 0.89700001
-0.033799998 0.1125 0.898
-0.032299999 0.1126 0.89899999
-0.0308 0.1127 0.89999998
-0.029200001 0.1127 0.89999998
-0.0276 0.1127 0.89999998
-0.0261 0.1127 0.89999998
-0.024499999 0.1127 0.89999998
-0.0229 0.1126 0.89899999
-0.021400001 0.1125 0.898
-0.0198 0.1122 0.89600003
-0.018200001 0.1122 0.89600003
-0.0167 0.1122 0.89600003
-0.0151 0.1122 0.89600003
-0.0136 0.1125 0.898
-0.012 0.1127 0.89999998
-0.0105 0.1128 0.90100002
-0.0088999998 0.113 0.90200001
-0.0074 0.1131 0.903
-0.0057999999 0.1131 0.903
-0.0043000001 0.1131 0.903
-0.0027000001 0.1132 0.90399998
-0.0011 0.1131 0.903
0.00039999999 0.1131 0.903
0.0020000001 0.1132 0.90399998
0.0035999999 0.1132 0.90399998
0.0051000002 0.1132 0.90399998
0.0066999998 0.1131 0.903
0.0082999999 0.1132 0.90399998
0.0098000001 0.1133 0.90499997
0.0114 0.1132 0.90399998
0.013 0.1131 0.903
0.0145 0.1131 0.903
0.016100001 0.1131 0.903
0.0176 0.1131 0.903
0.019200001 0.1131 0.903
0.0208 0.1131 0.903
0.022399999 0.1132 0.90399998
0.024 0.1133 0.90499997
0.027100001 0.1133 0.90499997
0.0287 0.1133 0.90499997
0.030300001 0.1135 0.90600002
0.0319 0.1136 0.90700001
0.033399999 0.1136 0.90700001
0.035 0.1136 0.90700001
0.036600001 0.1135 0.90600002
0.0381 0.1135 0.90600002
0.0396 0.1133 0.90499997
0.041200001 0.1132 0.90399998
0.044199999 0.1128 0.90100002
0.047200002 0.1127 0.89999998
0.050500002 0.113 0.90200001
0.052099999 0.1131 0.903
0.053599998 0.1131 0.903
0.0568 0.1131 0.903
0.0583 0.1131 0.903
0.059799999 0.1128 0.90100002
0.061299998 0.1128 0.90100002
0.064400002 0.1127 0.89999998
0.066 0.1128 0.90100002
0.0691 0.1127 0.89999998
0.070699997 0.1128 0.90100002
0.072300002 0.1128 0.90100002
0.074000001 0.1131 0.903
0.0757 0.1133 0.90499997
0.077500001 0.1136 0.90700001
0.079099998 0.1137 0.90799999
0.080899999 0.114 0.91000003
0.082400002 0.1138 0.90899998
0.083800003 0.1137 0.90799999
0.085199997 0.1135 0.90600002
0.0867 0.1133 0.90499997
0.088100001 0.1131 0.903
0.090999998 0.1128 0.90100002
0.092500001 0.1127 0.89999998
0.094099998 0.1128 0.90100002
0.095700003 0.1128 0.90100002
0.097199999 0.1128 0.90100002
0.098999999 0.1131 0.903
0.1006 0.1131 0.903
0.1022 0.1131 0.903
0.11 0.1131 0.903
0.1217 0.1123 0.89700001
0.1234 0.1125 0.898
0.1251 0.1126 0.89899999
0.1269 0.1128 0.90100002
0.1288 0.1131 0.903
0.13060001 0.1133 0.90499997
0.13259999 0.1137 0.90799999
0.13420001 0.1137 0.90799999
0.1358 0.1137 0.90799999
0.1373 0.1137 0.90799999
0.1388 0.1136 0.90700001
0.1402 0.1135 0.90600002
0.1416 0.1133 0.90499997
0.1428 0.1131 0.903
0.1443 0.113 0.90200001
0.14569999 0.1128 0.90100002
0.1471 0.1127 0.89999998
0.14830001 0.1125 0.898
0.1498 0.1125 0.898
0.1514 0.1125 0.898
0.1531 0.1126 0.89899999
0.1549 0.1127 0.89999998
0.1566 0.1128 0.90100002
0.1583 0.113 0.90200001
0.1601 0.1131 0.903
0.1618 0.1132 0.90399998
0.1636 0.1133 0.90499997
0.1653 0.1135 0.90600002
0.1671 0.1136 0.90700001
0.1688 0.1137 0.90799999
0.17039999 0.1137 0.90799999
0.1723 0.114 0.91000003
0.17389999 0.114 0.91000003
0.1767 0.1137 0.90799999
0.1779 0.1135 0.90600002
0.1804 0.1131 0.903
0.182 0.1131 0.903
0.18350001 0.1131 0.903
0.1851 0.1131 0.903
0.18629999 0.1128 0.90100002
-0.41929999 0.1126 0.88700002
-0.40790001 0.1129 0.889
-0.3285 0.1131 0.89099997
-0.32659999 0.113 0.88999999
-0.32499999 0.113 0.88999999
-0.32280001 0.1127 0.88800001
-0.32089999 0.1126 0.88700002
-0.31709999 0.1124 0.88499999
-0.31470001 0.1126 0.88700002
-0.3134 0.1133 0.89200002
-0.3136 0.1139 0.89700001
-0.31310001 0.1143 0.89999998
-0.31 0.1143 0.89999998
-0.30579999 0.1139 0.89700001
-0.30360001 0.1136 0.89499998
-0.30140001 0.1134 0.89300001
-0.29910001 0.1131 0.89099997
-0.29730001 0.113 0.88999999
-0.29570001 0.113 0.88999999
-0.29390001 0.1129 0.889
-0.29260001 0.113 0.88999999
-0.28960001 0.113 0.88999999
-0.28650001 0.113 0.88999999
-0.28490001 0.113 0.88999999
-0.28369999 0.1131 0.89099997
-0.28220001 0.1131 0.89099997
-0.2809 0.1133 0.89200002
-0.27939999 0.1133 0.89200002
-0.2775 0.1131 0.89099997
-0.27599999 0.1131 0.89099997
-0.2723 0.1129 0.889
-0.26859999 0.1126 0.88700002
-0.2649 0.1124 0.88499999
-0.26339999 0.1124 0.88499999
-0.26190001 0.1124 0.88499999
-0.26089999 0.1126 0.88700002
-0.2597 0.1127 0.88800001
-0.25839999 0.1129 0.889
-0.25749999 0.1131 0.89099997
-0.2568 0.1135 0.89399999
-0.25549999 0.1136 0.89499998
-0.25420001 0.1138 0.89600003
-0.2518 0.1134 0.89300001
-0.24969999 0.1131 0.89099997
-0.2458 0.1127 0.88800001
-0.244 0.1126 0.88700002
-0.2427 0.1127 0.88800001
-0.2412 0.1127 0.88800001
-0.2397 0.1127 0.88800001
-0.23810001 0.1127 0.88800001
-0.2366 0.1127 0.88800001
-0.2348 0.1126 0.88700002
-0.23270001 0.1124 0.88499999
-0.2263 0.1107 0.87199998
-0.2119 0.1065 0.83899999
-0.2067 0.1054 0.82999998
-0.1974 0.105 0.82700002
-0.1964 0.1053 0.829
-0.1952 0.1054 0.82999998
-0.19400001 0.1055 0.83099997
-0.1926 0.1055 0.83099997
-0.1912 0.1055 0.83099997
-0.1899 0.1056 0.83200002
-0.18870001 0.1058 0.833
-0.1873 0.1058 0.833
-0.18610001 0.1059 0.83399999
-0.1846 0.1059 0.83399999
-0.18340001 0.106 0.83499998
-0.1803 0.1059 0.83399999
-0.17839999 0.1056 0.83200002
-0.1767 0.1055 0.83099997
-0.1753 0.1055 0.83099997
-0.17389999 0.1055 0.83099997
-0.1724 0.1055 0.83099997
-0.171 0.1055 0.83099997
-0.1698 0.1056 0.83200002
-0.1683 0.1056 0.83200002
-0.1664 0.1063 0.83700001
-0.16500001 0.1063 0.83700001
-0.1617 0.106 0.83499998
-0.15700001 0.1058 0.833
-0.15530001 0.1056 0.83200002
-0.1539 0.1056 0.83200002
-0.15260001 0.1058 0.833
-0.15099999 0.1056 0.83200002
-0.1496 0.1056 0.83200002
-0.1479 0.1055 0.83099997
-0.14650001 0.1055 0.83099997
-0.1451 0.1055 0.83099997
-0.1435 0.1054 0.82999998
-0.1418 0.1053 0.829
-0.14040001 0.1053 0.829
-0.1391 0.1054 0.82999998
-0.13789999 0.1055 0.83099997
-0.1353 0.1058 0.833
-0.1314 0.1061 0.83600003
-0.1302 0.1063 0.83700001
-0.1287 0.1063 0.83700001
-0.12729999 0.1063 0.83700001
-0.12549999 0.106 0.83499998
-0.1239 0.1059 0.83399999
-0.1223 0.1058 0.833
-0.1209 0.1058 0.833
-0.1193 0.1056 0.83200002
-0.1178 0.1056 0.83200002
-0.1163 0.1055 0.83099997
-0.1147 0.1054 0.82999998
-0.1132 0.1054 0.82999998
-0.1117 0.1053 0.829
-0.1102 0.1053 0.829
-0.1062 0.1055 0.83099997
-0.1049 0.1056 0.83200002
-0.1034 0.1056 0.83200002
-0.1021 0.1058 0.833
-0.1007 0.1058 0.833
-0.099200003 0.1058 0.833
-0.0977 0.1056 0.83200002
-0.096100003 0.1055 0.83099997
-0.094800003 0.1056 0.83200002
-0.093400002 0.1058 0.833
-0.092 0.1058 0.833
-0.090400003 0.1056 0.83200002
-0.089000002 0.1056 0.83200002
-0.087700002 0.1058 0.833
-0.086099997 0.1056 0.83200002
-0.084600002 0.1055 0.83099997
-0.083099999 0.1055 0.83099997
-0.081799999 0.1056 0.83200002
-0.080300003 0.1056 0.83200002
-0.079000004 0.1058 0.833
-0.077600002 0.1058 0.833
-0.076200001 0.1059 0.83399999
-0.074900001 0.106 0.83499998
-0.073399998 0.106 0.83499998
-0.071999997 0.106 0.83499998
-0.070500001 0.106 0.83499998
-0.0691 0.106 0.83499998
-0.067599997 0.106 0.83499998
-0.066200003 0.1061 0.83600003
-0.064999998 0.1064 0.838
-0.063600004 0.1065 0.83899999
-0.062100001 0.1065 0.83899999
-0.060699999 0.1065 0.83899999
-0.059300002 0.1067 0.83999997
-0.057999998 0.1069 0.84200001
-0.056600001 0.107 0.84299999
-0.055 0.1068 0.84100002
-0.0535 0.1068 0.84100002
-0.052000001 0.1067 0.83999997
-0.0506 0.1067 0.83999997
-0.049199998 0.1068 0.84100002
-0.047800001 0.1069 0.84200001
-0.046300001 0.107 0.84299999
-0.0449 0.1072 0.84399998
-0.0436 0.1074 0.84600002
-0.042800002 0.113 0.88999999
-0.041299999 0.1133 0.89200002
-0.039900001 0.1136 0.89499998
-0.038400002 0.1138 0.89600003
-0.036800001 0.1138 0.89600003
-0.035300002 0.1139 0.89700001
-0.033799998 0.114 0.898
-0.032299999 0.1143 0.89999998
-0.0308 0.1144 0.90100002
-0.029200001 0.1143 0.89999998
-0.0277 0.1144 0.90100002
-0.0261 0.1144 0.90100002
-0.024599999 0.1144 0.90100002
-0.023 0.1143 0.89999998
-0.021400001 0.114 0.898
-0.0198 0.1139 0.89700001
-0.018200001 0.1138 0.89600003
-0.0166 0.1136 0.89499998
-0.0136 0.114 0.898
-0.012 0.1143 0.89999998
-0.0105 0.1144 0.90100002
-0.0089999996 0.1146 0.903
-0.0074 0.1148 0.90399998
-0.0057999999 0.1148 0.90399998
-0.0043000001 0.1149 0.90499997
-0.0027000001 0.1149 0.90499997
-0.0011 0.1148 0.90399998
0.00039999999 0.1148 0.90399998
0.0020000001 0.1148 0.90399998
0.0035999999 0.1148 0.90399998
0.0051000002 0.1146 0.903
0.0066999998 0.1146 0.903
0.0082999999 0.1146 0.903
0.0098000001 0.1146 0.903
0.0114 0.1146 0.903
0.013 0.1146 0.903
0.0145 0.1146 0.903
0.016100001 0.1146 0.903
0.0177 0.1148 0.90399998
0.019300001 0.1149 0.90499997
0.0208 0.1148 0.90399998
0.022399999 0.1148 0.90399998
0.024 0.1149 0.90499997
0.0255 0.1149 0.90499997
0.027100001 0.1149 0.90499997
0.0287 0.1149 0.90499997
0.030200001 0.1149 0.90499997
0.031800002 0.1149 0.90499997
0.033399999 0.115 0.90600002
0.035 0.115 0.90600002
0.036499999 0.1149 0.90499997
0.0381 0.1149 0.90499997
0.0396 0.1148 0.90399998
0.041099999 0.1146 0.903
0.042599998 0.1145 0.90200001
0.044199999 0.1144 0.90100002
0.045699999 0.1143 0.89999998
0.0473 0.1144 0.90100002
0.048900001 0.1146 0.903
0.050500002 0.1146 0.903
0.052099999 0.1148 0.90399998
0.053800002 0.1149 0.90499997
0.055199999 0.1146 0.903
0.056899998 0.1149 0.90499997
0.062899999 0.1144 0.90100002
0.064499997 0.1144 0.90100002
0.066 0.1144 0.90100002
0.067599997 0.1144 0.90100002
0.0691 0.1144 0.90100002
0.070799999 0.1145 0.90200001
0.072400004 0.1146 0.903
0.074000001 0.1146 0.903
0.077500001 0.1153 0.90799999
0.079099998 0.1153 0.90799999
0.080799997 0.1154 0.90899998
0.082400002 0.1154 0.90899998
0.083700001 0.1152 0.90700001
0.085100003 0.1149 0.90499997
0.086599998 0.1148 0.90399998
0.089400001 0.1144 0.90100002
0.090999998 0.1144 0.90100002
0.092500001 0.1143 0.89999998
0.094099998 0.1144 0.90100002
0.095799997 0.1145 0.90200001
0.1051 0.1144 0.90100002
0.1067 0.1145 0.90200001
0.1082 0.1144 0.90100002
0.1097 0.1144 0.90100002
0.1114 0.1145 0.90200001
0.113 0.1145 0.90200001
0.1199 0.1136 0.89499998
0.1213 0.1135 0.89399999
0.123 0.1136 0.89499998
0.1248 0.1139 0.89700001
0.1268 0.1143 0.89999998
0.1288 0.1146 0.903
0.13060001 0.1149 0.90499997
0.13249999 0.1152 0.90700001
0.13420001 0.1153 0.90799999
0.1356 0.1152 0.90700001
0.1373 0.1153 0.90799999
0.1388 0.1152 0.90700001
0.1402 0.115 0.90600002
0.1416 0.1149 0.90499997
0.1428 0.1146 0.903
0.1444 0.1146 0.903
0.14569999 0.1144 0.90100002
0.1471 0.1143 0.89999998
0.14839999 0.1141 0.89899999
0.15000001 0.1141 0.89899999
0.1516 0.1141 0.89899999
0.1533 0.1143 0.89999998
0.1549 0.1143 0.89999998
0.1566 0.1144 0.90100002
0.1583 0.1145 0.90200001
0.1601 0.1146 0.903
0.16159999 0.1146 0.903
0.16339999 0.1148 0.90399998
0.16509999 0.1149 0.90499997
0.1671 0.1152 0.90700001
0.1688 0.1153 0.90799999
0.17039999 0.1153 0.90799999
0.1723 0.1155 0.91000003
0.17389999 0.1155 0.91000003
0.1796 0.1152 0.90700001
0.18080001 0.1149 0.90499997
0.1824 0.1149 0.90499997
0.1839 0.1149 0.90499997
0.1855 0.1149 0.90499997
-0.41600001 0.1145 0.88999999
-0.3281 0.1145 0.88999999
-0.32659999 0.1145 0.88999999
-0.32499999 0.1145 0.88999999
-0.3231 0.1144 0.889
-0.3197 0.1143 0.88800001
-0.31810001 0.1143 0.88800001
-0.317 0.1144 0.889
-0.3161 0.1147 0.89099997
-0.31459999 0.1147 0.89099997
-0.3141 0.1151 0.89399999
-0.31400001 0.1156 0.898
-0.31189999 0.116 0.90100002
-0.3062 0.1156 0.898
-0.30360001 0.1152 0.89499998
-0.30140001 0.1149 0.89300001
-0.29910001 0.1147 0.89099997
-0.2976 0.1147 0.89099997
-0.2942 0.1145 0.88999999
-0.29139999 0.1147 0.89099997
-0.28830001 0.1147 0.89099997
-0.2868 0.1147 0.89099997
-0.28529999 0.1147 0.89099997
-0.28369999 0.1147 0.89099997
-0.28220001 0.1147 0.89099997
-0.28060001 0.1147 0.89099997
-0.2791 0.1147 0.89099997
-0.2775 0.1147 0.89099997
-0.27599999 0.1147 0.89099997
-0.27410001 0.1145 0.88999999
-0.27200001 0.1143 0.88800001
-0.2701 0.1142 0.88700002
-0.2683 0.114 0.88599998
-0.2649 0.1139 0.88499999
-0.26339999 0.1139 0.88499999
-0.26089999 0.1142 0.88700002
-0.25999999 0.1144 0.889
-0.259 0.1147 0.89099997
-0.2586 0.1152 0.89499998
-0.25639999 0.1156 0.898
-0.2518 0.1149 0.89300001
-0.24969999 0.1147 0.89099997
-0.2455 0.1142 0.88700002
-0.244 0.1142 0.88700002
-0.24250001 0.1142 0.88700002
-0.24089999 0.1142 0.88700002
-0.2394 0.1142 0.88700002
-0.2379 0.1142 0.88700002
-0.236 0.114 0.88599998
-0.2342 0.1139 0.88499999
-0.23190001 0.1135 0.88200003
-0.21160001 0.1078 0.838
-0.2089 0.1072 0.833
-0.2067 0.1068 0.82999998
-0.1972 0.1063 0.82599998
-0.19599999 0.1064 0.82700002
-0.19499999 0.1067 0.829
-0.1936 0.1067 0.829
-0.19239999 0.1068 0.82999998
-0.1912 0.1069 0.83099997
-0.1899 0.1071 0.83200002
-0.1885 0.1071 0.83200002
-0.18709999 0.1071 0.83200002
-0.1856 0.1071 0.83200002
-0.1842 0.1071 0.83200002
