ply
format ascii 1.0
comment PCL generated
element vertex 1597
property float x
property float y
property float z
element camera 0
property float view_px
property float view_py
property float view_pz
property float x_axisx
property float x_axisy
property float x_axisz
property float y_axisx
property float y_axisy
property float y_axisz
property float z_axisx
property float z_axisy
property float z_axisz
property float focal
property float scalex
property float scaley
property float centerx
property float centery
property int viewportx
property int viewporty
property float k1
property float k2
end_header
-0.2218 0.31029999 0.903
-0.2173 0.31060001 0.90399998
-0.2149 0.3116 0.90700001
-0.212 0.31200001 0.90799999
-0.2104 0.31200001 0.90799999
-0.2053 0.31130001 0.90600002
-0.2032 0.31060001 0.90399998
-0.20119999 0.30989999 0.90200001
-0.19939999 0.3096 0.90100002
-0.19769999 0.30919999 0.89999998
-0.1961 0.30919999 0.89999998
-0.19159999 0.3096 0.90100002
-0.1901 0.3096 0.90100002
-0.1885 0.3096 0.90100002
-0.1874 0.31029999 0.903
-0.186 0.31060001 0.90399998
-0.1846 0.31099999 0.90499997
-0.17209999 0.31099999 0.90499997
-0.1707 0.31130001 0.90600002
-0.1691 0.31130001 0.90600002
-0.16779999 0.3116 0.90700001
-0.1662 0.3116 0.90700001
-0.1644 0.31130001 0.90600002
-0.1564 0.31099999 0.90499997
-0.1533 0.31099999 0.90499997
-0.152 0.3116 0.90700001
-0.14749999 0.31200001 0.90799999
-0.14579999 0.3116 0.90700001
-0.14040001 0.31029999 0.903
-0.13869999 0.30989999 0.90200001
-0.13699999 0.3096 0.90100002
-0.1354 0.3096 0.90100002
-0.1339 0.3096 0.90100002
-0.1322 0.30919999 0.89999998
-0.13070001 0.3096 0.90100002
-0.1292 0.3096 0.90100002
-0.1232 0.31029999 0.903
-0.1218 0.31060001 0.90399998
-0.1202 0.31060001 0.90399998
-0.1189 0.31130001 0.90600002
-0.1172 0.31099999 0.90499997
-0.1156 0.31099999 0.90499997
-0.1141 0.31099999 0.90499997
-0.1124 0.31060001 0.90399998
-0.1108 0.31060001 0.90399998
-0.1078 0.31099999 0.90499997
-0.1062 0.31099999 0.90499997
-0.1047 0.31099999 0.90499997
-0.1031 0.31099999 0.90499997
-0.1015 0.31099999 0.90499997
-0.0999 0.31099999 0.90499997
-0.098399997 0.31099999 0.90499997
-0.096799999 0.31099999 0.90499997
-0.095200002 0.31099999 0.90499997
-0.093699999 0.31099999 0.90499997
-0.092100002 0.31099999 0.90499997
-0.090499997 0.31099999 0.90499997
-0.087499999 0.31130001 0.90600002
-0.071699999 0.31099999 0.90499997
-0.070100002 0.31060001 0.90399998
-0.068499997 0.31060001 0.90399998
-0.0669 0.31060001 0.90399998
-0.062100001 0.30989999 0.90200001
-0.059 0.31029999 0.903
-0.057500001 0.31029999 0.903
-0.0559 0.31029999 0.903
-0.049699999 0.31060001 0.90399998
-0.046599999 0.31060001 0.90399998
-0.0451 0.31099999 0.90499997
-0.043499999 0.31099999 0.90499997
-0.041900001 0.31099999 0.90499997
-0.032600001 0.3116 0.90700001
-0.030999999 0.3116 0.90700001
-0.0294 0.31130001 0.90600002
-0.027899999 0.3116 0.90700001
-0.0263 0.3116 0.90700001
-0.024700001 0.3116 0.90700001
-0.0232 0.31200001 0.90799999
-0.021600001 0.31200001 0.90799999
-0.02 0.31200001 0.90799999
-0.0184 0.3116 0.90700001
-0.016899999 0.3116 0.90700001
-0.0121 0.31060001 0.90399998
-0.0105 0.31099999 0.90499997
-0.0089999996 0.31029999 0.903
-0.0074 0.31029999 0.903
-0.0057999999 0.31060001 0.90399998
0.033399999 0.3116 0.90700001
0.035100002 0.31200001 0.90799999
0.036699999 0.3127 0.91000003
0.038400002 0.3134 0.912
0.039999999 0.31369999 0.91299999
0.041700002 0.31439999 0.91500002
0.043299999 0.31470001 0.91600001
0.044799998 0.3141 0.91399997
0.047800001 0.3127 0.91000003
0.049199998 0.31200001 0.90799999
0.050700001 0.3116 0.90700001
0.052299999 0.3116 0.90700001
0.053800002 0.31130001 0.90600002
0.055300001 0.31099999 0.90499997
0.057 0.3116 0.90700001
0.058699999 0.31200001 0.90799999
0.061900001 0.3127 0.91000003
0.065300003 0.31369999 0.91299999
0.068400003 0.3134 0.912
0.071400002 0.3127 0.91000003
0.0744 0.31200001 0.90799999
0.075999998 0.31200001 0.90799999
0.077500001 0.31200001 0.90799999
0.0792 0.3123 0.90899998
0.080899999 0.3127 0.91000003
0.082400002 0.3127 0.91000003
0.083999999 0.3127 0.91000003
0.085699998 0.31299999 0.91100001
0.087399997 0.3134 0.912
0.089000002 0.31369999 0.91299999
0.090700001 0.3141 0.91399997
0.092200004 0.31369999 0.91299999
0.093699999 0.3134 0.912
0.095299996 0.3134 0.912
0.096600004 0.3127 0.91000003
0.097999997 0.31200001 0.90799999
0.0995 0.3116 0.90700001
0.101 0.3116 0.90700001
0.1058 0.3116 0.90700001
0.1166 0.31130001 0.90600002
0.1183 0.3116 0.90700001
0.12 0.31200001 0.90799999
0.1216 0.31200001 0.90799999
0.1232 0.31200001 0.90799999
0.125 0.3127 0.91000003
0.1266 0.3127 0.91000003
0.12819999 0.3127 0.91000003
0.1296 0.3123 0.90899998
0.1312 0.3123 0.90899998
0.1329 0.3127 0.91000003
0.1346 0.31299999 0.91100001
0.1364 0.3134 0.912
0.138 0.3134 0.912
0.13950001 0.3134 0.912
0.1424 0.3127 0.91000003
0.1534 0.3127 0.91000003
0.1566 0.3127 0.91000003
0.15800001 0.3123 0.90899998
0.1594 0.31200001 0.90799999
0.1608 0.3116 0.90700001
0.16249999 0.31200001 0.90799999
0.1639 0.3116 0.90700001
-0.4226 0.31220001 0.90399998
-0.4206 0.3118 0.903
-0.3524 0.30840001 0.89300001
-0.35089999 0.30840001 0.89300001
-0.3486 0.30770001 0.89099997
-0.347 0.30770001 0.89099997
-0.34630001 0.30840001 0.89300001
-0.3443 0.308 0.89200002
-0.3378 0.30770001 0.89099997
-0.31220001 0.31150001 0.90200001
-0.30939999 0.3118 0.903
-0.30700001 0.3125 0.90499997
-0.30289999 0.3132 0.90700001
-0.2518 0.31220001 0.90399998
-0.25 0.3118 0.903
-0.23119999 0.3118 0.903
-0.23010001 0.3125 0.90499997
-0.2286 0.3125 0.90499997
-0.2236 0.31220001 0.90399998
-0.22050001 0.31220001 0.90399998
-0.2149 0.3132 0.90700001
-0.21359999 0.3136 0.90799999
-0.2104 0.3136 0.90799999
-0.20909999 0.31389999 0.90899998
-0.20299999 0.3118 0.903
-0.20119999 0.31150001 0.90200001
-0.19939999 0.31110001 0.90100002
-0.19769999 0.31079999 0.89999998
-0.19159999 0.31110001 0.90100002
-0.1901 0.31110001 0.90100002
-0.18870001 0.31150001 0.90200001
-0.1874 0.3118 0.903
-0.186 0.31220001 0.90399998
-0.1846 0.3125 0.90499997
-0.1833 0.31290001 0.90600002
-0.1737 0.3125 0.90499997
-0.17209999 0.3125 0.90499997
-0.1705 0.3125 0.90499997
-0.169 0.3125 0.90499997
-0.16760001 0.31290001 0.90600002
-0.16599999 0.31290001 0.90600002
-0.16429999 0.3125 0.90499997
-0.1564 0.3125 0.90499997
-0.15360001 0.3132 0.90700001
-0.14910001 0.3136 0.90799999
-0.14749999 0.3136 0.90799999
-0.14229999 0.3125 0.90499997
-0.1406 0.31220001 0.90399998
-0.1389 0.3118 0.903
-0.13699999 0.31110001 0.90100002
-0.1354 0.31110001 0.90100002
-0.1337 0.31079999 0.89999998
-0.1322 0.31079999 0.89999998
-0.13070001 0.31110001 0.90100002
-0.12899999 0.31079999 0.89999998
-0.1219 0.3125 0.90499997
-0.1203 0.3125 0.90499997
-0.1192 0.3136 0.90799999
-0.1175 0.3132 0.90700001
-0.1156 0.3125 0.90499997
-0.1141 0.3125 0.90499997
-0.1122 0.3118 0.903
-0.1092 0.31220001 0.90399998
-0.1077 0.31220001 0.90399998
-0.1047 0.3125 0.90499997
-0.1031 0.3125 0.90499997
-0.098499998 0.31290001 0.90600002
-0.096799999 0.3125 0.90499997
-0.095200002 0.3125 0.90499997
-0.093699999 0.3125 0.90499997
-0.086000003 0.3132 0.90700001
-0.0832 0.3143 0.91000003
-0.073299997 0.3125 0.90499997
-0.071699999 0.3125 0.90499997
-0.068599999 0.3125 0.90499997
-0.0669 0.31220001 0.90399998
-0.065300003 0.3118 0.903
-0.063699998 0.31150001 0.90200001
-0.062100001 0.31150001 0.90200001
-0.059 0.3118 0.903
-0.057500001 0.3118 0.903
-0.0513 0.3125 0.90499997
-0.049800001 0.31290001 0.90600002
-0.0482 0.3125 0.90499997
-0.046599999 0.3125 0.90499997
-0.0451 0.3125 0.90499997
-0.043499999 0.3125 0.90499997
-0.041999999 0.31290001 0.90600002
-0.040399998 0.3132 0.90700001
-0.0341 0.3132 0.90700001
-0.032499999 0.31290001 0.90600002
-0.030999999 0.31290001 0.90600002
-0.0294 0.3132 0.90700001
-0.027899999 0.3132 0.90700001
-0.0263 0.3136 0.90799999
-0.024700001 0.3136 0.90799999
-0.0232 0.31389999 0.90899998
-0.021600001 0.31389999 0.90899998
-0.02 0.3136 0.90799999
-0.0184 0.3132 0.90700001
-0.016899999 0.3132 0.90700001
-0.0137 0.3125 0.90499997
-0.0121 0.3125 0.90499997
-0.0105 0.3125 0.90499997
-0.0089999996 0.31220001 0.90399998
-0.0074 0.3118 0.903
-0.0057999999 0.3125 0.90499997
0.033399999 0.3132 0.90700001
0.035100002 0.3136 0.90799999
0.036800001 0.31490001 0.912
0.038400002 0.31529999 0.91299999
0.040100001 0.31600001 0.91500002
0.041700002 0.3163 0.91600001
0.0449 0.31670001 0.917
0.0493 0.3143 0.91000003
0.050700001 0.3132 0.90700001
0.052299999 0.3132 0.90700001
0.0539 0.3132 0.90700001
0.055500001 0.3132 0.90700001
0.057100002 0.3136 0.90799999
0.058699999 0.3136 0.90799999
0.060199998 0.3136 0.90799999
0.061900001 0.3143 0.91000003
0.063500002 0.3143 0.91000003
0.066799998 0.31490001 0.912
0.069799997 0.31389999 0.90899998
0.072899997 0.31389999 0.90899998
0.074500002 0.31389999 0.90899998
0.075999998 0.3136 0.90799999
0.077500001 0.3136 0.90799999
0.0792 0.31389999 0.90899998
0.080799997 0.31389999 0.90899998
0.082400002 0.31389999 0.90899998
0.083899997 0.31389999 0.90899998
0.087200001 0.3143 0.91000003
0.0889 0.31459999 0.91100001
0.090400003 0.31459999 0.91100001
0.091899998 0.3143 0.91000003
0.093599997 0.31459999 0.91100001
0.0995 0.3132 0.90700001
0.1043 0.3136 0.90799999
0.1058 0.3132 0.90700001
0.1168 0.3132 0.90700001
0.1185 0.3136 0.90799999
0.1202 0.31389999 0.90899998
0.1216 0.3136 0.90799999
0.1235 0.3143 0.91000003
0.1252 0.31459999 0.91100001
0.1266 0.3143 0.91000003
0.12819999 0.3143 0.91000003
0.12980001 0.3143 0.91000003
0.1313 0.3143 0.91000003
0.1329 0.3143 0.91000003
0.1348 0.31490001 0.912
0.1364 0.31490001 0.912
0.1381 0.31529999 0.91299999
0.1397 0.31529999 0.91299999
0.1411 0.31490001 0.912
0.14399999 0.3143 0.91000003
0.15800001 0.31389999 0.90899998
0.1592 0.3132 0.90700001
0.1608 0.3132 0.90700001
0.1622 0.31290001 0.90600002
0.1636 0.3125 0.90499997
-0.42230001 0.30790001 0.88700002
-0.42309999 0.3141 0.90499997
-0.38460001 0.30720001 0.88499999
-0.3513 0.3089 0.88999999
-0.34819999 0.3089 0.88999999
-0.3466 0.3089 0.88999999
-0.34549999 0.30919999 0.89099997
-0.3439 0.30919999 0.89099997
-0.34240001 0.30919999 0.89099997
-0.33849999 0.30989999 0.89300001
-0.33109999 0.31169999 0.898
-0.32690001 0.31060001 0.89499998
-0.32460001 0.30989999 0.89300001
-0.31220001 0.31310001 0.90200001
-0.31099999 0.3134 0.903
-0.30790001 0.3134 0.903
-0.30700001 0.3141 0.90499997
-0.30140001 0.31479999 0.90700001
-0.25279999 0.31310001 0.90200001
-0.24959999 0.31099999 0.89600003
-0.24860001 0.31169999 0.898
-0.2351 0.31240001 0.89999998
-0.2322 0.3127 0.90100002
-0.227 0.3141 0.90499997
-0.2254 0.3141 0.90499997
-0.2202 0.3134 0.903
-0.2189 0.31380001 0.90399998
-0.2176 0.3141 0.90499997
-0.2147 0.31439999 0.90600002
-0.21359999 0.31510001 0.90799999
-0.20909999 0.31549999 0.90899998
-0.19769999 0.31240001 0.89999998
-0.1901 0.3127 0.90100002
-0.18870001 0.31310001 0.90200001
-0.1874 0.3134 0.903
-0.18619999 0.3141 0.90499997
-0.1752 0.3141 0.90499997
-0.17209999 0.3141 0.90499997
-0.1705 0.3141 0.90499997
-0.169 0.3141 0.90499997
-0.1674 0.3141 0.90499997
-0.16580001 0.3141 0.90499997
-0.16429999 0.3141 0.90499997
-0.1627 0.3141 0.90499997
-0.1564 0.3141 0.90499997
-0.1489 0.31479999 0.90700001
-0.1473 0.31479999 0.90700001
-0.14560001 0.31439999 0.90600002
-0.14399999 0.31439999 0.90600002
-0.14229999 0.3141 0.90499997
-0.1406 0.31380001 0.90399998
-0.1373 0.3134 0.903
-0.1354 0.3127 0.90100002
-0.1339 0.3127 0.90100002
-0.1322 0.31240001 0.89999998
-0.13060001 0.31240001 0.89999998
-0.1292 0.3127 0.90100002
-0.1276 0.3127 0.90100002
-0.1248 0.3134 0.903
-0.1222 0.31479999 0.90700001
-0.1209 0.31549999 0.90899998
-0.1197 0.31650001 0.912
-0.1159 0.31479999 0.90700001
-0.1124 0.31380001 0.90399998
-0.1107 0.3134 0.903
-0.1076 0.3134 0.903
-0.1045 0.31380001 0.90399998
-0.1031 0.3141 0.90499997
-0.1015 0.3141 0.90499997
-0.098499998 0.31439999 0.90600002
-0.096799999 0.3141 0.90499997
-0.095200002 0.3141 0.90499997
-0.093699999 0.3141 0.90499997
-0.089100003 0.31439999 0.90600002
-0.0858 0.3141 0.90499997
-0.082999997 0.31510001 0.90799999
-0.079700001 0.31479999 0.90700001
-0.075099997 0.31510001 0.90799999
-0.071800001 0.31439999 0.90600002
-0.0669 0.31380001 0.90399998
-0.063699998 0.31310001 0.90200001
-0.062100001 0.31310001 0.90200001
-0.0605 0.31310001 0.90200001
-0.059 0.3134 0.903
-0.0559 0.3134 0.903
-0.049899999 0.31479999 0.90700001
-0.0482 0.31439999 0.90600002
-0.046700001 0.31439999 0.90600002
-0.045200001 0.31479999 0.90700001
-0.043499999 0.31439999 0.90600002
-0.041999999 0.31439999 0.90600002
-0.040399998 0.31479999 0.90700001
-0.038899999 0.31479999 0.90700001
-0.035700001 0.31439999 0.90600002
-0.0341 0.3141 0.90499997
-0.032499999 0.3141 0.90499997
-0.0309 0.3141 0.90499997
-0.0294 0.3141 0.90499997
-0.027899999 0.31479999 0.90700001
-0.0263 0.31510001 0.90799999
-0.024800001 0.31549999 0.90899998
-0.0232 0.31580001 0.91000003
-0.021600001 0.31580001 0.91000003
-0.02 0.31549999 0.90899998
-0.0184 0.31510001 0.90799999
-0.016899999 0.31479999 0.90700001
-0.0153 0.31479999 0.90700001
-0.0137 0.3141 0.90499997
-0.0121 0.3141 0.90499997
-0.0105 0.3141 0.90499997
-0.0089999996 0.3141 0.90499997
-0.0074 0.3141 0.90499997
0.035100002 0.31580001 0.91000003
0.036800001 0.31690001 0.91299999
0.0385 0.31720001 0.91399997
0.040100001 0.31760001 0.91500002
0.041700002 0.3179 0.91600001
0.043400001 0.31830001 0.917
0.0449 0.31830001 0.917
0.048 0.31760001 0.91500002
0.049400002 0.31650001 0.912
0.050799999 0.31510001 0.90799999
0.052299999 0.31479999 0.90700001
0.0539 0.31479999 0.90700001
0.055500001 0.31479999 0.90700001
0.057 0.31479999 0.90700001
0.058699999 0.31510001 0.90799999
0.061900001 0.31580001 0.91000003
0.063600004 0.31619999 0.91100001
0.069799997 0.31580001 0.91000003
0.072899997 0.31549999 0.90899998
0.074500002 0.31549999 0.90899998
0.076099999 0.31549999 0.90899998
0.077699997 0.31580001 0.91000003
0.079300001 0.31580001 0.91000003
0.080899999 0.31580001 0.91000003
0.082400002 0.31580001 0.91000003
0.083899997 0.31549999 0.90899998
0.085500002 0.31549999 0.90899998
0.087200001 0.31580001 0.91000003
0.090300001 0.31580001 0.91000003
0.091899998 0.31580001 0.91000003
0.093500003 0.31580001 0.91000003
0.095200002 0.31619999 0.91100001
0.096600004 0.31580001 0.91000003
0.099600002 0.31510001 0.90799999
0.1043 0.31510001 0.90799999
0.1058 0.31479999 0.90700001
0.1135 0.31439999 0.90600002
0.1168 0.31479999 0.90700001
0.1203 0.31580001 0.91000003
0.1219 0.31580001 0.91000003
0.1235 0.31580001 0.91000003
0.12530001 0.31650001 0.912
0.1267 0.31619999 0.91100001
0.1283 0.31619999 0.91100001
0.12980001 0.31580001 0.91000003
0.1313 0.31580001 0.91000003
0.1331 0.31619999 0.91100001
0.1348 0.31650001 0.912
0.1364 0.31650001 0.912
0.138 0.31650001 0.912
0.13940001 0.31619999 0.91100001
0.1487 0.31580001 0.91000003
0.1503 0.31580001 0.91000003
0.15800001 0.31549999 0.90899998
0.1592 0.31479999 0.90700001
0.1608 0.31479999 0.90700001
0.1636 0.3141 0.90499997
-0.42129999 0.3132 0.898
-0.42120001 0.3143 0.90100002
-0.4201 0.31459999 0.90200001
-0.38350001 0.30899999 0.88599998
-0.38240001 0.30939999 0.88700002
-0.35170001 0.31079999 0.89099997
-0.34819999 0.31040001 0.88999999
-0.3466 0.31040001 0.88999999
-0.34549999 0.31079999 0.89099997
-0.3443 0.31110001 0.89200002
-0.34279999 0.31110001 0.89200002
-0.33309999 0.31220001 0.89499998
-0.33230001 0.31290001 0.89700001
-0.33180001 0.31389999 0.89999998
-0.32949999 0.3132 0.898
-0.3272 0.3125 0.89600003
-0.32530001 0.31220001 0.89499998
-0.3238 0.31220001 0.89499998
-0.3215 0.31150001 0.89300001
-0.3134 0.3143 0.90100002
-0.3091 0.31459999 0.90200001
-0.30790001 0.315 0.903
-0.30700001 0.31569999 0.90499997
-0.3026 0.31600001 0.90600002
-0.2493 0.31220001 0.89499998
-0.2489 0.3136 0.89899999
-0.2403 0.31459999 0.90200001
-0.2385 0.3143 0.90100002
-0.2351 0.31389999 0.89999998
-0.2281 0.315 0.903
-0.2265 0.315 0.903
-0.22490001 0.315 0.903
-0.2236 0.31529999 0.90399998
-0.2218 0.315 0.903
-0.2192 0.31569999 0.90499997
-0.2176 0.31569999 0.90499997
-0.2165 0.31639999 0.90700001
-0.2149 0.31639999 0.90700001
-0.21359999 0.31670001 0.90799999
-0.2077 0.31740001 0.91000003
-0.2053 0.31600001 0.90600002
-0.2035 0.31569999 0.90499997
-0.1997 0.31459999 0.90200001
-0.1979 0.3143 0.90100002
-0.19410001 0.3132 0.898
-0.19140001 0.31389999 0.89999998
-0.1899 0.31389999 0.89999998
-0.1885 0.3143 0.90100002
-0.18719999 0.31459999 0.90200001
-0.1858 0.315 0.903
-0.1846 0.31569999 0.90499997
-0.17479999 0.315 0.903
-0.1733 0.315 0.903
-0.1717 0.315 0.903
-0.17020001 0.315 0.903
-0.16859999 0.315 0.903
-0.167 0.315 0.903
-0.1655 0.315 0.903
-0.16249999 0.31529999 0.90399998
-0.1582 0.31600001 0.90600002
-0.1552 0.31639999 0.90700001
-0.15360001 0.31639999 0.90700001
-0.152 0.31639999 0.90700001
-0.1505 0.31639999 0.90700001
-0.1373 0.315 0.903
-0.1354 0.3143 0.90100002
-0.1339 0.3143 0.90100002
-0.1323 0.3143 0.90100002
-0.13070001 0.3143 0.90100002
-0.1292 0.3143 0.90100002
-0.1276 0.3143 0.90100002
-0.1249 0.31529999 0.90399998
-0.1223 0.31670001 0.90799999
-0.121 0.31740001 0.91000003
-0.1197 0.31810001 0.912
-0.1178 0.31740001 0.91000003
-0.116 0.31670001 0.90799999
-0.1141 0.31569999 0.90499997
-0.1124 0.31529999 0.90399998
-0.1107 0.315 0.903
-0.109 0.31459999 0.90200001
-0.1074 0.31459999 0.90200001
-0.106 0.315 0.903
-0.1045 0.31529999 0.90399998
-0.1031 0.31569999 0.90499997
-0.1001 0.31600001 0.90600002
-0.0986 0.31639999 0.90700001
-0.097000003 0.31639999 0.90700001
-0.095200002 0.31569999 0.90499997
-0.092100002 0.31569999 0.90499997
-0.089000002 0.31569999 0.90499997
-0.087399997 0.31569999 0.90499997
-0.085699998 0.31529999 0.90399998
-0.081200004 0.31600001 0.90600002
-0.079599999 0.31600001 0.90600002
-0.071900003 0.31639999 0.90700001
-0.063699998 0.315 0.903
-0.062100001 0.31459999 0.90200001
-0.059 0.315 0.903
-0.049899999 0.31639999 0.90700001
-0.0482 0.31600001 0.90600002
-0.046700001 0.31600001 0.90600002
-0.045200001 0.31639999 0.90700001
-0.043499999 0.31600001 0.90600002
-0.041999999 0.31600001 0.90600002
-0.040399998 0.31639999 0.90700001
-0.037300002 0.31639999 0.90700001
-0.0341 0.31569999 0.90499997
-0.032499999 0.31569999 0.90499997
-0.0309 0.31569999 0.90499997
-0.0294 0.31569999 0.90499997
-0.027799999 0.31600001 0.90600002
-0.0263 0.31639999 0.90700001
-0.024700001 0.31670001 0.90799999
-0.0232 0.31709999 0.90899998
-0.021600001 0.31740001 0.91000003
-0.02 0.31709999 0.90899998
-0.0184 0.31670001 0.90799999
-0.016899999 0.31639999 0.90700001
-0.0153 0.31639999 0.90700001
-0.0137 0.31569999 0.90499997
-0.0121 0.31569999 0.90499997
-0.0105 0.31569999 0.90499997
-0.0089999996 0.31569999 0.90499997
-0.0074 0.31600001 0.90600002
0.0352 0.31779999 0.91100001
0.036800001 0.31850001 0.91299999
0.0385 0.3188 0.91399997
0.040100001 0.3195 0.91600001
0.041700002 0.3195 0.91600001
0.043400001 0.31990001 0.917
0.045000002 0.3202 0.91799998
0.048099998 0.3195 0.91600001
0.050900001 0.31740001 0.91000003
0.0524 0.31709999 0.90899998
0.0539 0.31670001 0.90799999
0.055500001 0.31670001 0.90799999
0.057100002 0.31670001 0.90799999
0.058699999 0.31709999 0.90899998
0.060400002 0.31740001 0.91000003
0.065200001 0.31810001 0.912
0.068300001 0.31779999 0.91100001
0.069799997 0.31740001 0.91000003
0.071400002 0.31740001 0.91000003
0.074600004 0.31740001 0.91000003
0.076099999 0.31740001 0.91000003
0.077699997 0.31740001 0.91000003
0.079300001 0.31740001 0.91000003
0.080899999 0.31740001 0.91000003
0.082400002 0.31740001 0.91000003
0.083899997 0.31709999 0.90899998
0.085500002 0.31709999 0.90899998
0.087099999 0.31709999 0.90899998
0.088699996 0.31709999 0.90899998
0.090300001 0.31740001 0.91000003
0.091799997 0.31709999 0.90899998
0.093500003 0.31740001 0.91000003
0.095100001 0.31740001 0.91000003
0.097999997 0.31670001 0.90799999
0.1042 0.31639999 0.90700001
0.112 0.31639999 0.90700001
0.1136 0.31639999 0.90700001
0.1169 0.31670001 0.90799999
0.1187 0.31740001 0.91000003
0.1206 0.31810001 0.912
0.1221 0.31810001 0.912
0.1237 0.31810001 0.912
0.12540001 0.31850001 0.91299999
0.1269 0.31810001 0.912
0.1285 0.31810001 0.912
0.12989999 0.31779999 0.91100001
0.1313 0.31740001 0.91000003
0.1331 0.31779999 0.91100001
0.1348 0.31810001 0.912
0.1364 0.31810001 0.912
0.138 0.31810001 0.912
0.13950001 0.31810001 0.912
0.1411 0.31810001 0.912
0.1425 0.31779999 0.91100001
0.1506 0.31810001 0.912
0.1541 0.3188 0.91399997
0.1569 0.31810001 0.912
0.1582 0.31740001 0.91000003
0.1594 0.31670001 0.90799999
0.1608 0.31639999 0.90700001
0.1622 0.31600001 0.90600002
0.1636 0.31569999 0.90499997
-0.3854 0.30849999 0.88
-0.38440001 0.30880001 0.88099998
-0.38299999 0.31020001 0.88499999
-0.3712 0.31580001 0.90100002
-0.35010001 0.3123 0.89099997
-0.34819999 0.31200001 0.88999999
-0.3466 0.31200001 0.88999999
-0.3443 0.3127 0.89200002
-0.34240001 0.3123 0.89099997
-0.33340001 0.3141 0.89600003
-0.333 0.31510001 0.89899999
-0.33219999 0.31580001 0.90100002
-0.33019999 0.31549999 0.89999998
-0.3276 0.31439999 0.89700001
-0.32570001 0.3141 0.89600003
-0.32409999 0.3141 0.89600003
-0.3222 0.31369999 0.89499998
-0.31240001 0.31479999 0.898
-0.31 0.31549999 0.89999998
-0.30880001 0.31580001 0.90100002
-0.30379999 0.31720001 0.90499997
-0.3026 0.31760001 0.90600002
-0.29789999 0.31760001 0.90600002
-0.25170001 0.31479999 0.898
-0.2437 0.31650001 0.903
-0.2421 0.31650001 0.903
-0.2406 0.31650001 0.903
-0.2385 0.31580001 0.90100002
-0.2369 0.31580001 0.90100002
-0.2351 0.31549999 0.89999998
-0.2335 0.31549999 0.89999998
-0.2291 0.31580001 0.90100002
-0.22830001 0.31690001 0.90399998
-0.227 0.31720001 0.90499997
-0.2254 0.31720001 0.90499997
-0.22390001 0.31720001 0.90499997
-0.22229999 0.31720001 0.90499997
-0.221 0.31760001 0.90600002
-0.21960001 0.3179 0.90700001
-0.21780001 0.31760001 0.90600002
-0.2165 0.3179 0.90700001
-0.21520001 0.31830001 0.90799999
-0.21359999 0.31830001 0.90799999
-0.2089 0.31830001 0.90799999
-0.205 0.31720001 0.90499997
-0.1979 0.31580001 0.90100002
-0.191 0.31479999 0.898
-0.18970001 0.31510001 0.89899999
-0.1883 0.31549999 0.89999998
-0.18700001 0.31580001 0.90100002
-0.1856 0.31619999 0.90200001
-0.1842 0.31650001 0.903
-0.18269999 0.31650001 0.903
-0.1811 0.31650001 0.903
-0.17640001 0.31650001 0.903
-0.17479999 0.31650001 0.903
-0.1733 0.31650001 0.903
-0.1717 0.31650001 0.903
-0.17020001 0.31650001 0.903
-0.16859999 0.31650001 0.903
-0.16249999 0.31690001 0.90399998
-0.1609 0.31690001 0.90399998
-0.14390001 0.31720001 0.90499997
-0.1373 0.31650001 0.903
-0.1356 0.31619999 0.90200001
-0.1323 0.31580001 0.90100002
-0.13070001 0.31580001 0.90100002
-0.1292 0.31580001 0.90100002
-0.1278 0.31619999 0.90200001
-0.1248 0.31650001 0.903
-0.1235 0.31720001 0.90499997
-0.1222 0.3179 0.90700001
-0.1207 0.31830001 0.90799999
-0.1193 0.3186 0.90899998
-0.1156 0.31720001 0.90499997
-0.1139 0.31690001 0.90399998
-0.1104 0.31580001 0.90100002
-0.1089 0.31580001 0.90100002
-0.1073 0.31580001 0.90100002
-0.1059 0.31619999 0.90200001
-0.1044 0.31650001 0.903
-0.1031 0.31720001 0.90499997
-0.1015 0.31720001 0.90499997
-0.1001 0.31760001 0.90600002
-0.0986 0.3179 0.90700001
-0.096900001 0.31760001 0.90600002
-0.095200002 0.31720001 0.90499997
-0.093699999 0.31720001 0.90499997
-0.092 0.31690001 0.90399998
-0.090400003 0.31690001 0.90399998
-0.087300003 0.31690001 0.90399998
-0.085699998 0.31690001 0.90399998
-0.082699999 0.31720001 0.90499997
-0.081100002 0.31720001 0.90499997
-0.079599999 0.31720001 0.90499997
-0.078000002 0.31720001 0.90499997
-0.076399997 0.31720001 0.90499997
-0.073399998 0.3179 0.90700001
-0.071900003 0.3179 0.90700001
-0.068700001 0.3179 0.90700001
-0.067100003 0.31760001 0.90600002
-0.065399997 0.31720001 0.90499997
-0.0638 0.31690001 0.90399998
-0.059099998 0.31690001 0.90399998
-0.0546 0.3179 0.90700001
-0.0482 0.31760001 0.90600002
-0.046599999 0.31720001 0.90499997
-0.043499999 0.31760001 0.90600002
-0.041999999 0.31760001 0.90600002
-0.040399998 0.3179 0.90700001
-0.0372 0.31760001 0.90600002
-0.034000002 0.31690001 0.90399998
-0.032499999 0.31690001 0.90399998
-0.0309 0.31690001 0.90399998
-0.0294 0.31720001 0.90499997
-0.027799999 0.31760001 0.90600002
-0.0263 0.3179 0.90700001
-0.024700001 0.31830001 0.90799999
-0.0232 0.3186 0.90899998
-0.021600001 0.3186 0.90899998
-0.02 0.3186 0.90899998
-0.0184 0.31830001 0.90799999
-0.016899999 0.3179 0.90700001
-0.0137 0.31760001 0.90600002
-0.0121 0.31720001 0.90499997
-0.0105 0.31720001 0.90499997
-0.0089999996 0.31720001 0.90499997
-0.0074 0.3179 0.90700001
0.035100002 0.31900001 0.91000003
0.036800001 0.3197 0.912
0.0385 0.3204 0.91399997
0.039999999 0.3204 0.91399997
0.041700002 0.32069999 0.91500002
0.043299999 0.3211 0.91600001
0.046500001 0.3211 0.91600001
0.048 0.32069999 0.91500002
0.050900001 0.31900001 0.91000003
0.0524 0.3186 0.90899998
0.055500001 0.31830001 0.90799999
0.058699999 0.3186 0.90899998
0.060400002 0.31900001 0.91000003
0.063699998 0.3197 0.912
0.065200001 0.3197 0.912
0.066799998 0.3197 0.912
0.068300001 0.31900001 0.91000003
0.069799997 0.3186 0.90899998
0.0713 0.31830001 0.90799999
0.072999999 0.31900001 0.91000003
0.0744 0.31830001 0.90799999
0.077699997 0.31900001 0.91000003
0.079300001 0.31900001 0.91000003
0.080899999 0.31900001 0.91000003
0.082400002 0.31900001 0.91000003
0.085600004 0.31900001 0.91000003
0.087099999 0.3186 0.90899998
0.088699996 0.3186 0.90899998
0.0902 0.3186 0.90899998
0.091700003 0.31830001 0.90799999
0.0964 0.31830001 0.90799999
0.1104 0.31760001 0.90600002
0.1136 0.3179 0.90700001
0.1153 0.31830001 0.90799999
0.1171 0.31900001 0.91000003
0.119 0.3197 0.912
0.1207 0.31999999 0.91299999
0.1224 0.3204 0.91399997
0.124 0.3204 0.91399997
0.1256 0.3204 0.91399997
0.12720001 0.3204 0.91399997
0.1285 0.3197 0.912
0.13 0.3197 0.912
0.1313 0.31900001 0.91000003
0.1329 0.31900001 0.91000003
0.1345 0.31900001 0.91000003
0.13609999 0.31900001 0.91000003
0.1376 0.31900001 0.91000003
0.1392 0.31900001 0.91000003
0.1408 0.31900001 0.91000003
0.1424 0.31900001 0.91000003
0.14399999 0.31900001 0.91000003
0.14569999 0.3193 0.91100001
0.1522 0.3197 0.912
0.1569 0.3197 0.912
0.1582 0.31900001 0.91000003
0.1594 0.31830001 0.90799999
0.1608 0.3179 0.90700001
0.1622 0.31760001 0.90600002
-0.4136 0.3188 0.90499997
-0.41209999 0.3188 0.90499997
-0.40560001 0.31740001 0.90100002
-0.38479999 0.3107 0.88200003
-0.3493 0.3132 0.889
-0.34740001 0.31279999 0.88800001
-0.3459 0.31279999 0.88800001
-0.34509999 0.31349999 0.88999999
-0.33340001 0.31560001 0.89600003
-0.33340001 0.317 0.89999998
-0.33250001 0.3177 0.90200001
-0.33059999 0.31740001 0.90100002
-0.32800001 0.3163 0.898
-0.32570001 0.31560001 0.89600003
-0.32409999 0.31560001 0.89600003
-0.3222 0.31529999 0.89499998
-0.30930001 0.3163 0.898
-0.30840001 0.317 0.89999998
-0.3035 0.31850001 0.90399998
-0.30230001 0.3188 0.90499997
-0.30070001 0.3188 0.90499997
-0.25139999 0.31600001 0.89700001
-0.2499 0.31600001 0.89700001
-0.2489 0.31670001 0.89899999
-0.24529999 0.31810001 0.903
-0.2437 0.31810001 0.903
-0.2421 0.31810001 0.903
-0.2403 0.3177 0.90200001
-0.2385 0.31740001 0.90100002
-0.2369 0.31740001 0.90100002
-0.22939999 0.3177 0.90200001
-0.227 0.3188 0.90499997
-0.22570001 0.31920001 0.90600002
-0.22409999 0.31920001 0.90600002
-0.2225 0.31920001 0.90600002
-0.221 0.31920001 0.90600002
-0.21960001 0.3195 0.90700001
-0.2181 0.3195 0.90700001
-0.2165 0.3195 0.90700001
-0.21359999 0.31990001 0.90799999
-0.2086 0.3195 0.90700001
-0.2071 0.3195 0.90700001
-0.2032 0.31850001 0.90399998
-0.1999 0.31810001 0.903
-0.1894 0.3163 0.898
-0.1883 0.317 0.89999998
-0.18700001 0.31740001 0.90100002
-0.18539999 0.31740001 0.90100002
-0.184 0.3177 0.90200001
-0.1811 0.31810001 0.903
-0.1793 0.3177 0.90200001
-0.176 0.31740001 0.90100002
-0.17470001 0.3177 0.90200001
-0.17309999 0.3177 0.90200001
-0.17129999 0.31740001 0.90100002
-0.17 0.3177 0.90200001
-0.1682 0.31740001 0.90100002
-0.1533 0.3188 0.90499997
-0.1517 0.3188 0.90499997
-0.14390001 0.3188 0.90499997
-0.1323 0.31740001 0.90100002
-0.13070001 0.31740001 0.90100002
-0.1292 0.31740001 0.90100002
-0.1246 0.3177 0.90200001
-0.1233 0.31850001 0.90399998
-0.122 0.31920001 0.90600002
-0.1206 0.3195 0.90700001
-0.1192 0.31990001 0.90799999
-0.1175 0.3195 0.90700001
-0.1139 0.31850001 0.90399998
-0.1122 0.31810001 0.903
-0.1106 0.3177 0.90200001
-0.1089 0.31740001 0.90100002
-0.1072 0.317 0.89999998
-0.1059 0.3177 0.90200001
-0.1045 0.31850001 0.90399998
-0.1032 0.31920001 0.90600002
-0.1016 0.31920001 0.90600002
-0.1001 0.31920001 0.90600002
-0.0986 0.3195 0.90700001
-0.096799999 0.3188 0.90499997
-0.093500003 0.31810001 0.903
-0.0902 0.3177 0.90200001
-0.088799998 0.31810001 0.903
-0.087200001 0.31810001 0.903
-0.085600004 0.31810001 0.903
-0.082699999 0.3188 0.90499997
-0.079599999 0.3188 0.90499997
-0.078000002 0.3188 0.90499997
-0.076399997 0.3188 0.90499997
-0.0735 0.31990001 0.90799999
-0.071999997 0.31990001 0.90799999
-0.0704 0.31990001 0.90799999
-0.068800002 0.31990001 0.90799999
-0.065399997 0.3188 0.90499997
-0.063900001 0.3188 0.90499997
-0.062199999 0.31850001 0.90399998
-0.0546 0.31990001 0.90799999
-0.053100001 0.31990001 0.90799999
-0.048300002 0.3195 0.90700001
-0.046599999 0.3188 0.90499997
-0.045200001 0.3195 0.90700001
-0.0436 0.3195 0.90700001
-0.041999999 0.3195 0.90700001
-0.040399998 0.3195 0.90700001
-0.038800001 0.31920001 0.90600002
-0.0372 0.3188 0.90499997
-0.035599999 0.3188 0.90499997
-0.034000002 0.3177 0.90200001
-0.032400001 0.31810001 0.903
-0.0309 0.31810001 0.903
-0.0294 0.3188 0.90499997
-0.027799999 0.31920001 0.90600002
-0.0263 0.3195 0.90700001
-0.024700001 0.31990001 0.90799999
-0.0232 0.3202 0.90899998
-0.021600001 0.3202 0.90899998
-0.02 0.31990001 0.90799999
-0.0184 0.31990001 0.90799999
-0.016899999 0.3195 0.90700001
-0.0153 0.3195 0.90700001
-0.0137 0.31920001 0.90600002
-0.0121 0.31920001 0.90600002
-0.0105 0.3188 0.90499997
-0.0089999996 0.3188 0.90499997
-0.0074 0.3188 0.90499997
0.035100002 0.3206 0.91000003
0.036800001 0.3213 0.912
0.038400002 0.3213 0.912
0.039999999 0.3213 0.912
0.0416 0.322 0.91399997
0.043200001 0.322 0.91399997
0.046399999 0.32229999 0.91500002
0.048 0.322 0.91399997
0.050900001 0.3206 0.91000003
0.0524 0.3202 0.90899998
0.055500001 0.3195 0.90700001
0.057100002 0.31990001 0.90799999
0.058699999 0.31990001 0.90799999
0.061900001 0.3206 0.91000003
0.063600004 0.32089999 0.91100001
0.065099999 0.3206 0.91000003
0.066699997 0.3206 0.91000003
0.068300001 0.3206 0.91000003
0.069799997 0.3202 0.90899998
0.0713 0.31990001 0.90799999
0.072899997 0.3202 0.90899998
0.0744 0.31990001 0.90799999
0.076099999 0.3202 0.90899998
0.081 0.32089999 0.91100001
0.082500003 0.32089999 0.91100001
0.085600004 0.3206 0.91000003
0.087200001 0.3206 0.91000003
0.088699996 0.3202 0.90899998
0.0902 0.3202 0.90899998
0.091700003 0.31990001 0.90799999
0.1073 0.3195 0.90700001
0.1089 0.3195 0.90700001
0.1156 0.3206 0.91000003
0.1173 0.32089999 0.91100001
0.1191 0.32159999 0.91299999
0.1208 0.322 0.91399997
0.1223 0.32159999 0.91299999
0.1239 0.32159999 0.91299999
0.1256 0.322 0.91399997
0.12720001 0.322 0.91399997
0.1286 0.32159999 0.91299999
0.13 0.3213 0.912
0.1313 0.3206 0.91000003
0.1328 0.3202 0.90899998
0.13429999 0.3202 0.90899998
0.1358 0.31990001 0.90799999
0.1373 0.31990001 0.90799999
0.1389 0.31990001 0.90799999
0.1406 0.3202 0.90899998
0.1424 0.3206 0.91000003
0.14399999 0.3206 0.91000003
0.14740001 0.3213 0.912
0.149 0.3213 0.912
0.1506 0.3213 0.912
0.1522 0.3213 0.912
0.1541 0.322 0.91399997
0.1558 0.32229999 0.91500002
0.15710001 0.32159999 0.91299999
0.1582 0.3206 0.91000003
0.1594 0.31990001 0.90799999
0.161 0.31990001 0.90799999
0.16230001 0.3195 0.90700001
-0.41339999 0.31900001 0.90100002
-0.4127 0.3197 0.903
-0.41209999 0.3204 0.90499997
-0.40830001 0.3211 0.90700001
-0.35319999 0.3154 0.89099997
-0.35049999 0.31439999 0.88800001
-0.3497 0.31510001 0.88999999
-0.34779999 0.31470001 0.889
-0.34619999 0.31470001 0.889
-0.34549999 0.3154 0.89099997
-0.3443 0.31580001 0.89200002
-0.34240001 0.3154 0.89099997
-0.33340001 0.31720001 0.89600003
-0.33230001 0.3175 0.89700001
-0.33219999 0.31900001 0.90100002
-0.33019999 0.3186 0.89999998
-0.3276 0.3175 0.89700001
-0.32570001 0.31720001 0.89600003
-0.32409999 0.31720001 0.89600003
-0.3222 0.3168 0.89499998
-0.30930001 0.3179 0.898
-0.30770001 0.3179 0.898
-0.30160001 0.3197 0.903
-0.29910001 0.3204 0.90499997
-0.24860001 0.3179 0.898
-0.2437 0.3197 0.903
-0.2421 0.3197 0.903
-0.2406 0.3197 0.903
-0.2387 0.3193 0.90200001
-0.23720001 0.3193 0.90200001
-0.23540001 0.31900001 0.90100002
-0.2335 0.3186 0.89999998
-0.2315 0.3179 0.898
-0.2281 0.3197 0.903
-0.227 0.3204 0.90499997
-0.2254 0.3204 0.90499997
-0.22409999 0.32069999 0.90600002
-0.2225 0.32069999 0.90600002
-0.2212 0.3211 0.90700001
-0.21960001 0.3211 0.90700001
-0.2181 0.3211 0.90700001
-0.2165 0.3211 0.90700001
-0.21520001 0.32139999 0.90799999
-0.2089 0.32139999 0.90799999
-0.20730001 0.32139999 0.90799999
-0.2017 0.31999999 0.90399998
-0.1983 0.3197 0.903
-0.1945 0.3186 0.89999998
-0.1894 0.3179 0.898
-0.1881 0.31819999 0.89899999
-0.1867 0.3186 0.89999998
-0.18520001 0.3186 0.89999998
-0.18359999 0.3186 0.89999998
-0.1823 0.31900001 0.90100002
-0.177 0.3179 0.898
-0.1754 0.3179 0.898
-0.17110001 0.3186 0.89999998
-0.1696 0.3186 0.89999998
-0.1529 0.3197 0.903
-0.1514 0.3197 0.903
-0.14040001 0.3197 0.903
-0.1373 0.3197 0.903
-0.1356 0.3193 0.90200001
-0.134 0.3193 0.90200001
-0.1323 0.31900001 0.90100002
-0.13060001 0.3186 0.89999998
-0.1245 0.31900001 0.90100002
-0.1231 0.3193 0.90200001
-0.1219 0.3204 0.90499997
-0.1203 0.3204 0.90499997
-0.1189 0.32069999 0.90600002
-0.1172 0.3204 0.90499997
-0.1155 0.31999999 0.90399998
-0.1059 0.3193 0.90200001
-0.1047 0.3204 0.90499997
-0.1032 0.32069999 0.90600002
-0.1016 0.32069999 0.90600002
-0.0999 0.3204 0.90499997
-0.098499998 0.32069999 0.90600002
-0.096799999 0.3204 0.90499997
-0.094999999 0.3197 0.903
-0.091700003 0.31900001 0.90100002
-0.090099998 0.31900001 0.90100002
-0.088799998 0.3197 0.903
-0.087200001 0.3197 0.903
-0.085600004 0.3197 0.903
-0.084100001 0.3197 0.903
-0.082599998 0.31999999 0.90399998
-0.078000002 0.3204 0.90499997
-0.075099997 0.32139999 0.90799999
-0.068899997 0.32179999 0.90899998
-0.067199998 0.3211 0.90700001
-0.065499999 0.32069999 0.90600002
-0.063900001 0.32069999 0.90600002
-0.062399998 0.32069999 0.90600002
-0.057700001 0.3211 0.90700001
-0.053100001 0.32179999 0.90899998
-0.043499999 0.3204 0.90499997
-0.041900001 0.3204 0.90499997
-0.0372 0.31999999 0.90399998
-0.035599999 0.3197 0.903
-0.0309 0.3197 0.903
-0.029300001 0.31999999 0.90399998
-0.027799999 0.3204 0.90499997
-0.0263 0.3211 0.90700001
-0.024700001 0.32139999 0.90799999
-0.021600001 0.32179999 0.90899998
-0.02 0.32139999 0.90799999
-0.0184 0.32139999 0.90799999
-0.016899999 0.32139999 0.90799999
-0.0153 0.3211 0.90700001
-0.0137 0.3211 0.90700001
-0.0121 0.32069999 0.90600002
-0.0105 0.3204 0.90499997
-0.0089999996 0.3204 0.90499997
-0.0074 0.3204 0.90499997
0.036699999 0.32210001 0.91000003
0.0383 0.32210001 0.91000003
0.039900001 0.32249999 0.91100001
0.041499998 0.3229 0.912
0.0447 0.3229 0.912
0.046300001 0.3229 0.912
0.047899999 0.3229 0.912
0.0495 0.32319999 0.91299999
0.050900001 0.32210001 0.91000003
0.052499998 0.32210001 0.91000003
0.058699999 0.32139999 0.90799999
0.061900001 0.32210001 0.91000003
0.065099999 0.32210001 0.91000003
0.066699997 0.32210001 0.91000003
0.068300001 0.32210001 0.91000003
0.069799997 0.32210001 0.91000003
0.0713 0.32179999 0.90899998
0.072999999 0.32210001 0.91000003
0.074500002 0.32179999 0.90899998
0.076099999 0.32210001 0.91000003
0.077699997 0.32210001 0.91000003
0.079300001 0.32210001 0.91000003
0.080899999 0.32210001 0.91000003
0.082400002 0.32210001 0.91000003
0.083999999 0.32210001 0.91000003
0.085600004 0.32210001 0.91000003
0.087099999 0.32179999 0.90899998
0.088600002 0.32139999 0.90799999
0.0902 0.32179999 0.90899998
0.091600001 0.3211 0.90700001
0.094899997 0.32139999 0.90799999
0.096299998 0.3211 0.90700001
0.097999997 0.32139999 0.90799999
0.1074 0.32139999 0.90799999
0.1091 0.32179999 0.90899998
0.111 0.32249999 0.91100001
0.1127 0.3229 0.912
0.1142 0.3229 0.912
0.1159 0.32319999 0.91299999
0.1177 0.32359999 0.91399997
0.1208 0.32359999 0.91399997
0.1224 0.32359999 0.91399997
0.124 0.32359999 0.91399997
0.1257 0.32390001 0.91500002
0.12720001 0.32359999 0.91399997
0.1287 0.32359999 0.91399997
0.13 0.3229 0.912
0.13150001 0.32249999 0.91100001
0.1329 0.32210001 0.91000003
0.13429999 0.32179999 0.90899998
0.1358 0.32139999 0.90799999
0.1373 0.32139999 0.90799999
0.1389 0.32139999 0.90799999
0.1406 0.32179999 0.90899998
0.1424 0.32210001 0.91000003
0.1441 0.32249999 0.91100001
0.1459 0.3229 0.912
0.1478 0.32359999 0.91399997
0.1495 0.32390001 0.91500002
0.15109999 0.32390001 0.91500002
0.15270001 0.32390001 0.91500002
0.15440001 0.32429999 0.91600001
0.156 0.32429999 0.91600001
0.1574 0.32390001 0.91500002
0.1585 0.3229 0.912
0.15970001 0.32210001 0.91000003
0.1613 0.32210001 0.91000003
0.16249999 0.32139999 0.90799999
0.1639 0.3211 0.90700001
-0.412 0.3195 0.898
-0.4118 0.32049999 0.90100002
-0.41119999 0.32120001 0.903
-0.36840001 0.3195 0.898
-0.3689 0.32120001 0.903
-0.3497 0.31659999 0.88999999
-0.34740001 0.3159 0.88800001
-0.3459 0.3159 0.88800001
-0.34470001 0.31619999 0.889
-0.34349999 0.31659999 0.88999999
-0.34200001 0.31659999 0.88999999
-0.33340001 0.31869999 0.89600003
-0.3326 0.3195 0.898
-0.33219999 0.32049999 0.90100002
-0.33019999 0.3202 0.89999998
-0.3272 0.31869999 0.89600003
-0.32530001 0.3184 0.89499998
-0.3238 0.3184 0.89499998
-0.3222 0.3184 0.89499998
-0.32069999 0.3184 0.89499998
-0.3184 0.3177 0.89300001
-0.30559999 0.32049999 0.90100002
-0.30219999 0.3202 0.89999998
-0.30059999 0.3202 0.89999998
-0.29820001 0.32089999 0.90200001
-0.2518 0.3177 0.89300001
-0.2509 0.3184 0.89499998
-0.24959999 0.31869999 0.89600003
-0.2491 0.3202 0.89999998
-0.244 0.32159999 0.90399998
-0.24240001 0.32159999 0.90399998
-0.24079999 0.32159999 0.90399998
-0.2393 0.32159999 0.90399998
-0.2374 0.32120001 0.903
-0.2359 0.32120001 0.903
-0.2335 0.3202 0.89999998
-0.2309 0.31869999 0.89600003
-0.2297 0.31909999 0.89700001
-0.2278 0.32089999 0.90200001
-0.2265 0.32120001 0.903
-0.2254 0.32190001 0.90499997
-0.22409999 0.32229999 0.90600002
-0.2225 0.32229999 0.90600002
-0.221 0.32229999 0.90600002
-0.21960001 0.32269999 0.90700001
-0.21780001 0.32229999 0.90600002
-0.21600001 0.32190001 0.90499997
-0.2017 0.32159999 0.90399998
-0.1999 0.32120001 0.903
-0.1948 0.32049999 0.90100002
-0.1865 0.31979999 0.89899999
-0.1848 0.3195 0.898
-0.1821 0.3202 0.89999998
-0.1805 0.3202 0.89999998
-0.1727 0.3202 0.89999998
-0.171 0.31979999 0.89899999
-0.16940001 0.31979999 0.89899999
-0.1661 0.3195 0.898
-0.1608 0.32120001 0.903
-0.1592 0.32120001 0.903
-0.1495 0.32049999 0.90100002
-0.1479 0.32049999 0.90100002
-0.1418 0.32089999 0.90200001
-0.1401 0.32049999 0.90100002
-0.1216 0.32120001 0.903
-0.1202 0.32159999 0.90399998
-0.1188 0.32190001 0.90499997
-0.1171 0.32159999 0.90399998
-0.1154 0.32120001 0.903
-0.1072 0.3202 0.89999998
-0.1059 0.32089999 0.90200001
-0.1047 0.32190001 0.90499997
-0.1033 0.32269999 0.90700001
-0.1017 0.32269999 0.90700001
-0.1001 0.32229999 0.90600002
-0.098499998 0.32229999 0.90600002
-0.096799999 0.32190001 0.90499997
-0.091700003 0.32049999 0.90100002
-0.090099998 0.32049999 0.90100002
-0.088699996 0.32089999 0.90200001
-0.087099999 0.32089999 0.90200001
-0.085500002 0.32049999 0.90100002
-0.083899997 0.32049999 0.90100002
-0.0823 0.32049999 0.90100002
-0.077799998 0.32120001 0.903
-0.075000003 0.32269999 0.90700001
-0.068899997 0.32339999 0.90899998
-0.067199998 0.32300001 0.90799999
-0.0656 0.32269999 0.90700001
-0.063900001 0.32229999 0.90600002
-0.0594 0.32300001 0.90799999
-0.057799999 0.32300001 0.90799999
-0.0548 0.32370001 0.91000003
-0.0482 0.32229999 0.90600002
-0.035599999 0.32120001 0.903
-0.032400001 0.32089999 0.90200001
-0.029300001 0.32159999 0.90399998
-0.027799999 0.32190001 0.90499997
-0.024700001 0.32269999 0.90700001
-0.0232 0.32300001 0.90799999
-0.021600001 0.32300001 0.90799999
-0.02 0.32300001 0.90799999
-0.016899999 0.32269999 0.90700001
-0.0153 0.32269999 0.90700001
-0.0137 0.32229999 0.90600002
-0.0121 0.32229999 0.90600002
-0.0105 0.32190001 0.90499997
-0.0089999996 0.32190001 0.90499997
-0.0074 0.32190001 0.90499997
0.035100002 0.32300001 0.90799999
0.036600001 0.32300001 0.90799999
0.038199998 0.32300001 0.90799999
0.039799999 0.32339999 0.90899998
0.0414 0.32370001 0.91000003
0.043000001 0.32370001 0.91000003
0.044599999 0.32409999 0.91100001
0.0462 0.32409999 0.91100001
0.047800001 0.32409999 0.91100001
0.050999999 0.32409999 0.91100001
0.058699999 0.32339999 0.90899998
0.061900001 0.32370001 0.91000003
0.063500002 0.32370001 0.91000003
0.065099999 0.32370001 0.91000003
0.066699997 0.32370001 0.91000003
0.068300001 0.32370001 0.91000003
0.069799997 0.32370001 0.91000003
0.0713 0.32339999 0.90899998
0.072999999 0.32370001 0.91000003
0.074500002 0.32339999 0.90899998
0.076099999 0.32370001 0.91000003
0.077600002 0.32339999 0.90899998
0.079099998 0.32300001 0.90799999
0.080799997 0.32339999 0.90899998
0.082400002 0.32370001 0.91000003
0.083899997 0.32339999 0.90899998
0.085500002 0.32339999 0.90899998
0.087099999 0.32339999 0.90899998
0.088799998 0.32370001 0.91000003
0.0902 0.32339999 0.90899998
0.091700003 0.32300001 0.90799999
0.0933 0.32300001 0.90799999
0.0964 0.32300001 0.90799999
0.099600002 0.32300001 0.90799999
0.1012 0.32300001 0.90799999
0.1112 0.32480001 0.91299999
0.1129 0.3251 0.91399997
0.1145 0.3251 0.91399997
0.1163 0.32589999 0.91600001
0.118 0.32620001 0.917
0.1195 0.32589999 0.91600001
0.121 0.32550001 0.91500002
0.1224 0.3251 0.91399997
0.124 0.3251 0.91399997
0.1256 0.3251 0.91399997
0.12720001 0.3251 0.91399997
0.1287 0.3251 0.91399997
0.13 0.32440001 0.912
0.1313 0.32370001 0.91000003
0.1328 0.32339999 0.90899998
0.13420001 0.32300001 0.90799999
0.1356 0.32269999 0.90700001
0.1372 0.32269999 0.90700001
0.1388 0.32269999 0.90700001
0.1406 0.32339999 0.90899998
0.1424 0.32370001 0.91000003
0.1462 0.3251 0.91399997
0.1481 0.32589999 0.91600001
0.1498 0.32620001 0.917
0.1514 0.32620001 0.917
0.153 0.32620001 0.917
0.15459999 0.32620001 0.917
0.15620001 0.32620001 0.917
0.1576 0.32589999 0.91600001
0.15880001 0.3251 0.91399997
0.1601 0.32440001 0.912
0.1613 0.32370001 0.91000003
0.16249999 0.32300001 0.90799999
0.1639 0.32269999 0.90700001
-0.41260001 0.32030001 0.89600003
-0.34740001 0.31740001 0.88800001
-0.3459 0.31740001 0.88800001
-0.3443 0.31740001 0.88800001
-0.3432 0.31779999 0.889
-0.34119999 0.31740001 0.88800001
-0.33039999 0.31889999 0.89200002
-0.32960001 0.31959999 0.89399999
-0.32800001 0.31959999 0.89399999
-0.3258 0.31889999 0.89200002
-0.3242 0.31889999 0.89200002
-0.32300001 0.31920001 0.89300001
-0.3215 0.31920001 0.89300001
-0.3168 0.31920001 0.89300001
-0.31459999 0.32170001 0.89999998
-0.31150001 0.32170001 0.89999998
-0.31 0.32170001 0.89999998
-0.30840001 0.32170001 0.89999998
-0.30689999 0.32170001 0.89999998
-0.30500001 0.32139999 0.89899999
-0.3012 0.32069999 0.89700001
-0.29960001 0.32069999 0.89700001
-0.29840001 0.32100001 0.898
-0.29679999 0.32100001 0.898
-0.25240001 0.31990001 0.89499998
-0.25139999 0.32069999 0.89700001
-0.25009999 0.32100001 0.898
-0.2491 0.32170001 0.89999998
-0.24420001 0.32350001 0.90499997
-0.2427 0.32350001 0.90499997
-0.2393 0.32319999 0.90399998
-0.23019999 0.31920001 0.89300001
-0.22679999 0.32100001 0.898
-0.226 0.32210001 0.90100002
-0.2247 0.3224 0.90200001
-0.2236 0.32319999 0.90399998
-0.22229999 0.32350001 0.90499997
-0.2207 0.32350001 0.90499997
-0.2192 0.32350001 0.90499997
-0.2173 0.32319999 0.90399998
-0.2142 0.32319999 0.90399998
-0.193 0.32170001 0.89999998
-0.1899 0.32170001 0.89999998
-0.1867 0.32170001 0.89999998
-0.185 0.32139999 0.89899999
-0.1821 0.32170001 0.89999998
-0.1805 0.32170001 0.89999998
-0.1743 0.32170001 0.89999998
-0.1727 0.32170001 0.89999998
-0.171 0.32139999 0.89899999
-0.1692 0.32100001 0.898
-0.16769999 0.32100001 0.898
-0.1661 0.32100001 0.898
-0.16329999 0.32170001 0.89999998
-0.16060001 0.3224 0.90200001
-0.1592 0.32280001 0.903
-0.1561 0.32280001 0.903
-0.1543 0.3224 0.90200001
-0.15260001 0.32210001 0.90100002
-0.15099999 0.32210001 0.90100002
-0.14929999 0.32170001 0.89999998
-0.1477 0.32170001 0.89999998
-0.1418 0.3224 0.90200001
-0.1401 0.32210001 0.90100002
-0.1339 0.32210001 0.90100002
-0.1323 0.32210001 0.90100002
-0.1228 0.32170001 0.89999998
-0.1215 0.3224 0.90200001
-0.1185 0.32280001 0.903
-0.1169 0.32280001 0.903
-0.1154 0.32280001 0.903
-0.1073 0.32210001 0.90100002
-0.106 0.32280001 0.903
-0.1048 0.32390001 0.90600002
-0.1033 0.3242 0.90700001
-0.1017 0.3242 0.90700001
-0.1002 0.3242 0.90700001
-0.098499998 0.32390001 0.90600002
-0.091600001 0.32170001 0.89999998
-0.090099998 0.32210001 0.90100002
-0.088600002 0.32210001 0.90100002
-0.086999997 0.32210001 0.90100002
-0.085500002 0.32210001 0.90100002
-0.083899997 0.32210001 0.90100002
-0.0823 0.32210001 0.90100002
-0.079400003 0.32280001 0.903
-0.075000003 0.3242 0.90700001
-0.0735 0.32460001 0.90799999
-0.071999997 0.32460001 0.90799999
-0.0704 0.32460001 0.90799999
-0.068800002 0.32460001 0.90799999
-0.067199998 0.3242 0.90700001
-0.0656 0.3242 0.90700001
-0.063900001 0.32390001 0.90600002
-0.062399998 0.3242 0.90700001
-0.060899999 0.3242 0.90700001
-0.057799999 0.32460001 0.90799999
-0.056200001 0.32460001 0.90799999
-0.054699998 0.3249 0.90899998
-0.053100001 0.3249 0.90899998
-0.0451 0.32390001 0.90600002
-0.0372 0.32350001 0.90499997
-0.035599999 0.32280001 0.903
-0.0309 0.32280001 0.903
-0.027799999 0.32350001 0.90499997
-0.024700001 0.3242 0.90700001
-0.021600001 0.3242 0.90700001
-0.02 0.3242 0.90700001
-0.016899999 0.3242 0.90700001
-0.0153 0.32390001 0.90600002
-0.0137 0.32350001 0.90499997
-0.0121 0.32350001 0.90499997
-0.0105 0.32350001 0.90499997
-0.0089999996 0.32350001 0.90499997
-0.0074 0.32390001 0.90600002
0.035100002 0.32460001 0.90799999
0.036600001 0.32460001 0.90799999
0.038199998 0.32460001 0.90799999
0.039799999 0.32460001 0.90799999
0.0414 0.32460001 0.90799999
0.043000001 0.3249 0.90899998
0.044599999 0.32530001 0.91000003
0.046100002 0.3249 0.90899998
0.047600001 0.32460001 0.90799999
0.054000001 0.3249 0.90899998
0.055500001 0.32460001 0.90799999
0.0572 0.3249 0.90899998
0.061900001 0.32530001 0.91000003
0.063500002 0.32530001 0.91000003
0.065099999 0.32530001 0.91000003
0.066699997 0.32530001 0.91000003
0.068300001 0.32530001 0.91000003
0.069799997 0.32530001 0.91000003
0.0713 0.3249 0.90899998
0.072999999 0.32530001 0.91000003
0.0744 0.32460001 0.90799999
0.075999998 0.32460001 0.90799999
0.079099998 0.32460001 0.90799999
0.082400002 0.32530001 0.91000003
0.083899997 0.3249 0.90899998
0.085500002 0.3249 0.90899998
0.087099999 0.3249 0.90899998
0.088699996 0.3249 0.90899998
0.0902 0.3249 0.90899998
0.091600001 0.3242 0.90700001
0.0933 0.32460001 0.90799999
0.094899997 0.32460001 0.90799999
0.0964 0.32460001 0.90799999
0.097999997 0.32460001 0.90799999
0.099600002 0.32460001 0.90799999
0.1013 0.3249 0.90899998
0.1061 0.32530001 0.91000003
0.1113 0.3267 0.91399997
0.1129 0.3267 0.91399997
0.1145 0.3267 0.91399997
0.1162 0.32710001 0.91500002
0.1179 0.3274 0.91600001
0.1195 0.3274 0.91600001
0.121 0.32710001 0.91500002
0.1224 0.3267 0.91399997
0.124 0.3267 0.91399997
0.1256 0.3267 0.91399997
0.12720001 0.3267 0.91399997
0.1287 0.3267 0.91399997
0.1313 0.32530001 0.91000003
0.13410001 0.3242 0.90700001
0.1353 0.32350001 0.90499997
0.13699999 0.32390001 0.90600002
0.1427 0.32600001 0.912
0.1444 0.32640001 0.91299999
0.14650001 0.3274 0.91600001
0.14820001 0.32780001 0.917
0.15000001 0.32820001 0.91799998
0.1516 0.32820001 0.91799998
0.153 0.32780001 0.917
0.15459999 0.32780001 0.917
0.1564 0.32820001 0.91799998
0.15800001 0.32820001 0.91799998
0.1594 0.32780001 0.917
0.1604 0.3267 0.91399997
0.1618 0.32640001 0.91299999
0.1631 0.32570001 0.91100001
0.16429999 0.3249 0.90899998
-0.4122 0.3215 0.89499998
-0.40959999 0.32440001 0.903
-0.38299999 0.3179 0.88499999
-0.38150001 0.3179 0.88499999
-0.3459 0.31900001 0.88800001
-0.3443 0.31900001 0.88800001
-0.3432 0.3193 0.889
