ply
format ascii 1.0
comment PCL generated
element vertex 1596
property float x
property float y
property float z
element camera 0
property float view_px
property float view_py
property float view_pz
property float x_axisx
property float x_axisy
property float x_axisz
property float y_axisx
property float y_axisy
property float y_axisz
property float z_axisx
property float z_axisy
property float z_axisz
property float focal
property float scalex
property float scaley
property float centerx
property float centery
property int viewportx
property int viewporty
property float k1
property float k2
end_header
-0.059099998 0.3044 0.90399998
-0.057599999 0.30469999 0.90499997
-0.056000002 0.30469999 0.90499997
-0.054499999 0.30469999 0.90499997
-0.0403 0.30399999 0.903
-0.0309 0.30469999 0.90499997
-0.0294 0.30500001 0.90600002
-0.027799999 0.30500001 0.90600002
-0.0262 0.30469999 0.90499997
-0.024700001 0.30469999 0.90499997
-0.0231 0.30469999 0.90499997
-0.02 0.30469999 0.90499997
-0.016899999 0.30540001 0.90700001
-0.0137 0.30540001 0.90700001
-0.0121 0.30540001 0.90700001
-0.0106 0.30540001 0.90700001
-0.0089999996 0.30540001 0.90700001
-0.0074 0.30500001 0.90600002
-0.0057999999 0.30469999 0.90499997
-0.0043000001 0.3044 0.90399998
0.035100002 0.30599999 0.90899998
0.036800001 0.30669999 0.91100001
0.0385 0.30770001 0.91399997
0.040100001 0.30840001 0.91600001
0.041900001 0.30939999 0.91900003
0.043499999 0.30970001 0.92000002
0.0451 0.30970001 0.92000002
0.052499998 0.3064 0.91000003
0.054000001 0.30599999 0.90899998
0.055500001 0.3057 0.90799999
0.057 0.30540001 0.90700001
0.058499999 0.30500001 0.90600002
0.059999999 0.30469999 0.90499997
0.061700001 0.30500001 0.90600002
0.063199997 0.30500001 0.90600002
0.064800002 0.30500001 0.90600002
0.066500001 0.30540001 0.90700001
0.068000004 0.30540001 0.90700001
0.069600001 0.30540001 0.90700001
0.071400002 0.3064 0.91000003
0.074600004 0.3064 0.91000003
0.076099999 0.30599999 0.90899998
0.077500001 0.3057 0.90799999
0.079099998 0.3057 0.90799999
0.080600001 0.30540001 0.90700001
0.086900003 0.30540001 0.90700001
0.088500001 0.30540001 0.90700001
0.090000004 0.30540001 0.90700001
0.091600001 0.30540001 0.90700001
0.093099996 0.30500001 0.90600002
0.094499998 0.30469999 0.90499997
0.096100003 0.30469999 0.90499997
0.097599998 0.3044 0.90399998
0.099200003 0.30469999 0.90499997
0.1008 0.30469999 0.90499997
0.1024 0.30469999 0.90499997
0.1043 0.3057 0.90799999
0.1061 0.3064 0.91000003
0.108 0.30739999 0.91299999
0.1099 0.30809999 0.91500002
0.1117 0.3087 0.917
0.1134 0.3091 0.91799998
0.1149 0.3087 0.917
0.1162 0.30809999 0.91500002
0.1202 0.30599999 0.90899998
0.1219 0.3064 0.91000003
0.1235 0.3064 0.91000003
0.12530001 0.30700001 0.912
0.127 0.30739999 0.91299999
0.1287 0.30770001 0.91399997
0.13 0.30700001 0.912
0.13160001 0.30700001 0.912
0.1329 0.3064 0.91000003
0.13420001 0.3057 0.90799999
0.1356 0.30540001 0.90700001
0.13699999 0.30500001 0.90600002
0.1388 0.30540001 0.90700001
0.14049999 0.3057 0.90799999
0.14210001 0.3057 0.90799999
0.14380001 0.30599999 0.90899998
0.1455 0.3064 0.91000003
0.1471 0.3064 0.91000003
0.1487 0.3064 0.91000003
0.15009999 0.30599999 0.90899998
0.1515 0.3057 0.90799999
0.1531 0.3057 0.90799999
0.1578 0.3057 0.90799999
0.1594 0.3057 0.90799999
0.1608 0.30540001 0.90700001
0.1627 0.30599999 0.90899998
0.1645 0.3064 0.91000003
0.16599999 0.3064 0.91000003
-0.37270001 0.3035 0.89700001
-0.37029999 0.30289999 0.89499998
-0.3671 0.30149999 0.89099997
-0.3651 0.3012 0.88999999
-0.3628 0.30050001 0.88800001
-0.36039999 0.29980001 0.88599998
-0.3585 0.29949999 0.88499999
-0.34580001 0.2992 0.884
-0.34470001 0.29949999 0.88499999
-0.34279999 0.2992 0.884
-0.3416 0.29949999 0.88499999
-0.3405 0.29980001 0.88599998
-0.34040001 0.30250001 0.89399999
-0.33270001 0.30250001 0.89399999
-0.32089999 0.3046 0.89999998
-0.3193 0.3046 0.89999998
-0.3145 0.30289999 0.89499998
-0.30720001 0.3019 0.89200002
-0.3053 0.30149999 0.89099997
-0.30410001 0.3019 0.89200002
-0.30289999 0.30219999 0.89300001
-0.30140001 0.30219999 0.89300001
-0.30019999 0.30250001 0.89399999
-0.29890001 0.30289999 0.89499998
-0.29840001 0.3039 0.898
-0.29750001 0.3046 0.89999998
-0.2491 0.3046 0.89999998
-0.2481 0.30520001 0.90200001
-0.2463 0.30489999 0.90100002
-0.24240001 0.3039 0.898
-0.2333 0.30219999 0.89300001
-0.2322 0.30289999 0.89499998
-0.2166 0.30050001 0.88800001
-0.2148 0.30019999 0.88700002
-0.21349999 0.30050001 0.88800001
-0.212 0.30050001 0.88800001
-0.21089999 0.3012 0.88999999
-0.2096 0.30149999 0.89099997
-0.20900001 0.30289999 0.89499998
-0.20810001 0.3039 0.898
-0.2066 0.3039 0.898
-0.20370001 0.30419999 0.89899999
-0.2023 0.3046 0.89999998
-0.1894 0.3039 0.898
-0.18790001 0.3039 0.898
-0.18629999 0.3039 0.898
-0.1846 0.3035 0.89700001
-0.18279999 0.30320001 0.89600003
-0.18170001 0.3039 0.898
-0.178 0.30559999 0.903
-0.17399999 0.30689999 0.90700001
-0.1709 0.30689999 0.90700001
-0.169 0.30630001 0.90499997
-0.1674 0.30630001 0.90499997
-0.1655 0.30559999 0.903
-0.16230001 0.30559999 0.903
-0.1604 0.30489999 0.90100002
-0.1564 0.30320001 0.89600003
-0.15109999 0.3019 0.89200002
-0.1495 0.3019 0.89200002
-0.148 0.3019 0.89200002
-0.14659999 0.30219999 0.89300001
-0.1452 0.30250001 0.89399999
-0.1197 0.3046 0.89999998
-0.1184 0.30520001 0.90200001
-0.1168 0.30520001 0.90200001
-0.1152 0.30520001 0.90200001
-0.1138 0.30559999 0.903
-0.1121 0.30520001 0.90200001
-0.1107 0.30559999 0.903
-0.1091 0.30559999 0.903
-0.106 0.30559999 0.903
-0.1047 0.30630001 0.90499997
-0.1031 0.30630001 0.90499997
-0.1015 0.30630001 0.90499997
-0.0999 0.30630001 0.90499997
-0.098399997 0.30630001 0.90499997
-0.096799999 0.30630001 0.90499997
-0.093599997 0.30590001 0.90399998
-0.090400003 0.30590001 0.90399998
-0.087399997 0.30630001 0.90499997
-0.0858 0.30630001 0.90499997
-0.084299996 0.30630001 0.90499997
-0.070299998 0.30689999 0.90700001
-0.068700001 0.30689999 0.90700001
-0.067199998 0.30689999 0.90700001
-0.0656 0.30689999 0.90700001
-0.063900001 0.30630001 0.90499997
-0.0623 0.30630001 0.90499997
-0.060699999 0.30630001 0.90499997
-0.0592 0.30630001 0.90499997
-0.057599999 0.30630001 0.90499997
-0.0546 0.30689999 0.90700001
-0.052999999 0.30689999 0.90700001
-0.0515 0.3073 0.90799999
-0.050000001 0.30790001 0.91000003
-0.0484 0.30759999 0.90899998
-0.030999999 0.30689999 0.90700001
-0.0294 0.30689999 0.90700001
-0.027899999 0.30689999 0.90700001
-0.0263 0.3066 0.90600002
-0.024700001 0.30630001 0.90499997
-0.0153 0.3066 0.90600002
-0.0137 0.30689999 0.90700001
-0.0121 0.30689999 0.90700001
-0.0106 0.30689999 0.90700001
-0.0089999996 0.30689999 0.90700001
-0.0074 0.30689999 0.90700001
-0.0057999999 0.3066 0.90600002
-0.0043000001 0.30689999 0.90700001
0.035100002 0.30790001 0.91000003
0.036800001 0.30899999 0.91299999
0.0385 0.30930001 0.91399997
0.040100001 0.3096 0.91500002
0.041900001 0.31099999 0.91900003
0.043499999 0.31130001 0.92000002
0.046599999 0.31099999 0.91900003
0.0495 0.30930001 0.91399997
0.052499998 0.30790001 0.91000003
0.0539 0.3073 0.90799999
0.055500001 0.30689999 0.90700001
0.057 0.3066 0.90600002
0.058499999 0.30630001 0.90499997
0.059999999 0.30590001 0.90399998
0.061500002 0.30590001 0.90399998
0.063199997 0.30630001 0.90499997
0.068000004 0.30689999 0.90700001
0.071400002 0.30790001 0.91000003
0.073100001 0.30829999 0.91100001
0.074600004 0.30790001 0.91000003
0.076099999 0.30790001 0.91000003
0.0792 0.30759999 0.90899998
0.083700001 0.30689999 0.90700001
0.085299999 0.30689999 0.90700001
0.086900003 0.30689999 0.90700001
0.090000004 0.30689999 0.90700001
0.091600001 0.30689999 0.90700001
0.093000002 0.30630001 0.90499997
0.094400004 0.30590001 0.90399998
0.096000001 0.30590001 0.90399998
0.097499996 0.30559999 0.903
0.098999999 0.30559999 0.903
0.1006 0.30559999 0.903
0.1022 0.30559999 0.903
0.1042 0.30689999 0.90700001
0.108 0.30899999 0.91299999
0.1135 0.31099999 0.91900003
0.1159 0.30899999 0.91299999
0.117 0.30759999 0.90899998
0.1185 0.3073 0.90799999
0.12 0.3073 0.90799999
0.1216 0.3073 0.90799999
0.1233 0.30759999 0.90899998
0.1252 0.30829999 0.91100001
0.1269 0.30860001 0.912
0.1287 0.30930001 0.91399997
0.1303 0.30930001 0.91399997
0.1319 0.30930001 0.91399997
0.1332 0.30860001 0.912
0.13429999 0.30759999 0.90899998
0.1358 0.3073 0.90799999
0.1373 0.3073 0.90799999
0.1389 0.3073 0.90799999
0.1406 0.30759999 0.90899998
0.14210001 0.3073 0.90799999
0.14399999 0.30790001 0.91000003
0.1459 0.30860001 0.912
0.1473 0.30829999 0.91100001
0.1489 0.30829999 0.91100001
0.15009999 0.30759999 0.90899998
0.1515 0.3073 0.90799999
0.1573 0.30630001 0.90499997
0.15899999 0.3066 0.90600002
0.1604 0.30630001 0.90499997
0.16249999 0.3073 0.90799999
0.1645 0.30790001 0.91000003
-0.39879999 0.30849999 0.90700001
-0.38170001 0.30239999 0.889
-0.37029999 0.3044 0.89499998
-0.36790001 0.3037 0.89300001
-0.36559999 0.30309999 0.89099997
-0.36359999 0.30270001 0.88999999
-0.36039999 0.30140001 0.88599998
-0.35890001 0.30140001 0.88599998
-0.34740001 0.30070001 0.884
-0.34470001 0.301 0.88499999
-0.34279999 0.30070001 0.884
-0.30840001 0.30309999 0.89099997
-0.30500001 0.30270001 0.88999999
-0.30379999 0.30309999 0.89099997
-0.30219999 0.30309999 0.89099997
-0.30140001 0.3037 0.89300001
-0.30019999 0.30410001 0.89399999
-0.29890001 0.3044 0.89499998
-0.29769999 0.3048 0.89600003
-0.29679999 0.30540001 0.898
-0.29530001 0.30540001 0.898
-0.25040001 0.30579999 0.89899999
-0.2491 0.30610001 0.89999998
-0.2481 0.30680001 0.90200001
-0.24240001 0.30540001 0.898
-0.2166 0.30199999 0.88800001
-0.2148 0.3017 0.88700002
-0.21349999 0.30199999 0.88800001
-0.2124 0.30270001 0.88999999
-0.2101 0.3037 0.89300001
-0.20919999 0.3048 0.89600003
-0.2084 0.30579999 0.89899999
-0.2017 0.30509999 0.89700001
-0.1926 0.30540001 0.898
-0.1908 0.30509999 0.89700001
-0.189 0.3048 0.89600003
-0.1877 0.30509999 0.89700001
-0.1859 0.3048 0.89600003
-0.18440001 0.3048 0.89600003
-0.18260001 0.3044 0.89499998
-0.18009999 0.30540001 0.898
-0.178 0.3071 0.903
-0.17560001 0.30849999 0.90700001
-0.17399999 0.30849999 0.90700001
-0.1725 0.30849999 0.90700001
-0.1709 0.30849999 0.90700001
-0.1691 0.3082 0.90600002
-0.1674 0.30779999 0.90499997
-0.16580001 0.30779999 0.90499997
-0.1639 0.3071 0.903
-0.1602 0.30610001 0.89999998
-0.1512 0.3037 0.89300001
-0.1497 0.3037 0.89300001
-0.1481 0.3037 0.89300001
-0.14659999 0.3037 0.89300001
-0.1451 0.3037 0.89300001
-0.1433 0.30340001 0.89200002
-0.1416 0.30309999 0.89099997
-0.1398 0.30239999 0.889
-0.13160001 0.30140001 0.88599998
-0.1198 0.30649999 0.90100002
-0.1185 0.3071 0.903
-0.1169 0.3071 0.903
-0.1154 0.3071 0.903
-0.1138 0.3071 0.903
-0.1122 0.3071 0.903
-0.1108 0.3075 0.90399998
-0.1091 0.3071 0.903
-0.1076 0.3071 0.903
-0.1061 0.3075 0.90399998
-0.1047 0.30779999 0.90499997
-0.1015 0.30779999 0.90499997
-0.0999 0.30779999 0.90499997
-0.098399997 0.30779999 0.90499997
-0.096699998 0.3075 0.90399998
-0.095100001 0.3075 0.90399998
-0.093500003 0.3071 0.903
-0.091899998 0.3071 0.903
-0.090300001 0.3071 0.903
-0.0889 0.3075 0.90399998
-0.087300003 0.3075 0.90399998
-0.073399998 0.3082 0.90600002
-0.071699999 0.30779999 0.90499997
-0.068599999 0.30779999 0.90499997
-0.067000002 0.30779999 0.90499997
-0.065399997 0.30779999 0.90499997
-0.063900001 0.30779999 0.90499997
-0.0623 0.30779999 0.90499997
-0.060699999 0.30779999 0.90499997
-0.0592 0.30779999 0.90499997
-0.057700001 0.30849999 0.90700001
-0.056200001 0.30849999 0.90700001
-0.053100001 0.30880001 0.90799999
-0.0517 0.31020001 0.912
-0.050299998 0.31119999 0.91500002
-0.048599999 0.31020001 0.912
-0.046799999 0.30919999 0.90899998
-0.0403 0.30779999 0.90499997
-0.032600001 0.30849999 0.90700001
-0.030999999 0.30849999 0.90700001
-0.0295 0.30880001 0.90799999
-0.027899999 0.30880001 0.90799999
-0.0263 0.30849999 0.90700001
-0.024700001 0.30849999 0.90700001
-0.0231 0.3082 0.90600002
-0.021500001 0.30779999 0.90499997
-0.02 0.30779999 0.90499997
-0.0184 0.30779999 0.90499997
-0.016899999 0.30849999 0.90700001
-0.0153 0.3082 0.90600002
-0.0137 0.3082 0.90600002
-0.0121 0.3082 0.90600002
-0.0106 0.30849999 0.90700001
-0.0089999996 0.3082 0.90600002
-0.0074 0.3082 0.90600002
-0.0057999999 0.30779999 0.90499997
-0.0043000001 0.3082 0.90600002
0.033399999 0.30849999 0.90700001
0.035 0.30849999 0.90700001
0.036699999 0.30950001 0.91000003
0.0383 0.30989999 0.91100001
0.039999999 0.31020001 0.912
0.041700002 0.31119999 0.91500002
0.043400001 0.31220001 0.91799998
0.049400002 0.31020001 0.912
0.0539 0.30849999 0.90700001
0.055500001 0.30849999 0.90700001
0.056899998 0.30779999 0.90499997
0.0583 0.3071 0.903
0.059799999 0.30649999 0.90100002
0.0614 0.30680001 0.90200001
0.068000004 0.30849999 0.90700001
0.071500003 0.30989999 0.91100001
0.073100001 0.30989999 0.91100001
0.074600004 0.30950001 0.91000003
0.076099999 0.30950001 0.91000003
0.077600002 0.30919999 0.90899998
0.080700003 0.30880001 0.90799999
0.083700001 0.30849999 0.90700001
0.085299999 0.30849999 0.90700001
0.088500001 0.30849999 0.90700001
0.089900002 0.3082 0.90600002
0.091600001 0.30849999 0.90700001
0.092900001 0.3075 0.90399998
0.094300002 0.3071 0.903
0.095899999 0.3071 0.903
0.097400002 0.30680001 0.90200001
0.098999999 0.3071 0.903
0.1005 0.30680001 0.90200001
0.1022 0.3071 0.903
0.1042 0.30849999 0.90700001
0.1061 0.30950001 0.91000003
0.108 0.3105 0.91299999
0.1136 0.31290001 0.92000002
0.1163 0.3116 0.91600001
0.1173 0.30989999 0.91100001
0.1186 0.30919999 0.90899998
0.12 0.30880001 0.90799999
0.1216 0.30880001 0.90799999
0.1232 0.30880001 0.90799999
0.125 0.30950001 0.91000003
0.1267 0.30989999 0.91100001
0.1283 0.30989999 0.91100001
0.13160001 0.31020001 0.912
0.1331 0.30989999 0.91100001
0.1345 0.30950001 0.91000003
0.13590001 0.30919999 0.90899998
0.1376 0.30950001 0.91000003
0.1392 0.30950001 0.91000003
0.1425 0.30989999 0.91100001
0.1443 0.31020001 0.912
0.1462 0.3109 0.91399997
0.1478 0.3109 0.91399997
0.149 0.31020001 0.912
0.1504 0.30989999 0.91100001
0.15710001 0.3075 0.90399998
0.15889999 0.30779999 0.90499997
0.16230001 0.30849999 0.90700001
0.16410001 0.30880001 0.90799999
0.1735 0.3116 0.91600001
-0.366 0.30489999 0.89200002
-0.36359999 0.30430001 0.88999999
-0.34619999 0.3026 0.88499999
-0.34470001 0.3026 0.88499999
-0.34310001 0.3026 0.88499999
-0.3416 0.3026 0.88499999
-0.34009999 0.3026 0.88499999
-0.3389 0.30289999 0.88599998
-0.30689999 0.3046 0.89099997
-0.30410001 0.30489999 0.89200002
-0.30289999 0.3053 0.89300001
-0.3017 0.30559999 0.89399999
-0.30019999 0.30559999 0.89399999
-0.29890001 0.30599999 0.89499998
-0.2974 0.30599999 0.89499998
-0.29620001 0.30630001 0.89600003
-0.25409999 0.308 0.90100002
-0.2494 0.308 0.90100002
-0.2168 0.3039 0.889
-0.214 0.30430001 0.88999999
-0.21269999 0.3046 0.89099997
-0.2097 0.30700001 0.898
-0.2034 0.30700001 0.898
-0.2014 0.30630001 0.89600003
-0.1926 0.30700001 0.898
-0.189 0.30630001 0.89600003
-0.1875 0.30630001 0.89600003
-0.1859 0.30630001 0.89600003
-0.1842 0.30599999 0.89499998
-0.18260001 0.30599999 0.89499998
-0.18009999 0.30700001 0.898
-0.1789 0.30770001 0.89999998
-0.1778 0.30840001 0.90200001
-0.1752 0.30939999 0.90499997
-0.1723 0.30970001 0.90600002
-0.1709 0.31009999 0.90700001
-0.169 0.30939999 0.90499997
-0.1674 0.30939999 0.90499997
-0.1656 0.3091 0.90399998
-0.1639 0.3087 0.903
-0.1602 0.30770001 0.89999998
-0.1516 0.30599999 0.89499998
-0.15000001 0.30599999 0.89499998
-0.1485 0.30599999 0.89499998
-0.14659999 0.3053 0.89300001
-0.14489999 0.30489999 0.89200002
-0.1432 0.3046 0.89099997
-0.1415 0.30430001 0.88999999
-0.1364 0.30320001 0.88700002
-0.13330001 0.30320001 0.88700002
-0.13160001 0.30289999 0.88599998
-0.1202 0.3091 0.90399998
-0.1189 0.30970001 0.90600002
-0.1172 0.30939999 0.90499997
-0.1141 0.30939999 0.90499997
-0.1124 0.3091 0.90399998
-0.1109 0.30939999 0.90499997
-0.1091 0.3087 0.903
-0.1074 0.30840001 0.90200001
-0.1059 0.30840001 0.90200001
-0.1044 0.3087 0.903
-0.1029 0.3087 0.903
-0.1013 0.3087 0.903
-0.099699996 0.3087 0.903
-0.098200001 0.3087 0.903
-0.096600004 0.3087 0.903
-0.094999999 0.3087 0.903
-0.093400002 0.30840001 0.90200001
-0.091799997 0.30840001 0.90200001
-0.090099998 0.308 0.90100002
-0.071699999 0.30939999 0.90499997
-0.068599999 0.30939999 0.90499997
-0.0669 0.3091 0.90399998
-0.063900001 0.30939999 0.90499997
-0.060699999 0.30939999 0.90499997
-0.057700001 0.31009999 0.90700001
-0.056200001 0.31040001 0.90799999
-0.051800001 0.3125 0.91399997
-0.0504 0.3132 0.91600001
-0.048700001 0.3125 0.91399997
-0.046999998 0.3118 0.912
-0.045200001 0.31079999 0.90899998
-0.0436 0.31040001 0.90799999
-0.041999999 0.31009999 0.90700001
-0.032600001 0.31040001 0.90799999
-0.030999999 0.31040001 0.90799999
-0.0295 0.31040001 0.90799999
-0.027899999 0.31040001 0.90799999
-0.0263 0.31009999 0.90700001
-0.024700001 0.31009999 0.90700001
-0.0231 0.30970001 0.90600002
-0.021500001 0.30939999 0.90499997
-0.02 0.30939999 0.90499997
-0.0184 0.30970001 0.90600002
-0.016899999 0.31009999 0.90700001
-0.0153 0.31009999 0.90700001
-0.0137 0.31009999 0.90700001
-0.0121 0.30970001 0.90600002
-0.0106 0.31009999 0.90700001
-0.0089999996 0.30970001 0.90600002
-0.0074 0.30970001 0.90600002
-0.0057999999 0.30970001 0.90600002
0.035 0.31009999 0.90700001
0.036600001 0.31040001 0.90799999
0.038199998 0.31079999 0.90899998
0.039799999 0.31079999 0.90899998
0.041499998 0.3114 0.91100001
0.0449 0.3132 0.91600001
0.049400002 0.3118 0.912
0.052299999 0.31009999 0.90700001
0.055300001 0.30939999 0.90499997
0.056600001 0.308 0.90100002
0.057999998 0.30700001 0.898
0.059599999 0.30700001 0.898
0.069799997 0.31110001 0.91000003
0.071599998 0.31209999 0.91299999
0.073100001 0.3118 0.912
0.074600004 0.3114 0.91100001
0.076099999 0.31110001 0.91000003
0.077699997 0.31110001 0.91000003
0.080700003 0.31040001 0.90799999
0.083700001 0.31009999 0.90700001
0.085299999 0.31009999 0.90700001
0.086900003 0.31009999 0.90700001
0.088500001 0.31009999 0.90700001
0.089900002 0.30970001 0.90600002
0.091600001 0.31009999 0.90700001
0.093000002 0.30939999 0.90499997
0.094300002 0.3087 0.903
0.095899999 0.3087 0.903
0.097199999 0.308 0.90100002
0.098899998 0.30840001 0.90200001
0.1004 0.308 0.90100002
0.1022 0.3087 0.903
0.1042 0.31009999 0.90700001
0.1136 0.3145 0.92000002
0.1161 0.3125 0.91399997
0.1185 0.31040001 0.90799999
0.1199 0.31009999 0.90700001
0.1215 0.31009999 0.90700001
0.1232 0.31040001 0.90799999
0.1248 0.31040001 0.90799999
0.1265 0.31079999 0.90899998
0.12819999 0.31110001 0.91000003
0.12989999 0.3114 0.91100001
0.13160001 0.3118 0.912
0.1332 0.3118 0.912
0.1346 0.3114 0.91100001
0.1364 0.3118 0.912
0.1381 0.31209999 0.91299999
0.1398 0.3125 0.91399997
0.1432 0.31279999 0.91500002
0.1451 0.31349999 0.917
0.14669999 0.31349999 0.917
0.14839999 0.31380001 0.91799998
0.1497 0.3132 0.91600001
0.15090001 0.3125 0.91399997
0.1587 0.3091 0.90399998
0.1602 0.3091 0.90399998
0.1622 0.30970001 0.90600002
-0.34779999 0.30410001 0.88499999
-0.34619999 0.30410001 0.88499999
-0.34509999 0.3044 0.88599998
-0.34349999 0.3044 0.88599998
-0.3416 0.30410001 0.88499999
-0.34009999 0.30410001 0.88499999
-0.33739999 0.30579999 0.88999999
-0.30840001 0.3062 0.89099997
-0.30689999 0.3062 0.89099997
-0.3053 0.3062 0.89099997
-0.30410001 0.30649999 0.89200002
-0.30289999 0.30680001 0.89300001
-0.30050001 0.3075 0.89499998
-0.2983 0.30680001 0.89300001
-0.2967 0.30680001 0.89300001
-0.29550001 0.30720001 0.89399999
-0.2525 0.3096 0.90100002
-0.2494 0.3096 0.90100002
-0.2492 0.31130001 0.90600002
-0.21879999 0.3062 0.89099997
-0.21709999 0.30579999 0.88999999
-0.2155 0.30579999 0.88999999
-0.2142 0.3062 0.89099997
-0.21340001 0.30720001 0.89399999
-0.2104 0.3096 0.90100002
-0.2093 0.31029999 0.903
-0.1912 0.3089 0.89899999
-0.189 0.30790001 0.89600003
-0.1875 0.30790001 0.89600003
-0.1857 0.3075 0.89499998
-0.184 0.30720001 0.89399999
-0.1811 0.3075 0.89499998
-0.1787 0.3089 0.89899999
-0.17739999 0.30919999 0.89999998
-0.17640001 0.31029999 0.903
-0.1752 0.31099999 0.90499997
-0.1737 0.31099999 0.90499997
-0.1709 0.3116 0.90700001
-0.1691 0.31130001 0.90600002
-0.1674 0.31099999 0.90499997
-0.16580001 0.31099999 0.90499997
-0.16429999 0.31099999 0.90499997
-0.1604 0.3096 0.90100002
-0.15189999 0.3082 0.89700001
-0.1504 0.3082 0.89700001
-0.1486 0.30790001 0.89600003
-0.1469 0.3075 0.89499998
-0.1451 0.30680001 0.89300001
-0.1433 0.30649999 0.89200002
-0.1416 0.3062 0.89099997
-0.1399 0.30579999 0.88999999
-0.1381 0.30509999 0.88800001
-0.1365 0.30509999 0.88800001
-0.13330001 0.3048 0.88700002
-0.1207 0.31200001 0.90799999
-0.1193 0.3123 0.90899998
-0.1175 0.3116 0.90700001
-0.1158 0.31130001 0.90600002
-0.1142 0.31130001 0.90600002
-0.1125 0.31099999 0.90499997
-0.1108 0.31060001 0.90399998
-0.1091 0.31029999 0.903
-0.1073 0.3096 0.90100002
-0.1042 0.3096 0.90100002
-0.1025 0.30919999 0.89999998
-0.1011 0.3096 0.90100002
-0.099399999 0.30919999 0.89999998
-0.097800002 0.30919999 0.89999998
-0.096299998 0.30919999 0.89999998
-0.094700001 0.30919999 0.89999998
-0.093199998 0.30919999 0.89999998
-0.091600001 0.30919999 0.89999998
-0.090000004 0.30919999 0.89999998
-0.088600002 0.3096 0.90100002
-0.086999997 0.3096 0.90100002
-0.073299997 0.31099999 0.90499997
-0.068499997 0.31060001 0.90399998
-0.0669 0.31029999 0.903
-0.0638 0.31060001 0.90399998
-0.0623 0.31099999 0.90499997
-0.060699999 0.31099999 0.90499997
-0.057700001 0.3116 0.90700001
-0.0546 0.31200001 0.90799999
-0.051800001 0.3141 0.91399997
-0.0504 0.31470001 0.91600001
-0.048599999 0.31369999 0.91299999
-0.046999998 0.3134 0.912
-0.045299999 0.31299999 0.91100001
-0.043699998 0.3127 0.91000003
-0.042100001 0.31200001 0.90799999
-0.040399998 0.3116 0.90700001
-0.0295 0.3127 0.91000003
-0.028000001 0.3127 0.91000003
-0.0263 0.31200001 0.90799999
-0.024800001 0.3123 0.90899998
-0.0232 0.31200001 0.90799999
-0.021600001 0.3116 0.90700001
-0.02 0.3116 0.90700001
-0.0184 0.3116 0.90700001
-0.016899999 0.3116 0.90700001
-0.0153 0.3116 0.90700001
-0.0137 0.3116 0.90700001
-0.0121 0.3116 0.90700001
-0.0106 0.3116 0.90700001
-0.0089999996 0.3116 0.90700001
-0.0074 0.3116 0.90700001
-0.0059000002 0.3116 0.90700001
0.031800002 0.31099999 0.90499997
0.033399999 0.31130001 0.90600002
0.035 0.3116 0.90700001
0.036600001 0.31200001 0.90799999
0.038199998 0.31200001 0.90799999
0.039799999 0.31200001 0.90799999
0.0414 0.3127 0.91000003
0.046399999 0.3141 0.91399997
0.048 0.3141 0.91399997
0.049400002 0.3134 0.912
0.050799999 0.31200001 0.90799999
0.052299999 0.3116 0.90700001
0.0579 0.30790001 0.89600003
0.069799997 0.3127 0.91000003
0.071599998 0.3134 0.912
0.073100001 0.3134 0.912
0.074600004 0.3127 0.91000003
0.076099999 0.3127 0.91000003
0.077500001 0.31200001 0.90799999
0.079099998 0.31200001 0.90799999
0.080600001 0.3116 0.90700001
0.082199998 0.3116 0.90700001
0.083700001 0.3116 0.90700001
0.085199997 0.31130001 0.90600002
0.086900003 0.3116 0.90700001
0.088399999 0.31130001 0.90600002
0.089900002 0.31130001 0.90600002
0.091600001 0.3116 0.90700001
0.093000002 0.31099999 0.90499997
0.094300002 0.31029999 0.903
0.095799997 0.30989999 0.90200001
0.097199999 0.3096 0.90100002
0.098899998 0.30989999 0.90200001
0.1004 0.3096 0.90100002
0.1135 0.31580001 0.91900003
0.1149 0.31510001 0.917
0.1161 0.3141 0.91399997
0.1173 0.31299999 0.91100001
0.1186 0.3123 0.90899998
0.12 0.31200001 0.90799999
0.1215 0.3116 0.90700001
0.1232 0.31200001 0.90799999
0.1248 0.31200001 0.90799999
0.12630001 0.31200001 0.90799999
0.12800001 0.3123 0.90899998
0.12980001 0.3127 0.91000003
0.13150001 0.31299999 0.91100001
0.1332 0.3134 0.912
0.1348 0.3134 0.912
0.1364 0.3134 0.912
0.1381 0.31369999 0.91299999
0.1398 0.3141 0.91399997
0.14139999 0.3141 0.91399997
0.1433 0.31470001 0.91600001
0.147 0.31580001 0.91900003
0.1486 0.31580001 0.91900003
0.1498 0.31510001 0.917
0.1522 0.3134 0.912
0.1569 0.31029999 0.903
0.1585 0.31029999 0.903
0.1601 0.31029999 0.903
0.1639 0.3116 0.90700001
-0.38929999 0.30939999 0.89600003
-0.38139999 0.308 0.89200002
-0.366 0.308 0.89200002
-0.35049999 0.30669999 0.88800001
-0.34850001 0.30630001 0.88700002
-0.347 0.30630001 0.88700002
-0.34549999 0.30630001 0.88700002
-0.3439 0.30630001 0.88700002
-0.34200001 0.30599999 0.88599998
-0.34009999 0.30559999 0.88499999
-0.3301 0.30630001 0.88700002
-0.30649999 0.30739999 0.88999999
-0.30379999 0.30770001 0.89099997
-0.30289999 0.30840001 0.89300001
-0.3017 0.3087 0.89399999
-0.29789999 0.308 0.89200002
-0.29609999 0.30770001 0.89099997
-0.25229999 0.31079999 0.89999998
-0.24969999 0.31150001 0.90200001
-0.2216 0.30939999 0.89600003
-0.21780001 0.30840001 0.89300001
-0.2139 0.30939999 0.89600003
-0.2128 0.31009999 0.898
-0.20389999 0.3132 0.90700001
-0.1892 0.3098 0.89700001
-0.1875 0.30939999 0.89600003
-0.1857 0.3091 0.89499998
-0.1822 0.30840001 0.89300001
-0.1806 0.30840001 0.89300001
-0.1793 0.3087 0.89399999
-0.17820001 0.30939999 0.89600003
-0.177 0.31009999 0.898
-0.176 0.31110001 0.90100002
-0.17479999 0.3118 0.903
-0.1735 0.31220001 0.90399998
-0.17209999 0.3125 0.90499997
-0.1705 0.3125 0.90499997
-0.1505 0.31009999 0.898
-0.1468 0.3087 0.89399999
-0.14489999 0.308 0.89200002
-0.1432 0.30770001 0.89099997
-0.1416 0.30770001 0.89099997
-0.1399 0.30739999 0.88999999
-0.1381 0.30669999 0.88800001
-0.1365 0.30669999 0.88800001
-0.1224 0.31389999 0.90899998
-0.1213 0.31490001 0.912
-0.1197 0.31490001 0.912
-0.1178 0.3143 0.91000003
-0.116 0.3136 0.90799999
-0.1143 0.3132 0.90700001
-0.1125 0.3125 0.90499997
-0.109 0.31150001 0.90200001
-0.1072 0.31079999 0.89999998
-0.1054 0.31009999 0.898
-0.1038 0.31009999 0.898
-0.1023 0.31009999 0.898
-0.1006 0.3098 0.89700001
-0.097400002 0.30939999 0.89600003
-0.096000001 0.3098 0.89700001
-0.094499998 0.31009999 0.898
-0.092799999 0.3098 0.89700001
-0.091399997 0.31009999 0.898
-0.0898 0.31009999 0.898
-0.088399999 0.3105 0.89899999
-0.085500002 0.31110001 0.90100002
-0.076700002 0.3136 0.90799999
-0.073399998 0.31290001 0.90600002
-0.068499997 0.31220001 0.90399998
-0.065399997 0.31220001 0.90399998
-0.0638 0.31220001 0.90399998
-0.0623 0.3125 0.90499997
-0.0592 0.3125 0.90499997
-0.0546 0.3136 0.90799999
-0.053199999 0.3143 0.91000003
-0.0502 0.31529999 0.91299999
-0.048500001 0.31459999 0.91100001
-0.0469 0.3143 0.91000003
-0.045299999 0.3143 0.91000003
-0.043699998 0.3143 0.91000003
-0.042100001 0.3143 0.91000003
-0.040600002 0.3143 0.91000003
-0.034299999 0.31459999 0.91100001
-0.032699998 0.3143 0.91000003
-0.031099999 0.31459999 0.91100001
-0.0295 0.3143 0.91000003
-0.028000001 0.3143 0.91000003
-0.0264 0.3143 0.91000003
-0.024800001 0.3143 0.91000003
-0.0232 0.31389999 0.90899998
-0.021600001 0.3132 0.90700001
-0.02 0.3132 0.90700001
-0.0184 0.3132 0.90700001
-0.016899999 0.3132 0.90700001
-0.0153 0.31290001 0.90600002
-0.0137 0.31290001 0.90600002
-0.0121 0.3132 0.90700001
-0.0106 0.3136 0.90799999
-0.0089999996 0.3132 0.90700001
-0.0074 0.3125 0.90499997
-0.0057999999 0.31290001 0.90600002
0.033399999 0.31290001 0.90600002
0.035 0.3132 0.90700001
0.036600001 0.3136 0.90799999
0.038199998 0.3136 0.90799999
0.039799999 0.3136 0.90799999
0.0414 0.31389999 0.90899998
0.0447 0.31490001 0.912
0.0493 0.3143 0.91000003
0.050799999 0.3136 0.90799999
0.052299999 0.3132 0.90700001
0.07 0.31490001 0.912
0.071599998 0.31490001 0.912
0.073100001 0.31490001 0.912
0.074600004 0.3143 0.91000003
0.076099999 0.31389999 0.90899998
0.077500001 0.3136 0.90799999
0.079000004 0.3132 0.90700001
0.080499999 0.31290001 0.90600002
0.082000002 0.3125 0.90499997
0.083499998 0.31220001 0.90399998
0.085100003 0.3125 0.90499997
0.0867 0.3125 0.90499997
0.088299997 0.3125 0.90499997
0.0898 0.3125 0.90499997
0.091399997 0.3125 0.90499997
0.092900001 0.31220001 0.90399998
0.0942 0.31150001 0.90200001
0.095600002 0.31079999 0.89999998
0.1003 0.31079999 0.89999998
0.1149 0.31670001 0.917
0.1173 0.31459999 0.91100001
0.1186 0.31389999 0.90899998
0.12 0.3136 0.90799999
0.1215 0.3132 0.90700001
0.123 0.3132 0.90700001
0.1248 0.3136 0.90799999
0.12630001 0.3136 0.90799999
0.1279 0.3136 0.90799999
0.12980001 0.3143 0.91000003
0.1313 0.3143 0.91000003
0.1331 0.31459999 0.91100001
0.1346 0.31459999 0.91100001
0.1364 0.31490001 0.912
0.1381 0.31529999 0.91299999
0.1398 0.31560001 0.91399997
0.1416 0.31600001 0.91500002
0.1454 0.31740001 0.91900003
0.1473 0.31810001 0.921
0.15000001 0.317 0.91799998
0.1583 0.31150001 0.90200001
0.1601 0.3118 0.903
0.162 0.3125 0.90499997
0.1639 0.3132 0.90700001
-0.41080001 0.30610001 0.88200003
-0.3874 0.31060001 0.89499998
-0.3854 0.31029999 0.89399999
-0.34740001 0.3082 0.88800001
-0.3459 0.3082 0.88800001
-0.3439 0.30790001 0.88700002
-0.34240001 0.30790001 0.88700002
-0.33930001 0.30790001 0.88700002
-0.32780001 0.30720001 0.88499999
-0.32730001 0.3096 0.89200002
-0.32570001 0.31099999 0.89600003
-0.31990001 0.30989999 0.89300001
-0.3177 0.30919999 0.89099997
-0.30689999 0.30919999 0.89099997
-0.3057 0.3096 0.89200002
-0.3048 0.31029999 0.89399999
-0.30430001 0.31130001 0.89700001
-0.30309999 0.31169999 0.898
-0.3012 0.31130001 0.89700001
-0.29890001 0.31060001 0.89499998
-0.25170001 0.31169999 0.898
-0.25009999 0.31169999 0.898
-0.249 0.3141 0.90499997
-0.2203 0.31130001 0.89700001
-0.2185 0.31099999 0.89600003
-0.21520001 0.31060001 0.89499998
-0.2139 0.31099999 0.89600003
-0.2128 0.31169999 0.898
-0.1894 0.31169999 0.898
-0.1877 0.31130001 0.89700001
-0.1859 0.31099999 0.89600003
-0.1842 0.31060001 0.89499998
-0.18260001 0.31060001 0.89499998
-0.18089999 0.31029999 0.89399999
-0.1793 0.31029999 0.89399999
-0.178 0.31060001 0.89499998
-0.17640001 0.31060001 0.89499998
-0.1754 0.31169999 0.898
-0.1743 0.31240001 0.89999998
-0.17129999 0.3127 0.90100002
-0.17020001 0.3134 0.903
-0.1674 0.3141 0.90499997
-0.16580001 0.3141 0.90499997
-0.16429999 0.3141 0.90499997
-0.15549999 0.31240001 0.89999998
-0.1471 0.31099999 0.89600003
-0.1454 0.31060001 0.89499998
-0.1389 0.30989999 0.89300001
-0.12530001 0.31479999 0.90700001
-0.1243 0.31619999 0.91100001
-0.1231 0.31720001 0.91399997
-0.1219 0.31830001 0.917
-0.1203 0.31830001 0.917
-0.1164 0.31619999 0.91100001
-0.1144 0.31510001 0.90799999
-0.1089 0.3127 0.90100002
-0.1072 0.31240001 0.89999998
-0.1035 0.31060001 0.89499998
-0.1018 0.31029999 0.89399999
-0.1002 0.30989999 0.89300001
-0.097099997 0.30989999 0.89300001
-0.095700003 0.31060001 0.89499998
-0.0942 0.31060001 0.89499998
-0.092600003 0.31060001 0.89499998
-0.091200002 0.31099999 0.89600003
-0.089599997 0.31099999 0.89600003
-0.088200003 0.31130001 0.89700001
-0.0867 0.31169999 0.898
-0.085299999 0.31200001 0.89899999
-0.0766 0.31479999 0.90700001
-0.071699999 0.3141 0.90499997
-0.065300003 0.3134 0.903
-0.063699998 0.3134 0.903
-0.062199999 0.3134 0.903
-0.060600001 0.3134 0.903
-0.057700001 0.31479999 0.90700001
-0.0546 0.31510001 0.90799999
-0.053199999 0.31580001 0.91000003
-0.0517 0.31650001 0.912
-0.050099999 0.31650001 0.912
-0.048500001 0.31580001 0.91000003
-0.046799999 0.31549999 0.90899998
-0.045299999 0.31580001 0.91000003
-0.043699998 0.31580001 0.91000003
-0.042199999 0.31619999 0.91100001
-0.0407 0.31650001 0.912
-0.032699998 0.31619999 0.91100001
-0.031099999 0.31619999 0.91100001
-0.0296 0.31619999 0.91100001
-0.028000001 0.31650001 0.912
-0.0264 0.31619999 0.91100001
-0.024800001 0.31619999 0.91100001
-0.0232 0.31580001 0.91000003
-0.021600001 0.31510001 0.90799999
-0.02 0.31479999 0.90700001
-0.0184 0.31439999 0.90600002
-0.016799999 0.3141 0.90499997
-0.0152 0.3141 0.90499997
-0.0137 0.3141 0.90499997
-0.0121 0.3141 0.90499997
-0.0106 0.31439999 0.90600002
-0.0089999996 0.31439999 0.90600002
-0.0074 0.3141 0.90499997
-0.0057999999 0.3141 0.90499997
0.035100002 0.31510001 0.90799999
0.036600001 0.31510001 0.90799999
0.038199998 0.31510001 0.90799999
0.039799999 0.31510001 0.90799999
0.0414 0.31549999 0.90899998
0.044599999 0.31580001 0.91000003
0.0493 0.31549999 0.90899998
0.050799999 0.31510001 0.90799999
0.052299999 0.31479999 0.90700001
0.053800002 0.31439999 0.90600002
0.077500001 0.31479999 0.90700001
0.078900002 0.31439999 0.90600002
0.080300003 0.31380001 0.90399998
0.081799999 0.3134 0.903
0.083300002 0.31310001 0.90200001
0.084899999 0.3134 0.903
0.086499996 0.3134 0.903
0.088200003 0.31380001 0.90399998
0.089699998 0.31380001 0.90399998
0.091300003 0.31380001 0.90399998
0.092799999 0.3134 0.903
0.096900001 0.31169999 0.898
0.098700002 0.31240001 0.89999998
0.1001 0.31200001 0.89899999
0.1113 0.31720001 0.91399997
0.1161 0.31720001 0.91399997
0.1174 0.31650001 0.912
0.1187 0.31580001 0.91000003
0.12 0.31510001 0.90799999
0.1216 0.31510001 0.90799999
0.123 0.31479999 0.90700001
0.1246 0.31479999 0.90700001
0.12620001 0.31479999 0.90700001
0.1279 0.31510001 0.90799999
0.1296 0.31549999 0.90899998
0.1313 0.31580001 0.91000003
0.1329 0.31580001 0.91000003
0.1346 0.31619999 0.91100001
0.1364 0.31650001 0.912
0.138 0.31650001 0.912
0.1397 0.31690001 0.91299999
0.14139999 0.31720001 0.91399997
0.14300001 0.31720001 0.91399997
0.1451 0.31830001 0.917
0.147 0.31900001 0.91900003
0.1497 0.3179 0.91600001
0.1508 0.31690001 0.91299999
0.1575 0.31439999 0.90600002
0.15889999 0.3141 0.90499997
0.1604 0.3141 0.90499997
0.16410001 0.31510001 0.90799999
-0.41460001 0.30939999 0.88700002
-0.4122 0.3087 0.88499999
-0.39160001 0.3118 0.89399999
-0.38870001 0.31079999 0.89099997
-0.3872 0.31079999 0.89099997
-0.38339999 0.31150001 0.89300001
-0.35049999 0.31110001 0.89200002
-0.34819999 0.31040001 0.88999999
-0.3459 0.30970001 0.88800001
-0.3443 0.30970001 0.88800001
-0.34079999 0.30939999 0.88700002
-0.32969999 0.30899999 0.88599998
-0.32859999 0.30939999 0.88700002
-0.32780001 0.31009999 0.889
-0.32769999 0.31150001 0.89300001
-0.32690001 0.31220001 0.89499998
-0.32570001 0.3125 0.89600003
-0.3238 0.31220001 0.89499998
-0.31 0.31079999 0.89099997
-0.3091 0.31150001 0.89300001
-0.30790001 0.3118 0.89399999
-0.30700001 0.3125 0.89600003
-0.30579999 0.31290001 0.89700001
-0.30500001 0.3136 0.89899999
-0.30149999 0.3132 0.898
-0.29890001 0.31220001 0.89499998
-0.2507 0.31389999 0.89999998
-0.2489 0.3136 0.89899999
-0.249 0.31569999 0.90499997
-0.2252 0.3132 0.898
-0.2237 0.3132 0.898
-0.2221 0.3132 0.898
-0.21699999 0.3125 0.89600003
-0.2133 0.31389999 0.89999998
-0.1875 0.3125 0.89600003
-0.1859 0.3125 0.89600003
-0.184 0.3118 0.89399999
-0.1824 0.3118 0.89399999
-0.18089999 0.3118 0.89399999
-0.1793 0.3118 0.89399999
-0.1776 0.31150001 0.89300001
-0.17389999 0.3132 0.898
-0.171 0.3136 0.89899999
-0.1698 0.3143 0.90100002
-0.1672 0.31529999 0.90399998
-0.1656 0.31529999 0.90399998
-0.1573 0.3143 0.90100002
-0.15549999 0.31389999 0.89999998
-0.1505 0.3132 0.898
-0.149 0.3132 0.898
-0.1424 0.3125 0.89600003
-0.1266 0.31569999 0.90499997
-0.12549999 0.31670001 0.90799999
-0.1246 0.31850001 0.91299999
-0.1235 0.31990001 0.917
-0.1225 0.32120001 0.921
-0.1209 0.32120001 0.921
-0.119 0.3206 0.91900003
-0.1146 0.31709999 0.90899998
-0.1071 0.3136 0.89899999
-0.105 0.31220001 0.89499998
-0.1033 0.31150001 0.89300001
-0.0999 0.31079999 0.89099997
-0.098300003 0.31040001 0.88999999
-0.096699998 0.31040001 0.88999999
-0.095399998 0.31110001 0.89200002
-0.093999997 0.31150001 0.89300001
-0.092399999 0.31150001 0.89300001
-0.090899996 0.31150001 0.89300001
-0.088 0.31220001 0.89499998
-0.086499996 0.3125 0.89600003
-0.085199997 0.3132 0.898
-0.083999999 0.31459999 0.90200001
-0.062199999 0.315 0.903
-0.060600001 0.315 0.903
-0.0592 0.31569999 0.90499997
-0.0546 0.31670001 0.90799999
-0.053100001 0.31709999 0.90899998
-0.051600002 0.31740001 0.91000003
-0.050099999 0.31810001 0.912
-0.048500001 0.31740001 0.91000003
-0.046799999 0.31709999 0.90899998
-0.045299999 0.31779999 0.91100001
-0.044 0.31920001 0.91500002
-0.0425 0.31990001 0.917
-0.041000001 0.3206 0.91900003
-0.0394 0.3206 0.91900003
-0.0328 0.31810001 0.912
-0.031199999 0.31810001 0.912
-0.0296 0.31810001 0.912
-0.028000001 0.31810001 0.912
-0.0264 0.31810001 0.912
-0.024900001 0.31810001 0.912
-0.0232 0.31740001 0.91000003
-0.021600001 0.31670001 0.90799999
-0.02 0.31639999 0.90700001
-0.0184 0.31569999 0.90499997
-0.0152 0.315 0.903
-0.0137 0.315 0.903
-0.0121 0.315 0.903
-0.0105 0.31569999 0.90499997
-0.0089999996 0.31569999 0.90499997
-0.0074 0.31600001 0.90600002
0.035100002 0.31709999 0.90899998
0.036699999 0.31709999 0.90899998
0.038199998 0.31670001 0.90799999
0.039799999 0.31670001 0.90799999
0.0414 0.31709999 0.90899998
0.043000001 0.31709999 0.90899998
0.044500001 0.31709999 0.90899998
0.0462 0.31740001 0.91000003
0.0493 0.31740001 0.91000003
0.050900001 0.31740001 0.91000003
0.0524 0.31670001 0.90799999
0.0539 0.31670001 0.90799999
0.078900002 0.31569999 0.90499997
0.080200002 0.315 0.903
0.081699997 0.31459999 0.90200001
0.083099999 0.31389999 0.89999998
0.084799998 0.3143 0.90100002
0.086300001 0.3143 0.90100002
0.088 0.31459999 0.90200001
0.089599997 0.315 0.903
0.0911 0.31459999 0.90200001
0.096900001 0.3132 0.898
0.1132 0.3195 0.91600001
0.1162 0.31920001 0.91500002
0.1175 0.31850001 0.91299999
0.1187 0.31740001 0.91000003
0.12 0.31670001 0.90799999
0.1215 0.31639999 0.90700001
0.123 0.31639999 0.90700001
0.1246 0.31639999 0.90700001
0.12620001 0.31639999 0.90700001
0.1278 0.31639999 0.90700001
0.1295 0.31670001 0.90799999
0.1311 0.31670001 0.90799999
0.1329 0.31740001 0.91000003
0.1345 0.31740001 0.91000003
0.1362 0.31779999 0.91100001
0.138 0.31810001 0.912
0.13950001 0.31810001 0.912
0.1411 0.31810001 0.912
0.1427 0.31810001 0.912
0.1446 0.3188 0.91399997
0.15090001 0.3188 0.91399997
0.1522 0.31810001 0.912
0.1547 0.31670001 0.90799999
0.15620001 0.31670001 0.90799999
0.1576 0.31639999 0.90700001
0.1592 0.31639999 0.90700001
0.1608 0.31639999 0.90700001
-0.39030001 0.3123 0.89099997
-0.3883 0.31200001 0.88999999
-0.38589999 0.31130001 0.88800001
-0.38519999 0.31200001 0.88999999
-0.3836 0.31200001 0.88999999
-0.38209999 0.31200001 0.88999999
-0.3556 0.31580001 0.90100002
-0.35249999 0.31439999 0.89700001
-0.34900001 0.3127 0.89200002
-0.3466 0.31200001 0.88999999
-0.34470001 0.3116 0.889
-0.34279999 0.31130001 0.88800001
-0.34079999 0.3109 0.88700002
-0.329 0.30989999 0.884
-0.3274 0.30989999 0.884
-0.32699999 0.3109 0.88700002
-0.32659999 0.31200001 0.88999999
-0.32609999 0.31299999 0.89300001
-0.3249 0.3134 0.89399999
-0.32300001 0.31299999 0.89300001
-0.3215 0.31299999 0.89300001
-0.3177 0.3123 0.89099997
-0.3098 0.31369999 0.89499998
-0.30860001 0.3141 0.89600003
-0.30739999 0.31439999 0.89700001
-0.3062 0.31479999 0.898
-0.3037 0.31549999 0.89999998
-0.30180001 0.31510001 0.89899999
-0.29929999 0.3141 0.89600003
-0.29609999 0.3123 0.89099997
-0.25170001 0.31479999 0.898
-0.24349999 0.31830001 0.90799999
-0.2422 0.3186 0.90899998
-0.2396 0.3193 0.91100001
-0.22570001 0.31549999 0.89999998
-0.2244 0.31580001 0.90100002
-0.2226 0.31549999 0.89999998
-0.2211 0.31549999 0.89999998
-0.21950001 0.31549999 0.89999998
-0.2175 0.31479999 0.898
-0.2159 0.31479999 0.898
-0.21430001 0.31479999 0.898
-0.213 0.31510001 0.89899999
-0.21170001 0.31549999 0.89999998
-0.2088 0.31580001 0.90100002
-0.1857 0.31369999 0.89499998
-0.1842 0.31369999 0.89499998
-0.18260001 0.31369999 0.89499998
-0.1813 0.3141 0.89600003
-0.1797 0.3141 0.89600003
-0.1778 0.3134 0.89399999
-0.17640001 0.31369999 0.89499998
-0.175 0.3141 0.89600003
-0.17389999 0.31479999 0.898
-0.1725 0.31510001 0.89899999
-0.1708 0.31479999 0.898
-0.1575 0.31619999 0.90200001
-0.1557 0.31580001 0.90100002
-0.1426 0.31439999 0.89700001
-0.1243 0.3193 0.91100001
-0.1233 0.32069999 0.91500002
-0.1225 0.32280001 0.921
-0.1209 0.32280001 0.921
-0.1191 0.32249999 0.92000002
-0.1146 0.3186 0.90899998
-0.1108 0.31690001 0.90399998
-0.1072 0.31549999 0.89999998
-0.1052 0.3141 0.89600003
-0.1033 0.31299999 0.89300001
-0.1016 0.3127 0.89200002
-0.099799998 0.31200001 0.88999999
-0.096600004 0.3116 0.889
-0.095200002 0.31200001 0.88999999
-0.093800001 0.3123 0.89099997
-0.092200004 0.3123 0.89099997
-0.090700001 0.3123 0.89099997
-0.089199997 0.3127 0.89200002
-0.087700002 0.3127 0.89200002
-0.086199999 0.31299999 0.89300001
-0.084700003 0.31299999 0.89300001
-0.083700001 0.31510001 0.89899999
-0.082500003 0.31650001 0.903
-0.078199998 0.31830001 0.90799999
-0.073299997 0.31720001 0.90499997
-0.07 0.31650001 0.903
-0.068400003 0.31619999 0.90200001
-0.066699997 0.31580001 0.90100002
-0.063699998 0.31619999 0.90200001
-0.0592 0.31720001 0.90499997
-0.0561 0.31760001 0.90600002
-0.0546 0.3179 0.90700001
-0.049899999 0.31830001 0.90799999
-0.048300002 0.31830001 0.90799999
-0.046799999 0.31830001 0.90799999
-0.045299999 0.3193 0.91100001
-0.044 0.32069999 0.91500002
-0.042599998 0.32210001 0.91900003
-0.031099999 0.3193 0.91100001
-0.0295 0.31900001 0.91000003
-0.028000001 0.3193 0.91100001
-0.0264 0.31900001 0.91000003
-0.024800001 0.3193 0.91100001
-0.0232 0.31900001 0.91000003
-0.021600001 0.31830001 0.90799999
-0.02 0.3179 0.90700001
-0.0184 0.31760001 0.90600002
-0.016799999 0.31720001 0.90499997
-0.0152 0.31690001 0.90399998
-0.0137 0.31650001 0.903
-0.0121 0.31650001 0.903
-0.0105 0.31720001 0.90499997
-0.0089999996 0.31720001 0.90499997
-0.0074 0.3179 0.90700001
0.035100002 0.31830001 0.90799999
0.036600001 0.31830001 0.90799999
0.038199998 0.31830001 0.90799999
0.039799999 0.31830001 0.90799999
0.0414 0.31830001 0.90799999
0.0429 0.3179 0.90700001
0.044500001 0.31830001 0.90799999
0.050799999 0.31830001 0.90799999
0.0524 0.3186 0.90899998
0.0539 0.31830001 0.90799999
0.080300003 0.31690001 0.90399998
0.081799999 0.31650001 0.903
0.0832 0.31580001 0.90100002
0.084799998 0.31580001 0.90100002
0.086300001 0.31580001 0.90100002
0.087899998 0.31580001 0.90100002
0.089400001 0.31580001 0.90100002
0.090899996 0.31549999 0.89999998
0.098499998 0.31479999 0.898
0.1001 0.31510001 0.89899999
0.1163 0.3211 0.91600001
0.1177 0.3204 0.91399997
0.119 0.3197 0.912
0.1203 0.31900001 0.91000003
0.1216 0.31830001 0.90799999
0.123 0.3179 0.90700001
0.1246 0.3179 0.90700001
0.1261 0.31760001 0.90600002
0.1345 0.31900001 0.91000003
0.13609999 0.31900001 0.91000003
0.1376 0.31900001 0.91000003
0.1392 0.31900001 0.91000003
0.1408 0.31900001 0.91000003
0.1425 0.3193 0.91100001
0.1443 0.3197 0.912
0.1462 0.3204 0.91399997
0.1478 0.3204 0.91399997
0.14929999 0.3204 0.91399997
0.15109999 0.32069999 0.91500002
0.15270001 0.32069999 0.91500002
0.1541 0.3204 0.91399997
0.1566 0.31900001 0.91000003
0.1583 0.3193 0.91100001
0.15970001 0.31900001 0.91000003
0.16150001 0.3193 0.91100001
0.1636 0.3204 0.91399997
-0.412 0.3163 0.898
-0.4127 0.31810001 0.903
-0.3942 0.31459999 0.89300001
-0.37020001 0.31389999 0.89099997
-0.3664 0.31459999 0.89300001
-0.3572 0.3188 0.90499997
-0.354 0.31740001 0.90100002
-0.35049999 0.31560001 0.89600003
-0.34779999 0.31459999 0.89300001
-0.34509999 0.31349999 0.88999999
-0.3432 0.3132 0.889
-0.33970001 0.31279999 0.88800001
-0.33129999 0.31209999 0.88599998
-0.3301 0.3125 0.88700002
-0.32859999 0.3125 0.88700002
-0.3274 0.31279999 0.88800001
-0.32690001 0.31389999 0.89099997
-0.3265 0.31490001 0.89399999
-0.32530001 0.31529999 0.89499998
-0.32300001 0.31459999 0.89300001
-0.3215 0.31459999 0.89300001
-0.30930001 0.3163 0.898
-0.30770001 0.3163 0.898
-0.3062 0.3163 0.898
-0.3053 0.317 0.89999998
-0.2967 0.31459999 0.89300001
-0.2525 0.31740001 0.90100002
-0.24950001 0.3195 0.90700001
-0.24349999 0.31990001 0.90799999
-0.2419 0.31990001 0.90799999
-0.2403 0.31990001 0.90799999
-0.22759999 0.31740001 0.90100002
-0.2247 0.3177 0.90200001
-0.2229 0.31740001 0.90100002
-0.22130001 0.31740001 0.90100002
-0.21969999 0.31740001 0.90100002
-0.21789999 0.317 0.89999998
-0.21610001 0.31670001 0.89899999
-0.18629999 0.3163 0.898
-0.185 0.31670001 0.89899999
-0.18359999 0.317 0.89999998
-0.1821 0.317 0.89999998
-0.1787 0.31670001 0.89899999
-0.1754 0.3163 0.898
-0.17389999 0.3163 0.898
-0.17209999 0.31600001 0.89700001
-0.17020001 0.31529999 0.89499998
-0.16859999 0.31529999 0.89499998
-0.1675 0.31600001 0.89700001
-0.16670001 0.31740001 0.90100002
-0.1649 0.317 0.89999998
-0.1432 0.31740001 0.90100002
-0.14120001 0.31990001 0.90799999
-0.124 0.3202 0.90899998
-0.1228 0.3213 0.912
-0.1219 0.32300001 0.917
-0.1206 0.32370001 0.91900003
-0.1188 0.32300001 0.917
-0.1164 0.32089999 0.91100001
-0.1143 0.3195 0.90700001
-0.1104 0.31740001 0.90100002
-0.1085 0.3163 0.898
-0.1066 0.31529999 0.89499998
-0.1046 0.31389999 0.89099997
-0.1013 0.3132 0.889
-0.099699996 0.3132 0.889
-0.097999997 0.3125 0.88700002
-0.096500002 0.31279999 0.88800001
-0.095299996 0.31389999 0.89099997
-0.093900003 0.31420001 0.89200002
-0.090899996 0.31459999 0.89300001
-0.089299999 0.31459999 0.89300001
-0.087800004 0.31459999 0.89300001
-0.086199999 0.31459999 0.89300001
-0.084799998 0.31490001 0.89399999
-0.0836 0.3163 0.898
-0.0823 0.31740001 0.90100002
-0.073399998 0.3195 0.90700001
-0.068400003 0.31810001 0.903
-0.066799998 0.3177 0.90200001
-0.063699998 0.31810001 0.903
-0.062199999 0.31810001 0.903
-0.0592 0.3188 0.90499997
-0.0546 0.3195 0.90700001
-0.052999999 0.3195 0.90700001
-0.049899999 0.3195 0.90700001
-0.048300002 0.3195 0.90700001
-0.046700001 0.3195 0.90700001
-0.045299999 0.3206 0.91000003
-0.0425 0.32300001 0.917
-0.039299998 0.32339999 0.91799998
-0.034400001 0.32159999 0.91299999
-0.031099999 0.3206 0.91000003
-0.027899999 0.3202 0.90899998
-0.0263 0.31990001 0.90799999
-0.024800001 0.3202 0.90899998
-0.021500001 0.31920001 0.90600002
-0.02 0.3195 0.90700001
-0.016799999 0.3188 0.90499997
-0.0152 0.31850001 0.90399998
-0.0137 0.31810001 0.903
-0.0121 0.31850001 0.90399998
-0.0105 0.3188 0.90499997
-0.0089999996 0.3188 0.90499997
-0.0074 0.3188 0.90499997
0.035100002 0.3206 0.91000003
0.036699999 0.3202 0.90899998
0.038199998 0.31990001 0.90799999
0.039799999 0.31990001 0.90799999
0.0414 0.31990001 0.90799999
0.044500001 0.31990001 0.90799999
0.054099999 0.3206 0.91000003
0.0832 0.31740001 0.90100002
0.084799998 0.31740001 0.90100002
0.086300001 0.31740001 0.90100002
0.087899998 0.31740001 0.90100002
0.089400001 0.31740001 0.90100002
0.090899996 0.317 0.89999998
0.093699999 0.31600001 0.89700001
0.1146 0.32229999 0.91500002
0.1161 0.322 0.91399997
0.1175 0.32159999 0.91299999
0.119 0.3213 0.912
0.1203 0.3206 0.91000003
0.1216 0.31990001 0.90799999
0.1232 0.31990001 0.90799999
0.1248 0.31990001 0.90799999
0.1345 0.3206 0.91000003
0.13609999 0.3206 0.91000003
0.1376 0.3206 0.91000003
0.1392 0.3206 0.91000003
0.1408 0.3206 0.91000003
0.1424 0.3206 0.91000003
0.1443 0.3213 0.912
0.1478 0.322 0.91399997
0.14929999 0.322 0.91399997
0.1513 0.32269999 0.91600001
0.15279999 0.32269999 0.91600001
0.1543 0.32229999 0.91500002
0.15549999 0.32159999 0.91299999
0.1569 0.3213 0.912
0.1585 0.3213 0.912
0.1604 0.322 0.91399997
0.1622 0.32229999 0.91500002
0.16410001 0.32300001 0.917
0.1657 0.32300001 0.917
-0.41429999 0.3197 0.903
-0.4127 0.3197 0.903
-0.38850001 0.31400001 0.88700002
-0.38609999 0.31330001 0.88499999
-0.38299999 0.31330001 0.88499999
-0.36559999 0.3154 0.89099997
-0.3599 0.32139999 0.90799999
-0.35679999 0.31999999 0.90399998
-0.354 0.31900001 0.90100002
-0.35049999 0.31720001 0.89600003
-0.34740001 0.31580001 0.89200002
-0.34509999 0.31510001 0.88999999
-0.3432 0.31470001 0.889
-0.3416 0.31470001 0.889
-0.34009999 0.31470001 0.889
-0.33199999 0.31439999 0.88800001
-0.33050001 0.31439999 0.88800001
-0.32890001 0.31439999 0.88800001
-0.32780001 0.31470001 0.889
-0.32690001 0.3154 0.89099997
-0.32609999 0.3161 0.89300001
-0.32460001 0.3161 0.89300001
-0.32269999 0.31580001 0.89200002
-0.31169999 0.31720001 0.89600003
-0.31079999 0.3179 0.898
-0.30930001 0.3179 0.898
-0.30770001 0.3179 0.898
-0.3062 0.3179 0.898
-0.30250001 0.31900001 0.90100002
-0.2527 0.31720001 0.89600003
-0.25170001 0.3179 0.898
-0.2432 0.3211 0.90700001
-0.24160001 0.3211 0.90700001
-0.2403 0.32139999 0.90799999
-0.23119999 0.3197 0.903
-0.22759999 0.31900001 0.90100002
-0.2262 0.3193 0.90200001
-0.2247 0.3193 0.90200001
-0.2229 0.31900001 0.90100002
-0.22130001 0.31900001 0.90100002
-0.21969999 0.31900001 0.90100002
-0.21789999 0.3186 0.89999998
-0.2159 0.3179 0.898
-0.2141 0.3175 0.89700001
-0.2066 0.3179 0.898
-0.19140001 0.3186 0.89999998
-0.1865 0.31819999 0.89899999
-0.18520001 0.3186 0.89999998
-0.18359999 0.3186 0.89999998
-0.1823 0.31900001 0.90100002
-0.1807 0.31900001 0.90100002
-0.177 0.3179 0.898
-0.17389999 0.3179 0.898
