ply
format ascii 1.0
comment PCL generated
element vertex 1609
property float x
property float y
property float z
element camera 0
property float view_px
property float view_py
property float view_pz
property float x_axisx
property float x_axisy
property float x_axisz
property float y_axisx
property float y_axisy
property float y_axisz
property float z_axisx
property float z_axisy
property float z_axisz
property float focal
property float scalex
property float scaley
property float centerx
property float centery
property int viewportx
property int viewporty
property float k1
property float k2
end_header
-0.057599999 0.32980001 0.90499997
-0.056000002 0.32980001 0.90499997
-0.054499999 0.32980001 0.90499997
-0.052900001 0.32980001 0.90499997
-0.0513 0.32980001 0.90499997
-0.049800001 0.3301 0.90600002
-0.0482 0.3301 0.90600002
-0.046700001 0.3301 0.90600002
-0.0451 0.3301 0.90600002
-0.032499999 0.32980001 0.90499997
-0.024700001 0.32980001 0.90499997
-0.0231 0.32980001 0.90499997
-0.02 0.32980001 0.90499997
-0.0184 0.32980001 0.90499997
-0.016799999 0.32980001 0.90499997
-0.0153 0.3301 0.90600002
-0.0137 0.33050001 0.90700001
-0.0122 0.33090001 0.90799999
-0.0106 0.33050001 0.90700001
-0.0089999996 0.3312 0.90899998
0.035100002 0.33090001 0.90799999
0.036699999 0.3312 0.90899998
0.038400002 0.33230001 0.912
0.039999999 0.33230001 0.912
0.041499998 0.33230001 0.912
0.043099999 0.33199999 0.91100001
0.047800001 0.33160001 0.91000003
0.050900001 0.33160001 0.91000003
0.052499998 0.33199999 0.91100001
0.054200001 0.33230001 0.912
0.055799998 0.33270001 0.91299999
0.057300001 0.33230001 0.912
0.058899999 0.33230001 0.912
0.0605 0.33230001 0.912
0.062199999 0.33270001 0.91299999
0.068700001 0.33379999 0.91600001
0.085299999 0.33050001 0.90700001
0.086900003 0.33050001 0.90700001
0.090000004 0.33050001 0.90700001
0.091600001 0.33050001 0.90700001
0.093199998 0.33050001 0.90700001
0.094800003 0.33050001 0.90700001
0.096299998 0.33050001 0.90700001
0.097999997 0.33090001 0.90799999
0.1013 0.3312 0.90899998
0.1046 0.33199999 0.91100001
0.1062 0.33199999 0.91100001
0.1095 0.33230001 0.912
0.1111 0.33230001 0.912
0.1124 0.33160001 0.91000003
0.1152 0.33050001 0.90700001
0.1183 0.33050001 0.90700001
0.1212 0.32980001 0.90499997
0.1229 0.3301 0.90600002
0.1362 0.33199999 0.91100001
0.1406 0.3312 0.90899998
0.1424 0.33160001 0.91000003
0.14399999 0.33160001 0.91000003
0.1459 0.33230001 0.912
0.1473 0.33199999 0.91100001
0.1564 0.3312 0.90899998
0.15800001 0.3312 0.90899998
0.15970001 0.33160001 0.91000003
0.1617 0.33230001 0.912
0.1636 0.33309999 0.91399997
-0.3766 0.3251 0.88800001
-0.37639999 0.32620001 0.89099997
-0.3741 0.32699999 0.89300001
-0.37259999 0.32699999 0.89300001
-0.37099999 0.32699999 0.89300001
-0.3691 0.32659999 0.89200002
-0.3671 0.32620001 0.89099997
-0.35170001 0.32620001 0.89099997
-0.35010001 0.32620001 0.89099997
-0.31600001 0.331 0.90399998
-0.3141 0.33059999 0.903
-0.31 0.32949999 0.89999998
-0.30410001 0.3299 0.90100002
-0.3019 0.331 0.90399998
-0.3017 0.33250001 0.90799999
-0.252 0.3292 0.89899999
-0.2507 0.32949999 0.89999998
-0.24969999 0.3303 0.90200001
-0.2481 0.3303 0.90200001
-0.2463 0.3299 0.90100002
-0.2348 0.3292 0.89899999
-0.2335 0.32949999 0.89999998
-0.23199999 0.32949999 0.89999998
-0.2304 0.32949999 0.89999998
-0.2289 0.32949999 0.89999998
-0.226 0.3299 0.90100002
-0.2244 0.3299 0.90100002
-0.2207 0.33140001 0.90499997
-0.2192 0.33140001 0.90499997
-0.2173 0.331 0.90399998
-0.2158 0.331 0.90399998
-0.19410001 0.32879999 0.898
-0.193 0.32949999 0.89999998
-0.191 0.32879999 0.898
-0.1892 0.32839999 0.89700001
-0.1875 0.3281 0.89600003
-0.1855 0.32730001 0.89399999
-0.182 0.32659999 0.89200002
-0.1804 0.32659999 0.89200002
-0.177 0.32879999 0.898
-0.17560001 0.3292 0.89899999
-0.1743 0.32949999 0.89999998
-0.17290001 0.3299 0.90100002
-0.17129999 0.3299 0.90100002
-0.17 0.3303 0.90200001
-0.1684 0.3303 0.90200001
-0.167 0.33059999 0.903
-0.16410001 0.331 0.90399998
-0.1608 0.33059999 0.903
-0.1595 0.33140001 0.90499997
-0.15800001 0.33140001 0.90499997
-0.1564 0.33140001 0.90499997
-0.1548 0.33140001 0.90499997
-0.1533 0.33140001 0.90499997
-0.1505 0.3321 0.90700001
-0.1489 0.3321 0.90700001
-0.1462 0.33320001 0.91000003
-0.14480001 0.3335 0.91100001
-0.13150001 0.3317 0.90600002
-0.12530001 0.3321 0.90700001
-0.1237 0.3321 0.90700001
-0.1222 0.3321 0.90700001
-0.1203 0.33140001 0.90499997
-0.1188 0.33140001 0.90499997
-0.1171 0.331 0.90399998
-0.1154 0.33059999 0.903
-0.1138 0.33059999 0.903
-0.1122 0.33059999 0.903
-0.1106 0.3303 0.90200001
-0.1089 0.3299 0.90100002
-0.1056 0.32949999 0.89999998
-0.1044 0.33059999 0.903
-0.096799999 0.33140001 0.90499997
-0.093699999 0.33140001 0.90499997
-0.086000003 0.3321 0.90700001
-0.084399998 0.3317 0.90600002
-0.081100002 0.33140001 0.90499997
-0.079599999 0.33140001 0.90499997
-0.078000002 0.33140001 0.90499997
-0.074900001 0.33140001 0.90499997
-0.067100003 0.3317 0.90600002
-0.0656 0.3321 0.90700001
-0.063900001 0.33140001 0.90499997
-0.057500001 0.33059999 0.903
-0.0559 0.33059999 0.903
-0.052900001 0.33140001 0.90499997
-0.0513 0.33140001 0.90499997
-0.049800001 0.33140001 0.90499997
-0.0482 0.3317 0.90600002
-0.046700001 0.3317 0.90600002
-0.0451 0.3317 0.90600002
-0.043499999 0.3317 0.90600002
-0.030999999 0.3317 0.90600002
-0.0294 0.3321 0.90700001
-0.024700001 0.3317 0.90600002
-0.0231 0.3317 0.90600002
-0.021500001 0.33140001 0.90499997
-0.02 0.33140001 0.90499997
-0.0184 0.33140001 0.90499997
-0.016799999 0.33140001 0.90499997
-0.0153 0.3317 0.90600002
-0.0137 0.3317 0.90600002
-0.0122 0.33250001 0.90799999
-0.0106 0.3321 0.90700001
-0.0089999996 0.3321 0.90700001
0.033500001 0.33250001 0.90799999
0.035100002 0.3328 0.90899998
0.036699999 0.33320001 0.91000003
0.038400002 0.3339 0.912
0.039999999 0.3339 0.912
0.041499998 0.3339 0.912
0.043099999 0.3335 0.91100001
0.044599999 0.33320001 0.91000003
0.047699999 0.3328 0.90899998
0.050900001 0.3328 0.90899998
0.052499998 0.33320001 0.91000003
0.054099999 0.3335 0.91100001
0.055799998 0.3339 0.912
0.057300001 0.3339 0.912
0.062199999 0.3346 0.91399997
0.068800002 0.33570001 0.917
0.071900003 0.33539999 0.91600001
0.0744 0.33250001 0.90799999
0.075900003 0.3321 0.90700001
0.079000004 0.3321 0.90700001
0.083700001 0.3321 0.90700001
0.085299999 0.3321 0.90700001
0.086900003 0.3321 0.90700001
0.088500001 0.3321 0.90700001
0.090000004 0.3321 0.90700001
0.091499999 0.3317 0.90600002
0.093199998 0.3321 0.90700001
0.094800003 0.3321 0.90700001
0.096199997 0.3317 0.90600002
0.097900003 0.3321 0.90700001
0.0995 0.3321 0.90700001
0.1012 0.33250001 0.90799999
0.1045 0.33320001 0.91000003
0.1061 0.33320001 0.91000003
0.1093 0.33320001 0.91000003
0.1107 0.3328 0.90899998
0.1122 0.33250001 0.90799999
0.1137 0.33250001 0.90799999
0.1152 0.3321 0.90700001
0.1168 0.3321 0.90700001
0.1183 0.3321 0.90700001
0.1199 0.3321 0.90700001
0.1215 0.3321 0.90700001
0.123 0.3321 0.90700001
0.1249 0.3328 0.90899998
0.1303 0.3346 0.91399997
0.1319 0.3346 0.91399997
0.14049999 0.33250001 0.90799999
0.14210001 0.33250001 0.90799999
0.14380001 0.3328 0.90899998
0.1455 0.33320001 0.91000003
0.14920001 0.33430001 0.91299999
0.1533 0.3328 0.90899998
0.1547 0.33250001 0.90799999
0.15620001 0.33250001 0.90799999
0.1578 0.33250001 0.90799999
0.1596 0.3328 0.90899998
0.16150001 0.3335 0.91100001
0.16320001 0.3339 0.912
-0.37540001 0.32960001 0.89600003
-0.3734 0.3292 0.89499998
-0.37180001 0.3292 0.89499998
-0.36950001 0.3285 0.89300001
-0.3671 0.32780001 0.89099997
-0.35389999 0.32699999 0.889
-0.35319999 0.32780001 0.89099997
-0.35280001 0.32890001 0.89399999
-0.3513 0.32890001 0.89399999
-0.30410001 0.33140001 0.90100002
-0.3028 0.33180001 0.90200001
-0.25350001 0.33070001 0.89899999
-0.2525 0.33140001 0.90100002
-0.25099999 0.33140001 0.90100002
-0.2494 0.33140001 0.90100002
-0.2476 0.33109999 0.89999998
-0.2457 0.33070001 0.89899999
-0.24420001 0.33070001 0.89899999
-0.23379999 0.3292 0.89499998
-0.23280001 0.33000001 0.89700001
-0.2315 0.3303 0.898
-0.2289 0.33109999 0.89999998
-0.22759999 0.33140001 0.90100002
-0.2234 0.33219999 0.903
-0.2192 0.33289999 0.90499997
-0.2158 0.3326 0.90399998
-0.1926 0.3303 0.898
-0.191 0.3303 0.898
-0.1873 0.3292 0.89499998
-0.1855 0.32890001 0.89399999
-0.18350001 0.3281 0.89200002
-0.1822 0.3285 0.89300001
-0.1806 0.3285 0.89300001
-0.1793 0.32890001 0.89399999
-0.17820001 0.32960001 0.89600003
-0.1772 0.33070001 0.89899999
-0.1758 0.33109999 0.89999998
-0.1745 0.33140001 0.90100002
-0.17309999 0.33180001 0.90200001
-0.1717 0.33219999 0.903
-0.16859999 0.33219999 0.903
-0.1656 0.3326 0.90399998
-0.1639 0.33219999 0.903
-0.16230001 0.33219999 0.903
-0.1608 0.33219999 0.903
-0.1595 0.33289999 0.90499997
-0.15800001 0.33289999 0.90499997
-0.1566 0.33329999 0.90600002
-0.15360001 0.3337 0.90700001
-0.1522 0.33399999 0.90799999
-0.1508 0.3344 0.90899998
-0.14659999 0.3355 0.912
-0.1453 0.3362 0.91399997
-0.1417 0.3351 0.91100001
-0.1348 0.3337 0.90700001
-0.127 0.33399999 0.90799999
-0.12549999 0.33399999 0.90799999
-0.1239 0.33399999 0.90799999
-0.1222 0.3337 0.90700001
-0.1203 0.33289999 0.90499997
-0.1188 0.33289999 0.90499997
-0.1169 0.33219999 0.903
-0.1151 0.33140001 0.90100002
-0.1104 0.33140001 0.90100002
-0.1056 0.33109999 0.89999998
-0.1044 0.33219999 0.903
-0.099699996 0.33219999 0.903
-0.095799997 0.3348 0.91000003
-0.087800004 0.3344 0.90899998
-0.082900003 0.3337 0.90700001
-0.081200004 0.33329999 0.90600002
-0.079599999 0.33289999 0.90499997
-0.078000002 0.33289999 0.90499997
-0.076300003 0.33219999 0.903
-0.0656 0.3337 0.90700001
-0.0559 0.33219999 0.903
-0.052900001 0.33289999 0.90499997
-0.0513 0.33289999 0.90499997
-0.049800001 0.33289999 0.90499997
-0.0482 0.33329999 0.90600002
-0.046700001 0.33329999 0.90600002
-0.0451 0.33329999 0.90600002
-0.043499999 0.33289999 0.90499997
-0.035700001 0.3337 0.90700001
-0.0341 0.3337 0.90700001
-0.032600001 0.3337 0.90700001
-0.030999999 0.3337 0.90700001
-0.0295 0.33399999 0.90799999
-0.0231 0.33329999 0.90600002
-0.021500001 0.33289999 0.90499997
-0.02 0.33329999 0.90600002
-0.0184 0.33289999 0.90499997
-0.016799999 0.33289999 0.90499997
-0.0153 0.3337 0.90700001
-0.0137 0.33329999 0.90600002
-0.0122 0.33399999 0.90799999
-0.0106 0.3337 0.90700001
-0.0089999996 0.3337 0.90700001
0.033500001 0.33399999 0.90799999
0.035100002 0.33399999 0.90799999
0.036699999 0.3348 0.91000003
0.038400002 0.3355 0.912
0.039999999 0.3355 0.912
0.043000001 0.3348 0.91000003
0.044500001 0.3344 0.90899998
0.052499998 0.3348 0.91000003
0.054099999 0.3351 0.91100001
0.055799998 0.3355 0.912
0.062199999 0.33590001 0.91299999
0.067000002 0.33660001 0.91500002
0.0704 0.33770001 0.91799998
0.071999997 0.3373 0.917
0.073100001 0.3355 0.912
0.074600004 0.3348 0.91000003
0.075999998 0.33399999 0.90799999
0.079000004 0.3337 0.90700001
0.085299999 0.3337 0.90700001
0.086800002 0.33329999 0.90600002
0.088299997 0.33289999 0.90499997
0.0898 0.33289999 0.90499997
0.091399997 0.33289999 0.90499997
0.093000002 0.33289999 0.90499997
0.094599999 0.33329999 0.90600002
0.097900003 0.3337 0.90700001
0.0995 0.3337 0.90700001
0.101 0.3337 0.90700001
0.1027 0.33399999 0.90799999
0.1077 0.3348 0.91000003
0.1108 0.3348 0.91000003
0.1122 0.33399999 0.90799999
0.1153 0.33399999 0.90799999
0.1169 0.33399999 0.90799999
0.1183 0.3337 0.90700001
0.12 0.33399999 0.90799999
0.1216 0.33399999 0.90799999
0.1249 0.3344 0.90899998
0.1266 0.3348 0.91000003
0.13 0.3355 0.912
0.13160001 0.3355 0.912
0.14049999 0.33399999 0.90799999
0.1419 0.3337 0.90700001
0.1436 0.33399999 0.90799999
0.1455 0.3348 0.91000003
0.1547 0.33399999 0.90799999
0.15620001 0.33399999 0.90799999
0.1578 0.33399999 0.90799999
0.1596 0.3344 0.90899998
0.1613 0.3348 0.91000003
0.1631 0.3351 0.91100001
0.1648 0.3355 0.912
-0.41260001 0.3312 0.89600003
-0.4111 0.3312 0.89600003
-0.3766 0.33230001 0.89899999
-0.37459999 0.3319 0.898
-0.37310001 0.3319 0.898
-0.3707 0.3312 0.89600003
-0.35780001 0.32780001 0.88700002
-0.35550001 0.32859999 0.889
-0.35429999 0.32890001 0.88999999
-0.35440001 0.33039999 0.89399999
-0.354 0.33149999 0.89700001
-0.35249999 0.33149999 0.89700001
-0.35049999 0.3312 0.89600003
-0.33719999 0.33340001 0.90200001
-0.33019999 0.3326 0.89999998
-0.3141 0.33379999 0.903
-0.3044 0.33340001 0.90200001
-0.30320001 0.33379999 0.903
-0.30230001 0.33450001 0.90499997
-0.25409999 0.333 0.90100002
-0.25310001 0.33379999 0.903
-0.25099999 0.333 0.90100002
-0.2494 0.333 0.90100002
-0.2476 0.3326 0.89999998
-0.2455 0.3319 0.898
-0.2436 0.33149999 0.89700001
-0.23999999 0.3308 0.89499998
-0.2317 0.33230001 0.89899999
-0.2304 0.3326 0.89999998
-0.2291 0.333 0.90100002
-0.2278 0.33340001 0.90200001
-0.2265 0.33379999 0.903
-0.22490001 0.33379999 0.903
-0.22050001 0.33410001 0.90399998
-0.21709999 0.33379999 0.903
-0.19149999 0.3301 0.89300001
-0.1904 0.3308 0.89499998
-0.18880001 0.3308 0.89499998
-0.1875 0.3312 0.89600003
-0.1857 0.3308 0.89499998
-0.1822 0.3301 0.89300001
-0.1795 0.3308 0.89499998
-0.17829999 0.33149999 0.89700001
-0.17739999 0.3326 0.89999998
-0.176 0.333 0.90100002
-0.17470001 0.33340001 0.90200001
-0.1733 0.33379999 0.903
-0.1717 0.33379999 0.903
-0.17020001 0.33379999 0.903
-0.16859999 0.33379999 0.903
-0.16249999 0.33410001 0.90399998
-0.1608 0.33379999 0.903
-0.1595 0.33450001 0.90499997
-0.1566 0.33489999 0.90600002
-0.1552 0.33520001 0.90700001
-0.1538 0.33559999 0.90799999
-0.15099999 0.33629999 0.91000003
-0.1481 0.3371 0.912
-0.1469 0.3378 0.91399997
-0.1436 0.33739999 0.91299999
-0.1348 0.33520001 0.90700001
-0.1302 0.33559999 0.90799999
-0.1286 0.33559999 0.90799999
-0.12549999 0.33559999 0.90799999
-0.1237 0.33520001 0.90700001
-0.1222 0.33520001 0.90700001
-0.1203 0.33450001 0.90499997
-0.1186 0.33410001 0.90399998
-0.1168 0.33340001 0.90200001
-0.1151 0.333 0.90100002
-0.1134 0.3326 0.89999998
-0.1119 0.3326 0.89999998
-0.1103 0.3326 0.89999998
-0.1085 0.3319 0.898
-0.1068 0.33149999 0.89700001
-0.1043 0.33340001 0.90200001
-0.099699996 0.33379999 0.903
-0.089500003 0.33629999 0.91000003
-0.086000003 0.33520001 0.90700001
-0.084399998 0.33520001 0.90700001
-0.079599999 0.33489999 0.90600002
-0.076300003 0.33379999 0.903
-0.074900001 0.33450001 0.90499997
-0.073399998 0.33489999 0.90600002
-0.055799998 0.33340001 0.90200001
-0.0528 0.33410001 0.90399998
-0.051199999 0.33379999 0.903
-0.049800001 0.33450001 0.90499997
-0.0482 0.33450001 0.90499997
-0.046599999 0.33450001 0.90499997
-0.0451 0.33450001 0.90499997
-0.043499999 0.33450001 0.90499997
-0.041900001 0.33450001 0.90499997
-0.0403 0.33450001 0.90499997
-0.0372 0.33489999 0.90600002
-0.034200002 0.33559999 0.90799999
-0.032600001 0.33559999 0.90799999
-0.030999999 0.33559999 0.90799999
-0.0295 0.336 0.90899998
-0.016799999 0.33489999 0.90600002
-0.0153 0.33520001 0.90700001
-0.0137 0.33520001 0.90700001
-0.0122 0.33559999 0.90799999
-0.0106 0.33520001 0.90700001
-0.0089999996 0.33520001 0.90700001
0.033399999 0.33489999 0.90600002
0.035100002 0.33559999 0.90799999
0.036699999 0.336 0.90899998
0.038400002 0.3371 0.912
0.039999999 0.3371 0.912
0.041499998 0.33669999 0.91100001
0.044599999 0.33629999 0.91000003
0.0493 0.336 0.90899998
0.050900001 0.336 0.90899998
0.054099999 0.33669999 0.91100001
0.055799998 0.3371 0.912
0.057300001 0.3371 0.912
0.059 0.33739999 0.91299999
0.060600001 0.33739999 0.91299999
0.070200004 0.3382 0.91500002
0.071699999 0.3378 0.91399997
0.072999999 0.33629999 0.91000003
0.075900003 0.33520001 0.90700001
0.077500001 0.33520001 0.90700001
0.078900002 0.33450001 0.90499997
0.082000002 0.33450001 0.90499997
0.0836 0.33450001 0.90499997
0.085199997 0.33489999 0.90600002
0.0867 0.33450001 0.90499997
0.088299997 0.33450001 0.90499997
0.0898 0.33450001 0.90499997
0.091300003 0.33410001 0.90399998
0.093000002 0.33450001 0.90499997
0.099399999 0.33489999 0.90600002
0.1009 0.33489999 0.90600002
0.1107 0.336 0.90899998
0.1123 0.336 0.90899998
0.114 0.33629999 0.91000003
0.1153 0.33559999 0.90799999
0.1169 0.33559999 0.90799999
0.1185 0.33559999 0.90799999
0.1202 0.336 0.90899998
0.1217 0.336 0.90899998
0.1235 0.33629999 0.91000003
0.1252 0.33669999 0.91100001
0.1269 0.3371 0.912
0.1286 0.33739999 0.91299999
0.1302 0.33739999 0.91299999
0.1331 0.33669999 0.91100001
0.1345 0.33629999 0.91000003
0.13590001 0.336 0.90899998
0.1388 0.33520001 0.90700001
0.1418 0.33489999 0.90600002
0.1432 0.33450001 0.90499997
0.1566 0.33629999 0.91000003
0.15800001 0.336 0.90899998
0.15970001 0.33629999 0.91000003
0.1617 0.3371 0.912
0.16320001 0.3371 0.912
0.16500001 0.33739999 0.91299999
-0.4131 0.33309999 0.89700001
-0.41150001 0.33309999 0.89700001
-0.40889999 0.3335 0.898
-0.35550001 0.3301 0.889
-0.35429999 0.33050001 0.88999999
-0.35440001 0.33199999 0.89399999
-0.354 0.33309999 0.89700001
-0.3529 0.3335 0.898
-0.3513 0.3335 0.898
-0.3373 0.3335 0.898
-0.3369 0.3346 0.90100002
-0.32949999 0.3335 0.898
-0.31 0.33419999 0.89999998
-0.30410001 0.3346 0.90100002
-0.30320001 0.3353 0.903
-0.30230001 0.33610001 0.90499997
-0.2534 0.33570001 0.90399998
-0.25099999 0.3346 0.90100002
-0.2491 0.33419999 0.89999998
-0.24699999 0.3335 0.898
-0.2449 0.33270001 0.89600003
-0.2374 0.33090001 0.89099997
-0.23379999 0.3301 0.889
-0.233 0.3312 0.89200002
-0.23199999 0.33419999 0.89999998
-0.2307 0.3346 0.90100002
-0.2296 0.3353 0.903
-0.2252 0.33570001 0.90399998
-0.2236 0.33570001 0.90399998
-0.222 0.33570001 0.90399998
-0.2202 0.3353 0.903
-0.21870001 0.3353 0.903
-0.21709999 0.3353 0.903
-0.21349999 0.3346 0.90100002
-0.21170001 0.33419999 0.89999998
-0.2061 0.33270001 0.89600003
-0.20389999 0.33160001 0.89300001
-0.2016 0.33050001 0.88999999
-0.18970001 0.3312 0.89200002
-0.1859 0.33270001 0.89600003
-0.18009999 0.3335 0.898
-0.1789 0.33419999 0.89999998
-0.1776 0.3346 0.90100002
-0.1762 0.33489999 0.90200001
-0.17479999 0.3353 0.903
-0.1733 0.3353 0.903
-0.1719 0.33570001 0.90399998
-0.1608 0.3353 0.903
-0.15800001 0.33610001 0.90499997
-0.1568 0.33680001 0.90700001
-0.1552 0.33680001 0.90700001
-0.1525 0.33790001 0.91000003
-0.15099999 0.33790001 0.91000003
-0.1494 0.33790001 0.91000003
-0.1478 0.33790001 0.91000003
-0.1434 0.3387 0.912
-0.13330001 0.33719999 0.90799999
-0.1319 0.33750001 0.90899998
-0.1303 0.33750001 0.90899998
-0.1286 0.33719999 0.90799999
-0.127 0.33719999 0.90799999
-0.12549999 0.33719999 0.90799999
-0.1237 0.33680001 0.90700001
-0.122 0.3364 0.90600002
-0.1203 0.33610001 0.90499997
-0.1151 0.3346 0.90100002
-0.1134 0.33419999 0.89999998
-0.1117 0.33379999 0.89899999
-0.1101 0.3335 0.898
-0.1083 0.33270001 0.89600003
-0.1066 0.33230001 0.89499998
-0.1042 0.3346 0.90100002
-0.1013 0.3353 0.903
-0.099699996 0.3353 0.903
-0.098399997 0.33610001 0.90499997
-0.0955 0.33680001 0.90700001
-0.093800001 0.3364 0.90600002
-0.092299998 0.33680001 0.90700001
-0.090800002 0.33719999 0.90799999
-0.087700002 0.33719999 0.90799999
-0.086000003 0.33680001 0.90700001
-0.084399998 0.33680001 0.90700001
-0.078000002 0.33610001 0.90499997
-0.074900001 0.33610001 0.90499997
-0.071699999 0.33610001 0.90499997
-0.052900001 0.33610001 0.90499997
-0.0513 0.33570001 0.90399998
-0.049699999 0.33570001 0.90399998
-0.0482 0.33610001 0.90499997
-0.046599999 0.33610001 0.90499997
-0.0451 0.3364 0.90600002
-0.041900001 0.33610001 0.90499997
-0.035799999 0.33719999 0.90799999
-0.034200002 0.33719999 0.90799999
-0.031099999 0.33790001 0.91000003
-0.028000001 0.33790001 0.91000003
-0.0264 0.33790001 0.91000003
-0.0137 0.33680001 0.90700001
-0.0122 0.33719999 0.90799999
-0.0106 0.3364 0.90600002
0.033399999 0.33680001 0.90700001
0.035100002 0.33719999 0.90799999
0.036600001 0.33719999 0.90799999
0.0383 0.33790001 0.91000003
0.039900001 0.33829999 0.91100001
0.0493 0.33750001 0.90899998
0.050900001 0.33750001 0.90899998
0.054099999 0.33829999 0.91100001
0.055799998 0.3387 0.912
0.058899999 0.3387 0.912
0.0605 0.3387 0.912
0.069899999 0.33829999 0.91100001
0.071500003 0.33829999 0.91100001
0.072899997 0.33750001 0.90899998
0.0744 0.33719999 0.90799999
0.075900003 0.33680001 0.90700001
0.082000002 0.33610001 0.90499997
0.0836 0.33610001 0.90499997
0.085199997 0.3364 0.90600002
0.0867 0.33610001 0.90499997
0.088200003 0.33570001 0.90399998
0.089599997 0.3353 0.903
0.091200002 0.3353 0.903
0.1043 0.33719999 0.90799999
0.1107 0.33750001 0.90899998
0.1139 0.33750001 0.90899998
0.1153 0.33719999 0.90799999
0.1169 0.33719999 0.90799999
0.1202 0.33750001 0.90899998
0.1219 0.33790001 0.91000003
0.125 0.33790001 0.91000003
0.1266 0.33790001 0.91000003
0.1283 0.33829999 0.91100001
0.1328 0.33750001 0.90899998
0.1356 0.33680001 0.90700001
0.1372 0.33680001 0.90700001
0.14 0.33610001 0.90499997
0.1416 0.33610001 0.90499997
0.1533 0.33750001 0.90899998
0.155 0.33790001 0.91000003
0.1567 0.33829999 0.91100001
0.1582 0.33790001 0.91000003
0.15989999 0.33829999 0.91100001
0.1618 0.33899999 0.91299999
0.1636 0.33939999 0.91399997
-0.37110001 0.3346 0.89700001
-0.3687 0.3339 0.89499998
-0.35659999 0.33129999 0.88800001
-0.35589999 0.33199999 0.88999999
-0.3547 0.33239999 0.89099997
-0.35479999 0.3339 0.89499998
-0.35440001 0.33500001 0.898
-0.3529 0.33500001 0.898
-0.33649999 0.33430001 0.89600003
-0.33570001 0.33500001 0.898
-0.33419999 0.33500001 0.898
-0.3326 0.33500001 0.898
-0.32879999 0.33430001 0.89600003
-0.3272 0.33430001 0.89600003
-0.30930001 0.33500001 0.898
-0.30410001 0.33610001 0.90100002
-0.30320001 0.3369 0.903
-0.30230001 0.33759999 0.90499997
-0.25099999 0.33610001 0.90100002
-0.2491 0.33579999 0.89999998
-0.24259999 0.33309999 0.89300001
-0.24070001 0.3328 0.89200002
-0.23890001 0.33239999 0.89099997
-0.23710001 0.33199999 0.88999999
-0.23270001 0.33239999 0.89099997
-0.2335 0.33579999 0.89999998
-0.23280001 0.3369 0.903
-0.23119999 0.3369 0.903
-0.23010001 0.33759999 0.90499997
-0.2254 0.33759999 0.90499997
-0.22229999 0.33759999 0.90499997
-0.2202 0.3369 0.903
-0.21870001 0.3369 0.903
-0.21690001 0.33649999 0.90200001
-0.21510001 0.33610001 0.90100002
-0.21170001 0.33579999 0.89999998
-0.2084 0.33539999 0.89899999
-0.2066 0.33500001 0.898
-0.2045 0.33430001 0.89600003
-0.20209999 0.3328 0.89200002
-0.1981 0.33129999 0.88800001
-0.1917 0.33090001 0.88700002
-0.1904 0.3339 0.89499998
-0.18970001 0.33539999 0.89899999
-0.1867 0.33579999 0.89999998
-0.18520001 0.33579999 0.89999998
-0.18359999 0.33579999 0.89999998
-0.1821 0.33579999 0.89999998
-0.1807 0.33610001 0.90100002
-0.1793 0.33649999 0.90200001
-0.178 0.3369 0.903
-0.17640001 0.3369 0.903
-0.17479999 0.3369 0.903
-0.1737 0.33759999 0.90499997
-0.1705 0.33759999 0.90499997
-0.169 0.33759999 0.90499997
-0.1639 0.3369 0.903
-0.16230001 0.3369 0.903
-0.1608 0.3369 0.903
-0.1594 0.3373 0.90399998
-0.15800001 0.33759999 0.90499997
-0.1568 0.33840001 0.90700001
-0.1552 0.33840001 0.90700001
-0.1538 0.3387 0.90799999
-0.15099999 0.33950001 0.91000003
-0.1478 0.33950001 0.91000003
-0.1462 0.33950001 0.91000003
-0.14480001 0.33989999 0.91100001
-0.14309999 0.33950001 0.91000003
-0.13349999 0.3391 0.90899998
-0.1303 0.3391 0.90899998
-0.12720001 0.3391 0.90899998
-0.12549999 0.3387 0.90799999
-0.1237 0.33840001 0.90700001
-0.122 0.338 0.90600002
-0.1203 0.33759999 0.90499997
-0.1186 0.3373 0.90399998
-0.1169 0.3369 0.903
-0.1151 0.33610001 0.90100002
-0.1134 0.33579999 0.89999998
-0.1101 0.33500001 0.898
-0.1084 0.3346 0.89700001
-0.1068 0.3346 0.89700001
-0.1054 0.33500001 0.898
-0.1029 0.3369 0.903
-0.1013 0.3369 0.903
-0.099699996 0.3369 0.903
-0.098399997 0.33759999 0.90499997
-0.092100002 0.33759999 0.90499997
-0.090599999 0.338 0.90600002
-0.0876 0.33840001 0.90700001
-0.082800001 0.338 0.90600002
-0.081100002 0.33759999 0.90499997
-0.077799998 0.3369 0.903
-0.0528 0.3373 0.90399998
-0.051199999 0.3369 0.903
-0.049600001 0.33649999 0.90200001
-0.048099998 0.3369 0.903
-0.046599999 0.3373 0.90399998
-0.0451 0.33759999 0.90499997
-0.041900001 0.33759999 0.90499997
-0.040399998 0.338 0.90600002
-0.037300002 0.33840001 0.90700001
-0.035799999 0.3391 0.90899998
-0.034200002 0.3391 0.90899998
-0.028000001 0.33950001 0.91000003
-0.0264 0.33950001 0.91000003
-0.0137 0.338 0.90600002
-0.0121 0.33840001 0.90700001
-0.0105 0.33759999 0.90499997
-0.0089999996 0.3369 0.903
0.035 0.33840001 0.90700001
0.036600001 0.3387 0.90799999
0.038199998 0.3391 0.90899998
0.039900001 0.33950001 0.91000003
0.0414 0.3391 0.90899998
0.046100002 0.3391 0.90899998
0.052499998 0.33950001 0.91000003
0.054200001 0.34020001 0.912
0.055799998 0.34060001 0.91299999
0.057500001 0.34099999 0.91399997
0.059099998 0.34099999 0.91399997
0.060600001 0.34099999 0.91399997
0.0713 0.3387 0.90799999
0.072700001 0.33840001 0.90700001
0.075900003 0.33840001 0.90700001
0.080399998 0.33759999 0.90499997
0.0836 0.33759999 0.90499997
0.085100003 0.33759999 0.90499997
0.0867 0.33759999 0.90499997
0.088100001 0.3369 0.903
0.089599997 0.3369 0.903
0.091200002 0.3369 0.903
0.092799999 0.3369 0.903
0.094400004 0.3373 0.90399998
0.1043 0.3387 0.90799999
0.1124 0.33950001 0.91000003
0.114 0.33950001 0.91000003
0.1156 0.33950001 0.91000003
0.117 0.3391 0.90899998
0.1186 0.3391 0.90899998
0.1203 0.33950001 0.91000003
0.1219 0.33950001 0.91000003
0.1235 0.33950001 0.91000003
0.1252 0.33989999 0.91100001
0.1267 0.33989999 0.91100001
0.1285 0.34020001 0.912
0.1313 0.33950001 0.91000003
0.1328 0.3391 0.90899998
0.1356 0.33840001 0.90700001
0.1372 0.33840001 0.90700001
0.13860001 0.338 0.90600002
0.15270001 0.3414 0.91500002
0.1538 0.34020001 0.912
0.15530001 0.34020001 0.912
0.1573 0.34099999 0.91399997
0.15880001 0.34099999 0.91399997
0.1604 0.34099999 0.91399997
0.16249999 0.34209999 0.917
0.16410001 0.34209999 0.917
0.1661 0.34279999 0.91900003
-0.37110001 0.3362 0.89700001
-0.3664 0.33469999 0.89300001
-0.3601 0.33320001 0.889
-0.35820001 0.3328 0.88800001
-0.35659999 0.3328 0.88800001
-0.35589999 0.33360001 0.88999999
-0.3547 0.3339 0.89099997
-0.35479999 0.33539999 0.89499998
-0.354 0.3362 0.89700001
-0.3529 0.33660001 0.898
-0.35170001 0.3369 0.89899999
-0.33660001 0.33430001 0.89200002
-0.33649999 0.33579999 0.89600003
-0.33570001 0.33660001 0.898
-0.3346 0.3369 0.89899999
-0.333 0.3369 0.89899999
-0.33109999 0.33660001 0.898
-0.3272 0.33579999 0.89600003
-0.32570001 0.33579999 0.89600003
-0.30500001 0.3369 0.89899999
-0.30410001 0.33770001 0.90100002
-0.30320001 0.33840001 0.903
-0.30289999 0.33989999 0.90700001
-0.25099999 0.33770001 0.90100002
-0.2455 0.33660001 0.898
-0.2431 0.33539999 0.89499998
-0.241 0.33469999 0.89300001
-0.2392 0.33430001 0.89200002
-0.2374 0.3339 0.89099997
-0.234 0.33360001 0.88999999
-0.2317 0.33919999 0.90499997
-0.23010001 0.33919999 0.90499997
-0.2288 0.3396 0.90600002
-0.22750001 0.33989999 0.90700001
-0.22570001 0.3396 0.90600002
-0.22390001 0.33919999 0.90499997
-0.22229999 0.33919999 0.90499997
-0.22050001 0.33880001 0.90399998
-0.21870001 0.33840001 0.903
-0.21690001 0.33809999 0.90200001
-0.2133 0.3373 0.89999998
-0.2112 0.33660001 0.898
-0.2097 0.33660001 0.898
-0.2068 0.3369 0.89899999
-0.205 0.33660001 0.898
-0.1988 0.3339 0.89099997
-0.19499999 0.3328 0.88800001
-0.1911 0.3339 0.89099997
-0.19059999 0.33579999 0.89600003
-0.18970001 0.3369 0.89899999
-0.1883 0.3373 0.89999998
-0.18700001 0.33770001 0.90100002
-0.18539999 0.33770001 0.90100002
-0.1838 0.33770001 0.90100002
-0.1823 0.33770001 0.90100002
-0.18089999 0.33809999 0.90200001
-0.1795 0.33840001 0.903
-0.17640001 0.33840001 0.903
-0.17479999 0.33840001 0.903
-0.1737 0.33919999 0.90499997
-0.1707 0.3396 0.90600002
-0.1674 0.33919999 0.90499997
-0.1639 0.33840001 0.903
-0.16230001 0.33840001 0.903
-0.1592 0.33840001 0.903
-0.15800001 0.33919999 0.90499997
-0.1564 0.33919999 0.90499997
-0.1552 0.33989999 0.90700001
-0.15360001 0.33989999 0.90700001
-0.1506 0.34029999 0.90799999
-0.14910001 0.34029999 0.90799999
-0.1473 0.33989999 0.90700001
-0.1443 0.34029999 0.90799999
-0.13500001 0.3407 0.90899998
-0.13349999 0.3407 0.90899998
-0.132 0.34110001 0.91000003
-0.1305 0.34110001 0.91000003
-0.1287 0.3407 0.90899998
-0.12720001 0.3407 0.90899998
-0.12549999 0.34029999 0.90799999
-0.1222 0.33989999 0.90700001
-0.1203 0.33919999 0.90499997
-0.1185 0.33840001 0.903
-0.1169 0.33840001 0.903
-0.1151 0.33770001 0.90100002
-0.1134 0.3373 0.89999998
-0.1117 0.3369 0.89899999
-0.1099 0.3362 0.89700001
-0.1083 0.33579999 0.89600003
-0.107 0.33660001 0.898
-0.1042 0.33770001 0.90100002
-0.1029 0.33840001 0.903
-0.1013 0.33840001 0.903
-0.098399997 0.33919999 0.90499997
-0.093699999 0.33919999 0.90499997
-0.092100002 0.33919999 0.90499997
-0.090499997 0.33919999 0.90499997
-0.089000002 0.33919999 0.90499997
-0.087399997 0.33919999 0.90499997
-0.0858 0.33919999 0.90499997
-0.082699999 0.33919999 0.90499997
-0.081100002 0.33919999 0.90499997
-0.076099999 0.33770001 0.90100002
-0.074500002 0.33770001 0.90100002
-0.054400001 0.33880001 0.90399998
-0.0528 0.33840001 0.903
-0.051100001 0.33770001 0.90100002
-0.0495 0.3373 0.89999998
-0.047899999 0.3373 0.89999998
-0.041999999 0.3396 0.90600002
-0.038899999 0.34029999 0.90799999
-0.037300002 0.34029999 0.90799999
-0.035799999 0.34110001 0.91000003
-0.032699998 0.34110001 0.91000003
-0.0264 0.34110001 0.91000003
-0.02 0.33989999 0.90700001
-0.0152 0.33919999 0.90499997
-0.0137 0.33880001 0.90399998
-0.0121 0.33919999 0.90499997
-0.0105 0.33840001 0.903
0.033399999 0.33919999 0.90499997
0.034899998 0.33919999 0.90499997
0.036600001 0.33989999 0.90700001
0.038199998 0.34029999 0.90799999
0.039799999 0.34029999 0.90799999
0.0414 0.34029999 0.90799999
0.0429 0.34029999 0.90799999
0.046100002 0.34029999 0.90799999
0.047699999 0.3407 0.90899998
0.050799999 0.34029999 0.90799999
0.054099999 0.3414 0.91100001
0.055799998 0.3418 0.912
0.057300001 0.3418 0.912
0.058899999 0.3418 0.912
0.074199997 0.3396 0.90600002
0.0757 0.33919999 0.90499997
0.077299997 0.33919999 0.90499997
0.0788 0.33880001 0.90399998
0.080300003 0.33880001 0.90399998
0.081900001 0.33880001 0.90399998
0.0836 0.33919999 0.90499997
0.085100003 0.33919999 0.90499997
0.086599998 0.33880001 0.90399998
0.088100001 0.33840001 0.903
0.089500003 0.33809999 0.90200001
0.091200002 0.33840001 0.903
0.1156 0.34110001 0.91000003
0.1171 0.34110001 0.91000003
0.1187 0.34110001 0.91000003
0.1203 0.34110001 0.91000003
0.1219 0.34110001 0.91000003
0.1235 0.34110001 0.91000003
0.1252 0.3414 0.91100001
0.1267 0.3414 0.91100001
0.1283 0.3414 0.91100001
0.12980001 0.34110001 0.91000003
0.1312 0.3407 0.90899998
0.13420001 0.34029999 0.90799999
0.1356 0.33989999 0.90700001
0.13699999 0.3396 0.90600002
0.13850001 0.33919999 0.90499997
0.14 0.33919999 0.90499997
0.1506 0.3418 0.912
0.1525 0.34259999 0.91399997
0.1538 0.3418 0.912
0.15530001 0.3418 0.912
0.1573 0.34259999 0.91399997
0.15880001 0.34259999 0.91399997
0.1608 0.34330001 0.91600001
0.1629 0.34439999 0.91900003
0.1647 0.3448 0.92000002
0.1664 0.3452 0.921
0.17820001 0.34630001 0.92400002
-0.41760001 0.3389 0.89999998
-0.41510001 0.33809999 0.898
-0.41260001 0.33739999 0.89600003
-0.3946 0.33930001 0.90100002
-0.35820001 0.3344 0.88800001
-0.35589999 0.3351 0.88999999
-0.3547 0.3355 0.89099997
-0.35210001 0.33739999 0.89600003
-0.35089999 0.3378 0.89700001
-0.3373 0.33660001 0.89399999
-0.33649999 0.33739999 0.89600003
-0.33570001 0.33809999 0.898
-0.33419999 0.33809999 0.898
-0.33230001 0.3378 0.89700001
-0.32839999 0.33700001 0.89499998
-0.3265 0.33660001 0.89399999
-0.30790001 0.33660001 0.89399999
-0.30700001 0.33739999 0.89600003
-0.3046 0.33809999 0.898
-0.25470001 0.34 0.903
-0.25310001 0.34 0.903
-0.2455 0.33809999 0.898
-0.2431 0.33700001 0.89499998
-0.241 0.3362 0.89300001
-0.2392 0.33590001 0.89200002
-0.2374 0.3355 0.89099997
-0.2361 0.33590001 0.89200002
-0.2343 0.3355 0.89099997
-0.2348 0.34079999 0.90499997
-0.23379999 0.34150001 0.90700001
-0.2322 0.34150001 0.90700001
-0.2306 0.34150001 0.90700001
-0.2291 0.34150001 0.90700001
-0.22750001 0.34150001 0.90700001
-0.22570001 0.34110001 0.90600002
-0.22390001 0.34079999 0.90499997
-0.22229999 0.34079999 0.90499997
-0.2202 0.34 0.903
-0.2184 0.3396 0.90200001
-0.2166 0.33930001 0.90100002
-0.2146 0.33849999 0.89899999
-0.211 0.3378 0.89700001
-0.2097 0.33809999 0.898
-0.20630001 0.3378 0.89700001
-0.20299999 0.33739999 0.89600003
-0.20100001 0.33660001 0.89399999
-0.1992 0.3362 0.89300001
-0.1939 0.3351 0.88999999
-0.1917 0.33660001 0.89399999
-0.1901 0.33930001 0.90100002
-0.18870001 0.3396 0.90200001
-0.1874 0.34 0.903
-0.1858 0.34 0.903
-0.1842 0.34 0.903
-0.1825 0.3396 0.90200001
-0.1795 0.34 0.903
-0.178 0.34 0.903
-0.17640001 0.34 0.903
-0.17479999 0.34 0.903
-0.17209999 0.34079999 0.90499997
-0.1705 0.34079999 0.90499997
-0.169 0.34079999 0.90499997
-0.1639 0.34 0.903
-0.16230001 0.34 0.903
-0.1608 0.34 0.903
-0.1595 0.34079999 0.90499997
-0.15800001 0.34079999 0.90499997
-0.1566 0.34110001 0.90600002
-0.1552 0.34150001 0.90700001
-0.1538 0.34189999 0.90799999
-0.1522 0.34189999 0.90799999
-0.14399999 0.34110001 0.90600002
-0.14210001 0.34040001 0.90399998
-0.14030001 0.3396 0.90200001
-0.1322 0.34299999 0.91100001
-0.13060001 0.34299999 0.91100001
-0.12890001 0.34259999 0.91000003
-0.12729999 0.34259999 0.91000003
-0.1257 0.34259999 0.91000003
-0.1223 0.34189999 0.90799999
-0.1169 0.34 0.903
-0.1152 0.3396 0.90200001
-0.1134 0.3389 0.89999998
-0.1119 0.3389 0.89999998
-0.1083 0.33739999 0.89600003
-0.107 0.33809999 0.898
-0.1054 0.33809999 0.898
-0.1041 0.3389 0.89999998
-0.1026 0.33930001 0.90100002
-0.1012 0.3396 0.90200001
-0.098200001 0.34 0.903
-0.092 0.34040001 0.90399998
-0.090499997 0.34079999 0.90499997
-0.0889 0.34040001 0.90399998
-0.087300003 0.34040001 0.90399998
-0.082500003 0.34 0.903
-0.080899999 0.34 0.903
-0.077600002 0.33930001 0.90100002
-0.0744 0.33849999 0.89899999
-0.054299999 0.34 0.903
-0.050999999 0.3389 0.89999998
-0.041999999 0.34150001 0.90700001
-0.024700001 0.34189999 0.90799999
-0.021500001 0.34110001 0.90600002
-0.02 0.34079999 0.90499997
-0.0152 0.34040001 0.90399998
-0.0137 0.34 0.903
-0.0121 0.34 0.903
-0.0105 0.33930001 0.90100002
0.0287 0.34150001 0.90700001
0.033300001 0.34040001 0.90399998
0.034899998 0.34079999 0.90499997
0.036600001 0.34150001 0.90700001
0.038199998 0.34150001 0.90700001
0.039799999 0.34189999 0.90799999
0.0414 0.34189999 0.90799999
0.0429 0.34189999 0.90799999
0.046100002 0.34189999 0.90799999
0.047699999 0.3423 0.90899998
0.0493 0.3423 0.90899998
0.054200001 0.3434 0.912
0.055799998 0.3434 0.912
0.057399999 0.34380001 0.91299999
0.060600001 0.34380001 0.91299999
0.0682 0.3423 0.90899998
0.069700003 0.34189999 0.90799999
0.0757 0.34079999 0.90499997
0.077299997 0.34079999 0.90499997
0.078699999 0.34 0.903
0.080200002 0.34 0.903
0.081799999 0.34 0.903
0.083400004 0.34 0.903
0.085000001 0.34040001 0.90399998
0.086599998 0.34040001 0.90399998
0.088100001 0.34 0.903
0.089599997 0.34 0.903
0.091200002 0.34 0.903
0.092900001 0.34040001 0.90399998
0.1012 0.34189999 0.90799999
0.1095 0.3434 0.912
0.114 0.34259999 0.91000003
0.1156 0.34259999 0.91000003
0.1171 0.34259999 0.91000003
0.1187 0.34259999 0.91000003
0.1204 0.34299999 0.91100001
0.122 0.34299999 0.91100001
0.1237 0.3434 0.912
0.1252 0.34299999 0.91100001
0.1266 0.34259999 0.91000003
0.1295 0.34189999 0.90799999
0.1309 0.34150001 0.90700001
0.1355 0.34110001 0.90600002
0.13689999 0.34079999 0.90499997
0.13860001 0.34110001 0.90600002
0.14 0.34079999 0.90499997
0.14920001 0.34380001 0.91299999
0.1506 0.3434 0.912
0.1525 0.34419999 0.91399997
0.1541 0.34419999 0.91399997
0.1558 0.34450001 0.91500002
0.1578 0.34529999 0.917
0.1594 0.34529999 0.917
0.1613 0.34599999 0.91900003
0.16329999 0.3468 0.921
0.1649 0.3468 0.921
0.1666 0.34720001 0.92199999
-0.41760001 0.34040001 0.89999998
-0.4156 0.34009999 0.89899999
-0.4136 0.33970001 0.898
-0.3971 0.3389 0.89600003
-0.35699999 0.33629999 0.889
-0.35589999 0.33669999 0.88999999
-0.35510001 0.33739999 0.89200002
-0.3513 0.3382 0.89399999
-0.33700001 0.3378 0.89300001
-0.3362 0.33849999 0.89499998
-0.33500001 0.3389 0.89600003
-0.33340001 0.3389 0.89600003
-0.33149999 0.33849999 0.89499998
-0.33000001 0.33849999 0.89499998
-0.32690001 0.33849999 0.89499998
-0.3107 0.3378 0.89300001
-0.3091 0.3378 0.89300001
-0.3082 0.33849999 0.89499998
-0.32699999 0.3802 1.005
-0.25440001 0.34119999 0.90200001
-0.2525 0.34079999 0.90100002
-0.25099999 0.34079999 0.90100002
-0.2476 0.34040001 0.89999998
-0.24600001 0.34040001 0.89999998
-0.2436 0.33930001 0.89700001
-0.24150001 0.33849999 0.89499998
-0.23559999 0.3389 0.89600003
-0.23559999 0.34119999 0.90200001
-0.2351 0.3427 0.90600002
-0.23379999 0.34310001 0.90700001
-0.2322 0.34310001 0.90700001
-0.2291 0.34310001 0.90700001
-0.22750001 0.34310001 0.90700001
-0.2254 0.3423 0.90499997
-0.2234 0.3416 0.903
-0.2218 0.3416 0.903
-0.22 0.34119999 0.90200001
-0.2182 0.34079999 0.90100002
-0.2164 0.34040001 0.89999998
-0.21430001 0.33970001 0.898
-0.2123 0.3389 0.89600003
-0.21080001 0.3389 0.89600003
-0.2094 0.33930001 0.89700001
-0.20810001 0.33970001 0.898
-0.2068 0.34009999 0.89899999
-0.20550001 0.34040001 0.89999998
-0.2034 0.33970001 0.898
-0.20190001 0.33970001 0.898
-0.2001 0.33930001 0.89700001
-0.19499999 0.33849999 0.89499998
-0.19140001 0.34040001 0.89999998
-0.1901 0.34079999 0.90100002
-0.18889999 0.3416 0.903
-0.1874 0.3416 0.903
-0.1858 0.3416 0.903
-0.1842 0.3416 0.903
-0.18269999 0.3416 0.903
-0.1811 0.3416 0.903
-0.1778 0.34119999 0.90200001
-0.1719 0.34200001 0.90399998
-0.17030001 0.34200001 0.90399998
-0.1672 0.34200001 0.90399998
-0.16230001 0.3416 0.903
-0.1608 0.3416 0.903
-0.1595 0.3423 0.90499997
-0.15800001 0.3423 0.90499997
-0.155 0.3427 0.90600002
-0.15360001 0.34310001 0.90700001
-0.152 0.34310001 0.90700001
-0.1503 0.3427 0.90600002
-0.14669999 0.3416 0.903
-0.1451 0.3416 0.903
-0.1435 0.3416 0.903
-0.13249999 0.34540001 0.91299999
-0.1171 0.34200001 0.90399998
-0.1154 0.3416 0.903
-0.1136 0.34079999 0.90100002
-0.1101 0.33970001 0.898
-0.1071 0.34009999 0.89899999
-0.1055 0.34009999 0.89899999
-0.1041 0.34040001 0.89999998
-0.091899998 0.3416 0.903
-0.090300001 0.3416 0.903
-0.088799998 0.3416 0.903
-0.087200001 0.3416 0.903
-0.085500002 0.34119999 0.90200001
-0.083999999 0.34119999 0.90200001
-0.0823 0.34079999 0.90100002
-0.080799997 0.34079999 0.90100002
-0.077299997 0.33930001 0.89700001
-0.071400002 0.34079999 0.90100002
-0.060899999 0.34349999 0.90799999
-0.0594 0.34349999 0.90799999
-0.057700001 0.34310001 0.90700001
-0.054400001 0.34200001 0.90399998
-0.050900001 0.33970001 0.898
-0.046100002 0.33849999 0.89499998
-0.0447 0.33930001 0.89700001
-0.034299999 0.34419999 0.91000003
-0.0295 0.34380001 0.90899998
-0.024700001 0.34310001 0.90700001
-0.02 0.3423 0.90499997
-0.0152 0.34200001 0.90399998
-0.0137 0.34200001 0.90399998
-0.0121 0.3423 0.90499997
-0.0105 0.3416 0.903
0.034899998 0.3423 0.90499997
0.036600001 0.3427 0.90600002
0.038199998 0.34310001 0.90700001
0.039799999 0.34349999 0.90799999
0.041299999 0.34310001 0.90700001
0.0429 0.34349999 0.90799999
0.044500001 0.34349999 0.90799999
0.046100002 0.34349999 0.90799999
0.047600001 0.34349999 0.90799999
0.049199998 0.34349999 0.90799999
0.060600001 0.34540001 0.91299999
0.062199999 0.34540001 0.91299999
0.066699997 0.34419999 0.91000003
0.0682 0.34380001 0.90899998
0.069600001 0.34310001 0.90700001
0.071199998 0.34310001 0.90700001
0.0726 0.3423 0.90499997
0.077100001 0.3416 0.903
0.078500003 0.34079999 0.90100002
0.083300002 0.34119999 0.90200001
0.084899999 0.34119999 0.90200001
0.086400002 0.34119999 0.90200001
0.088 0.34119999 0.90200001
0.089500003 0.34119999 0.90200001
0.091200002 0.3416 0.903
0.097800002 0.3427 0.90600002
0.103 0.34419999 0.91000003
0.1082 0.3457 0.91399997
0.1097 0.3457 0.91399997
0.1111 0.345 0.912
0.114 0.34419999 0.91000003
0.1156 0.34419999 0.91000003
0.1171 0.34419999 0.91000003
0.1187 0.34419999 0.91000003
0.1203 0.34419999 0.91000003
0.122 0.34459999 0.91100001
0.1237 0.345 0.912
0.1252 0.34459999 0.91100001
0.1266 0.34419999 0.91000003
0.1338 0.3423 0.90499997
0.13689999 0.3423 0.90499997
0.13850001 0.3423 0.90499997
0.1497 0.34650001 0.91600001
0.1513 0.34650001 0.91600001
0.15279999 0.34650001 0.91600001
0.15440001 0.34650001 0.91600001
0.156 0.34650001 0.91600001
0.15800001 0.34720001 0.91799998
0.15970001 0.34760001 0.91900003
0.1617 0.3484 0.921
0.1636 0.34909999 0.92299998
0.1656 0.34990001 0.92500001
0.1672 0.34990001 0.92500001
-0.41670001 0.34119999 0.898
-0.41510001 0.34119999 0.898
-0.41260001 0.3405 0.89600003
-0.38060001 0.34240001 0.90100002
-0.3563 0.33860001 0.89099997
-0.35589999 0.33970001 0.89399999
-0.33700001 0.33930001 0.89300001
-0.3362 0.34009999 0.89499998
-0.33500001 0.3405 0.89600003
-0.33309999 0.34009999 0.89499998
-0.33109999 0.33970001 0.89399999
-0.32960001 0.33970001 0.89399999
-0.32800001 0.33970001 0.89399999
-0.32609999 0.33930001 0.89300001
-0.30880001 0.33899999 0.89200002
-0.30759999 0.33930001 0.89300001
-0.30649999 0.3416 0.89899999
-0.25409999 0.34240001 0.90100002
-0.24789999 0.34240001 0.90100002
-0.24600001 0.34200001 0.89999998
-0.2374 0.34310001 0.903
-0.2367 0.3443 0.90600002
-0.23559999 0.345 0.90799999
-0.234 0.345 0.90799999
-0.2325 0.345 0.90799999
-0.2306 0.34470001 0.90700001
-0.2291 0.34470001 0.90700001
-0.22750001 0.34470001 0.90700001
-0.22570001 0.3443 0.90600002
-0.2236 0.34349999 0.90399998
-0.2218 0.34310001 0.903
-0.21969999 0.34240001 0.90100002
-0.21789999 0.34200001 0.89999998
-0.21610001 0.3416 0.89899999
-0.20919999 0.3405 0.89600003
-0.2077 0.3405 0.89600003
-0.20630001 0.3409 0.89700001
-0.2017 0.3409 0.89700001
-0.20029999 0.34119999 0.898
-0.1952 0.3405 0.89600003
-0.1926 0.34119999 0.898
-0.19140001 0.34200001 0.89999998
-0.18889999 0.34310001 0.903
-0.1876 0.34349999 0.90399998
-0.186 0.34349999 0.90399998
-0.18440001 0.34349999 0.90399998
-0.1813 0.34349999 0.90399998
-0.1795 0.34310001 0.903
-0.17309999 0.34279999 0.90200001
-0.1717 0.34310001 0.903
-0.17020001 0.34310001 0.903
-0.1688 0.34349999 0.90399998
-0.1672 0.34349999 0.90399998
-0.16429999 0.3439 0.90499997
-0.16249999 0.34349999 0.90399998
-0.1609 0.34349999 0.90399998
-0.1595 0.3439 0.90499997
-0.15800001 0.3439 0.90499997
-0.1564 0.3439 0.90499997
-0.1548 0.3439 0.90499997
-0.1533 0.3439 0.90499997
-0.1517 0.3439 0.90499997
-0.15000001 0.34349999 0.90399998
-0.14820001 0.34310001 0.903
-0.1464 0.34240001 0.90100002
-0.14480001 0.34240001 0.90100002
-0.1434 0.34279999 0.90200001
-0.1417 0.34240001 0.90100002
-0.1336 0.34580001 0.91000003
-0.131 0.34729999 0.91399997
-0.1293 0.34689999 0.91299999
-0.126 0.3466 0.912
-0.1205 0.3443 0.90600002
-0.1154 0.34310001 0.903
-0.1101 0.34119999 0.898
-0.105 0.34009999 0.89499998
-0.091899998 0.34310001 0.903
-0.090300001 0.34310001 0.903
-0.088799998 0.34310001 0.903
-0.087099999 0.34279999 0.90200001
-0.085500002 0.34240001 0.90100002
-0.083899997 0.34240001 0.90100002
-0.080700003 0.34200001 0.89999998
-0.079000004 0.3416 0.89899999
-0.068599999 0.3439 0.90499997
-0.0656 0.34470001 0.90700001
-0.060899999 0.345 0.90799999
-0.050900001 0.34119999 0.898
-0.0491 0.33930001 0.89300001
-0.045899998 0.33860001 0.89099997
-0.044500001 0.33930001 0.89300001
-0.038899999 0.34470001 0.90700001
-0.037300002 0.345 0.90799999
-0.0263 0.345 0.90799999
-0.0231 0.34470001 0.90700001
-0.016799999 0.3439 0.90499997
-0.0152 0.3439 0.90499997
-0.0137 0.3439 0.90499997
-0.0121 0.3439 0.90499997
-0.0105 0.34310001 0.903
-0.0088999998 0.34200001 0.89999998
0.031800002 0.3439 0.90499997
0.033300001 0.34310001 0.903
0.034899998 0.34349999 0.90399998
0.036600001 0.3443 0.90600002
0.038199998 0.34470001 0.90700001
0.039700001 0.34470001 0.90700001
0.0414 0.345 0.90799999
0.0429 0.345 0.90799999
0.044500001 0.345 0.90799999
0.046100002 0.345 0.90799999
0.049199998 0.345 0.90799999
0.055599999 0.34580001 0.91000003
0.063699998 0.3466 0.912
0.0682 0.34540001 0.90899998
0.071099997 0.3443 0.90600002
0.081799999 0.34310001 0.903
0.083300002 0.34279999 0.90200001
0.084899999 0.34279999 0.90200001
0.086599998 0.34349999 0.90399998
0.089599997 0.34310001 0.903
0.1048 0.3466 0.912
0.1096 0.34689999 0.91299999
0.1108 0.34580001 0.91000003
0.1124 0.34580001 0.91000003
0.1139 0.34540001 0.90899998
0.1153 0.345 0.90799999
0.1169 0.345 0.90799999
0.1186 0.34540001 0.90899998
0.1203 0.34580001 0.91000003
0.1219 0.34580001 0.91000003
0.1236 0.34619999 0.91100001
0.1265 0.34540001 0.90899998
0.1338 0.3439 0.90499997
0.13860001 0.3443 0.90600002
0.14030001 0.34470001 0.90700001
0.1497 0.34810001 0.91600001
0.15090001 0.34729999 0.91399997
0.1525 0.34729999 0.91399997
0.1541 0.34729999 0.91399997
0.1557 0.34729999 0.91399997
0.1578 0.34850001 0.917
0.15970001 0.34920001 0.91900003
0.1617 0.34999999 0.921
0.16339999 0.3504 0.92199999
0.1654 0.3511 0.92400002
-0.41620001 0.34240001 0.89700001
-0.41420001 0.34200001 0.89600003
-0.38839999 0.3439 0.90100002
-0.38569999 0.3443 0.90200001
-0.37900001 0.3439 0.90100002
-0.3497 0.34279999 0.898
-0.34740001 0.34200001 0.89600003
-0.3346 0.34169999 0.89499998
-0.33309999 0.34169999 0.89499998
-0.3308 0.3409 0.89300001
-0.32769999 0.3409 0.89300001
-0.32539999 0.34009999 0.89099997
-0.31 0.34009999 0.89099997
-0.30840001 0.34009999 0.89099997
-0.30689999 0.34009999 0.89099997
-0.30509999 0.34169999 0.89499998
-0.2538 0.3436 0.89999998
-0.25040001 0.3432 0.89899999
-0.2421 0.34470001 0.903
-0.2309 0.3466 0.90799999
-0.22930001 0.3466 0.90799999
-0.22750001 0.34619999 0.90700001
-0.22570001 0.3459 0.90600002
-0.22390001 0.34549999 0.90499997
-0.2218 0.34470001 0.903
-0.21969999 0.3439 0.90100002
-0.21789999 0.3436 0.89999998
-0.2157 0.34240001 0.89700001
-0.21359999 0.34169999 0.89499998
-0.2087 0.34130001 0.89399999
-0.20739999 0.34169999 0.89499998
-0.2061 0.34200001 0.89600003
-0.2032 0.34240001 0.89700001
-0.20029999 0.34279999 0.898
-0.1988 0.34279999 0.898
-0.1972 0.34279999 0.898
-0.1957 0.34279999 0.898
-0.19320001 0.3439 0.90100002
-0.19159999 0.3439 0.90100002
-0.19050001 0.34470001 0.903
-0.18889999 0.34470001 0.903
-0.1874 0.34470001 0.903
-0.1858 0.34470001 0.903
-0.1842 0.34470001 0.903
-0.1813 0.34509999 0.90399998
-0.1778 0.3443 0.90200001
-0.17470001 0.3443 0.90200001
-0.1717 0.34470001 0.903
-0.17020001 0.34470001 0.903
-0.1688 0.34509999 0.90399998
-0.1674 0.34549999 0.90499997
-0.16599999 0.3459 0.90600002
-0.1644 0.3459 0.90600002
-0.1627 0.34549999 0.90499997
-0.1595 0.34549999 0.90499997
-0.15800001 0.34549999 0.90499997
-0.1547 0.34509999 0.90399998
-0.1531 0.34509999 0.90399998
-0.1498 0.34470001 0.903
-0.1481 0.3443 0.90200001
-0.1464 0.3439 0.90100002
-0.145 0.3443 0.90200001
-0.1435 0.34470001 0.903
-0.1418 0.3443 0.90200001
-0.1401 0.3439 0.90100002
-0.13869999 0.3443 0.90200001
-0.1283 0.34999999 0.917
-0.1172 0.34549999 0.90499997
-0.1138 0.34470001 0.903
-0.1103 0.3436 0.89999998
-0.088799998 0.34470001 0.903
-0.087200001 0.34470001 0.903
-0.085600004 0.34470001 0.903
-0.083999999 0.3443 0.90200001
-0.0823 0.3439 0.90100002
-0.072999999 0.3439 0.90100002
-0.065499999 0.3459 0.90600002
-0.063900001 0.3459 0.90600002
-0.062399998 0.34619999 0.90700001
-0.060899999 0.34619999 0.90700001
-0.052700002 0.3443 0.90200001
-0.0493 0.34200001 0.89600003
-0.047499999 0.3409 0.89300001
-0.027899999 0.3466 0.90799999
-0.024700001 0.34619999 0.90700001
-0.0231 0.3459 0.90600002
-0.016799999 0.34549999 0.90499997
-0.0152 0.34549999 0.90499997
-0.0137 0.34549999 0.90499997
-0.0121 0.34509999 0.90399998
-0.0105 0.3443 0.90200001
0.031800002 0.34549999 0.90499997
0.033300001 0.34509999 0.90399998
0.034899998 0.34549999 0.90499997
0.036600001 0.3459 0.90600002
0.038199998 0.34619999 0.90700001
0.039700001 0.34619999 0.90700001
0.041299999 0.34619999 0.90700001
0.0429 0.3466 0.90799999
0.044500001 0.3466 0.90799999
0.046100002 0.3466 0.90799999
0.062199999 0.34889999 0.91399997
0.063699998 0.34850001 0.91299999
0.069600001 0.34619999 0.90700001
0.071199998 0.34619999 0.90700001
0.072700001 0.3459 0.90600002
0.074199997 0.34549999 0.90499997
0.081900001 0.34509999 0.90399998
0.083499998 0.34509999 0.90399998
0.086599998 0.34509999 0.90399998
0.088200003 0.34509999 0.90399998
0.0898 0.34549999 0.90499997
0.091399997 0.34549999 0.90499997
0.093099996 0.3459 0.90600002
0.096299998 0.34619999 0.90700001
0.1016 0.34810001 0.912
0.1068 0.3497 0.91600001
0.1084 0.3497 0.91600001
0.1097 0.34889999 0.91399997
0.111 0.34779999 0.91100001
